ncols         746
nrows         32
xllcorner     -72.4101711111
yllcorner     42.7551
cellsize      1.0E-5
NODATA_value  -9999
216 210 204 198 194 191 189 185 179 173 178 188 197 208 221 228 226 221 218 216 211 206 200 196 193 193 191 189 188 188 189 193 197 198 198 193 187 180 173 167 160 152 146 141 136 136 137 143 143 143 143 144 145 146 146 145 145 144 142 141 141 140 141 140 140 138 137 137 139 146 150 148 143 140 139 136 136 136 137 138 138 138 138 138 139 139 140 140 141 143 144 144 147 149 152 156 160 161 162 162 160 156 151 148 147 147 148 149 149 149 149 150 152 153 155 155 155 152 149 148 149 149 151 152 152 152 153 154 154 151 149 150 151 152 152 152 152 151 150 148 146 145 145 143 142 142 142 142 143 143 143 144 144 144 144 144 146 147 150 157 163 170 176 178 179 178 175 177 181 185 187 186 180 178 177 177 179 185 190 193 196 196 192 186 177 171 168 166 164 161 161 160 160 160 160 160 160 160 160 160 160 160 160 160 161 162 163 165 167 170 172 175 176 178 183 187 191 194 198 202 206 209 210 209 208 205 204 204 204 204 206 207 207 206 205 204 203 201 201 201 200 200 201 200 199 198 197 193 190 186 180 175 172 167 163 157 153 150 148 148 148 148 148 149 149 149 149 149 148 148 148 148 148 148 149 150 150 150 149 149 149 149 149 149 150 149 149 148 148 149 149 149 149 149 149 149 149 149 149 150 149 149 149 149 149 150 150 150 150 151 154 158 162 162 162 162 162 163 165 164 164 163 165 166 167 172 173 175 176 177 178 179 181 185 186 186 184 180 179 181 184 188 191 194 198 203 210 217 222 226 231 236 240 244 248 252 255 258 262 265 269 270 270 269 267 265 264 262 260 257 256 255 255 255 256 258 261 266 273 276 277 278 281 284 289 295 301 307 313 321 328 335 343 351 360 367 372 375 377 379 381 382 383 382 380 378 378 379 380 382 382 383 383 379 376 373 370 368 366 364 360 355 353 352 352 352 352 352 352 357 367 370 376 380 384 387 390 392 393 394 396 398 399 400 400 400 400 401 403 403 405 406 408 411 416 419 420 422 421 421 419 414 411 408 403 399 396 393 391 389 389 387 386 384 381 378 379 380 379 375 372 369 368 366 364 358 355 353 349 344 339 333 327 321 319 316 310 303 297 295 296 296 295 293 292 291 290 288 287 285 283 282 278 277 282 287 289 289 290 290 289 291 294 297 299 299 298 297 297 297 298 299 302 307 310 310 312 318 321 323 326 328 330 332 334 336 338 340 340 342 344 345 345 345 345 346 347 349 350 351 353 353 352 352 354 357 360 364 367 370 371 373 374 376 378 380 382 385 389 392 393 397 401 402 405 407 409 411 412 413 412 411 410 409 407 407 407 409 413 418 423 427 433 437 441 445 447 448 451 452 453 454 454 452 451 450 449 448 445 443 441 438 434 429 424 418 411 404 402 401 396 391 390 387 384 380 376 375 374 374 375 375 375 375 374 374 374 374 374 374 376 377 377 378 381 383 384 385 388 393 399 405 409 413 418 420 422 426 427 427 428 429 430 430 430 430 431 434 436 437 439 440 442 443 444 446 448 449 448 449 453 460 466 470 474 480 486 491 493 491 489 496 502 508 514 522 528 532 535 536 538 543 550 554 560 568 571 569 559 548 538 532 527 522 516 508 500 498 493 490 485 480 477 477 477 476 476 476 476 477 477 478 477 476 475 475
217 212 206 199 191 188 187 185 178 172 176 186 194 206 217 222 221 219 215 212 207 202 198 193 191 192 191 189 187 187 190 196 201 202 202 196 188 180 173 166 160 152 145 140 136 136 137 143 143 142 142 143 144 144 143 142 142 142 141 140 140 139 139 139 139 138 138 141 145 149 149 145 141 140 138 136 136 137 138 138 138 138 138 138 138 138 140 140 141 142 143 144 146 149 152 156 159 160 161 160 157 153 148 148 148 149 149 150 150 149 149 150 152 155 157 159 157 153 149 148 149 149 149 149 150 150 152 153 153 152 152 154 155 156 156 156 155 154 153 151 149 149 148 146 143 142 142 143 143 143 143 144 144 144 145 145 146 147 150 156 162 169 175 177 178 177 173 175 180 184 186 186 180 177 174 174 179 186 191 197 202 202 194 187 178 171 168 166 164 162 162 161 160 160 160 160 160 160 160 160 160 160 160 160 161 163 165 167 168 170 172 173 174 177 180 185 187 191 196 199 202 204 206 205 204 201 200 202 203 204 206 207 207 207 206 204 203 202 201 201 199 199 199 198 198 198 196 193 189 184 179 175 171 166 161 156 152 149 148 148 148 148 148 149 149 149 149 149 148 148 148 148 148 148 148 149 149 149 148 148 148 148 148 149 149 149 148 148 148 148 148 149 149 149 149 149 149 149 149 149 149 149 149 150 150 150 150 150 150 150 153 157 159 161 161 161 162 163 163 161 160 161 162 165 167 172 173 175 176 177 179 181 183 185 186 185 182 179 179 182 185 188 192 195 199 204 212 218 221 226 230 235 240 244 249 252 255 258 262 265 269 271 270 269 267 265 264 261 259 257 256 254 255 256 257 259 262 267 272 275 276 279 282 285 290 297 303 308 316 323 331 339 346 356 363 369 373 376 378 380 383 385 387 384 382 381 380 380 381 382 383 383 384 382 377 374 370 368 366 363 360 355 353 352 352 352 352 352 352 358 367 370 376 380 384 387 390 392 393 394 397 399 400 401 401 401 401 402 403 404 405 407 408 412 416 419 420 422 421 421 419 415 412 409 405 401 398 396 394 392 391 390 388 386 384 382 381 383 382 377 372 370 368 366 364 359 356 353 348 344 337 332 326 318 317 314 309 303 298 296 299 299 298 296 294 292 291 290 289 288 286 283 278 278 283 287 289 291 293 293 293 295 297 299 300 300 298 297 297 297 298 298 302 306 308 309 314 319 323 325 327 329 331 333 335 338 340 341 343 344 346 347 347 348 347 347 348 350 351 352 353 353 353 353 353 356 360 364 366 368 370 371 372 374 376 379 381 384 389 392 393 397 401 402 404 407 408 410 411 411 411 410 409 407 407 407 408 411 415 420 425 430 435 439 443 445 447 448 449 450 450 451 451 448 446 445 443 440 437 435 433 431 428 424 419 414 409 403 399 398 395 389 387 385 382 378 376 375 374 374 375 374 374 374 374 374 374 374 374 375 376 377 377 378 382 383 385 388 391 394 400 405 409 413 418 420 423 426 427 427 427 428 428 429 429 428 430 432 434 435 437 438 440 441 442 444 446 447 445 445 450 457 460 466 470 475 482 486 488 486 486 493 498 504 508 514 520 525 527 530 535 542 547 551 556 563 566 562 549 538 528 520 515 511 506 498 491 488 486 483 478 474 473 473 473 472 472 473 473 474 475 475 475 475 474 473
222 216 209 201 192 184 182 183 176 170 175 184 192 204 213 216 216 215 212 208 204 199 194 190 191 192 191 188 186 185 190 198 206 208 205 199 190 179 172 165 159 152 145 139 136 136 137 142 141 141 141 142 142 142 141 141 140 140 140 139 138 137 137 137 138 140 141 145 149 149 147 143 141 140 138 136 136 137 139 140 138 138 138 138 138 138 140 140 142 142 143 143 146 148 151 154 156 157 157 156 153 150 148 148 149 150 151 151 151 150 150 151 153 156 159 162 160 156 151 148 150 150 149 149 150 152 153 154 156 156 157 158 159 159 159 159 158 157 156 154 152 153 152 149 146 142 142 143 143 143 144 145 145 145 145 146 146 147 150 155 162 168 173 175 176 175 172 174 178 182 186 186 180 177 173 174 179 187 193 200 207 206 195 187 177 171 168 166 165 163 162 161 160 160 160 160 160 160 160 160 160 160 160 160 161 163 166 168 168 170 171 172 173 176 178 181 184 190 194 196 198 199 201 201 199 197 198 202 204 206 207 208 208 208 207 205 204 203 201 201 199 198 198 197 197 196 194 191 187 182 177 173 169 164 159 155 150 149 148 148 148 148 149 149 149 149 149 149 148 148 148 148 148 148 148 148 148 148 148 148 148 148 148 148 148 148 148 148 148 148 148 149 149 149 149 149 149 149 149 149 149 149 150 150 150 150 150 150 150 150 151 154 156 159 160 161 162 162 162 159 157 161 161 165 167 171 173 175 176 177 179 181 183 184 184 183 180 179 180 183 186 190 193 197 201 206 213 217 220 224 228 233 239 244 249 252 255 258 263 265 268 270 270 269 266 264 263 260 258 256 255 253 255 256 258 261 263 267 271 273 275 280 283 287 291 299 305 310 318 325 334 341 348 358 365 371 374 376 378 381 383 386 389 387 383 382 382 382 382 382 383 383 384 383 379 375 370 368 366 362 359 355 353 352 352 352 352 352 352 358 366 369 376 380 384 387 390 392 393 394 398 400 401 402 403 403 403 403 404 404 405 407 408 412 417 419 420 422 421 421 419 416 412 410 407 403 400 398 396 394 392 391 389 388 386 385 384 384 384 380 375 371 369 367 365 361 356 352 347 342 335 329 322 317 316 312 309 304 299 298 300 301 300 298 296 294 293 292 291 289 288 285 279 278 283 286 288 291 293 295 296 298 300 300 300 300 298 297 297 296 297 298 302 305 305 309 315 320 324 326 328 330 332 334 337 339 341 343 344 346 348 348 349 349 349 348 349 350 352 352 353 354 354 353 353 355 359 362 364 366 367 369 371 374 376 379 381 384 389 392 393 397 401 402 404 407 407 409 410 410 409 408 407 407 407 407 410 413 418 423 428 433 439 442 445 447 448 448 448 447 447 447 447 444 440 437 436 433 430 428 426 424 421 417 414 410 406 401 396 394 392 388 384 381 380 377 375 374 374 374 374 374 374 374 374 374 374 374 374 375 376 377 377 378 381 383 385 388 390 393 399 405 409 413 418 421 423 426 426 426 426 426 426 426 426 425 428 431 432 434 435 436 438 439 441 442 443 444 442 442 448 453 457 461 466 471 476 481 482 481 484 489 494 499 503 507 513 519 524 529 534 538 543 547 552 557 557 554 548 540 527 515 507 501 496 491 486 481 479 476 472 471 470 469 469 469 469 469 470 470 472 473 473 474 473 472
225 217 210 201 193 182 175 178 174 169 174 181 189 200 209 210 212 212 208 204 200 196 190 187 191 191 190 188 186 184 189 199 208 210 207 200 190 179 171 164 158 151 145 139 136 136 136 139 140 140 140 140 140 140 140 140 139 139 139 139 138 137 137 137 139 141 143 147 148 147 145 143 141 140 138 136 136 137 140 143 141 140 139 138 138 139 140 140 142 142 143 143 145 147 148 151 153 155 154 152 149 149 148 149 150 151 151 151 151 150 150 152 154 157 161 163 162 159 154 151 154 154 152 151 152 155 157 158 160 161 162 162 162 162 162 162 161 160 158 156 155 156 155 152 149 144 143 143 143 143 143 144 144 144 145 145 146 147 149 153 159 166 171 173 174 173 171 173 177 181 184 185 180 177 173 174 180 189 195 202 208 206 195 186 176 170 167 166 165 164 163 162 160 160 160 160 160 160 160 160 160 160 160 160 161 163 166 168 168 170 171 171 172 174 176 178 182 188 191 193 195 195 195 195 194 194 199 204 206 208 209 209 209 209 208 207 205 204 202 201 199 199 198 197 195 194 193 190 186 181 176 171 167 161 157 152 149 149 148 148 148 149 150 150 149 149 149 149 148 148 148 148 148 148 148 148 148 148 148 148 148 148 148 148 148 148 148 148 148 148 148 149 149 149 149 149 149 149 149 149 149 149 150 150 150 150 150 150 150 150 151 152 154 160 161 162 161 161 160 157 155 158 162 165 168 170 173 175 176 177 179 180 182 183 182 181 179 179 180 184 187 190 194 198 202 207 213 216 219 223 227 232 237 243 248 251 255 258 262 265 267 270 269 269 266 264 262 260 257 255 252 253 255 256 258 262 264 267 270 271 275 280 283 287 293 301 306 311 319 327 335 343 351 360 367 372 375 376 378 381 382 385 389 387 383 382 382 383 383 383 383 383 384 382 378 374 370 368 366 363 360 355 353 352 352 352 352 352 352 359 366 369 375 380 383 387 390 392 393 394 398 401 402 403 404 404 405 404 403 403 404 407 408 412 417 420 421 422 421 421 420 417 413 411 408 405 402 400 398 396 394 393 391 390 388 387 386 386 385 381 376 371 370 370 367 362 357 352 346 340 332 327 321 319 317 314 312 308 301 299 302 303 302 301 299 296 295 293 292 291 289 285 280 278 282 286 288 290 292 294 296 298 300 301 301 300 298 296 296 295 296 296 299 301 303 310 316 321 325 327 330 332 334 336 339 341 344 345 347 348 349 349 350 350 350 350 350 351 352 352 353 353 353 352 352 353 356 359 360 363 364 367 370 372 375 378 381 384 388 391 393 397 400 402 404 406 407 408 409 409 408 407 407 407 407 409 412 415 420 426 432 437 442 445 447 449 449 449 448 446 445 444 440 438 435 430 428 426 424 420 418 416 415 412 409 406 402 398 393 389 388 386 383 378 377 376 375 374 374 374 374 374 374 374 374 374 374 374 374 375 376 377 377 378 381 382 384 386 389 393 398 404 408 413 418 420 423 425 425 424 424 424 424 425 425 424 427 429 431 432 434 435 436 438 439 440 442 441 438 439 445 450 454 458 462 467 472 476 476 478 481 485 489 495 499 503 509 517 524 528 532 534 538 543 548 551 552 552 552 545 531 515 502 493 489 486 481 476 472 470 468 467 466 466 466 466 466 466 467 467 469 471 472 473 472 471
226 219 210 201 193 182 173 171 170 167 172 179 186 196 202 203 208 208 204 200 197 193 187 185 190 190 189 187 185 183 188 198 207 208 205 199 189 178 170 163 157 150 144 138 136 136 136 137 138 138 138 138 138 138 138 138 138 138 138 138 138 137 137 137 140 142 145 147 146 144 143 143 140 140 139 136 136 136 139 143 143 142 140 139 139 139 140 141 142 143 143 143 144 146 147 148 150 152 151 150 150 150 149 150 150 151 152 152 152 152 152 153 154 158 163 166 165 161 157 155 157 157 157 156 156 158 161 163 165 166 166 166 165 165 165 164 163 162 160 159 158 158 157 155 152 147 143 143 143 143 143 144 144 144 145 145 146 147 149 152 157 163 168 171 173 171 168 172 176 179 182 183 180 176 173 174 182 189 196 204 207 204 194 184 174 169 166 166 166 166 164 163 160 160 160 160 160 160 160 160 160 160 160 161 162 164 166 168 168 170 171 171 172 173 175 177 181 186 189 191 191 191 191 190 189 194 201 206 209 210 212 212 212 211 210 208 207 205 203 202 200 199 199 197 193 192 192 188 183 178 173 168 164 159 154 149 149 148 148 148 149 150 150 150 149 149 149 149 148 148 148 148 148 148 148 148 148 148 148 148 148 148 148 148 148 148 148 148 148 149 149 149 149 149 149 149 149 149 149 149 149 149 150 150 150 150 150 150 150 150 151 152 154 158 160 160 158 156 156 154 155 158 164 168 171 173 174 175 177 178 179 180 181 181 180 180 178 179 182 184 188 191 195 199 203 207 211 215 218 221 226 230 236 241 246 250 254 257 262 264 267 270 269 268 265 263 261 259 256 253 252 253 254 256 258 262 264 266 268 271 275 279 282 288 294 301 307 313 321 328 336 344 354 362 368 373 375 377 378 381 382 384 387 385 383 383 383 383 384 382 382 382 383 380 376 372 370 367 366 363 360 357 354 353 353 353 352 352 352 360 366 369 375 379 383 387 389 392 393 394 398 401 402 404 406 406 407 405 402 402 403 406 408 411 417 420 421 422 421 421 420 417 415 412 410 407 404 401 399 397 395 394 392 391 389 389 389 389 385 381 376 371 372 372 368 362 357 351 344 337 332 329 325 323 320 316 313 309 302 303 305 305 305 303 300 298 296 294 293 292 290 287 282 278 279 284 287 289 291 293 295 297 299 300 300 300 298 296 294 294 294 293 295 297 303 311 316 322 325 328 331 333 335 338 341 343 345 347 348 349 350 351 352 352 352 352 352 352 352 352 353 352 352 352 352 352 353 356 357 359 361 366 370 372 375 378 381 384 388 390 393 396 399 401 403 405 406 407 408 408 407 407 407 407 408 411 414 419 424 430 436 440 444 447 449 451 451 450 449 446 444 442 436 432 432 428 421 419 416 413 410 409 408 406 404 401 398 394 390 385 384 383 380 376 375 375 374 374 374 374 374 374 374 374 374 374 374 375 375 375 377 377 377 379 381 382 383 385 388 391 396 402 408 413 417 420 422 423 421 420 419 421 423 423 423 423 425 428 429 430 432 433 435 436 437 438 439 437 435 437 443 447 451 455 459 463 467 470 472 476 479 482 487 493 498 503 509 516 523 526 529 531 534 538 545 549 554 557 555 545 529 513 499 488 482 479 476 473 468 465 464 464 463 463 462 462 463 463 464 465 466 468 469 470 470 470
226 219 209 200 191 184 175 168 167 166 170 175 182 190 194 196 201 202 199 196 193 189 183 183 187 188 187 186 183 180 187 197 203 204 200 193 185 177 170 162 156 148 144 138 136 136 136 136 137 137 137 137 137 137 137 137 137 137 137 137 137 138 138 138 141 143 144 144 143 142 142 142 140 139 139 136 136 136 136 140 142 141 140 140 140 140 140 141 142 144 144 144 144 145 146 147 148 149 149 150 150 150 150 150 151 152 152 152 152 153 153 154 154 158 164 168 168 165 160 157 159 160 161 160 159 161 165 167 168 169 169 169 168 168 168 167 166 165 162 160 160 160 159 158 155 150 146 145 143 143 143 144 144 144 144 145 145 146 148 151 155 160 164 168 170 168 166 171 176 178 180 180 178 175 173 176 182 189 197 203 205 203 192 183 173 168 167 167 167 167 165 163 161 160 160 160 160 160 160 160 160 160 160 161 163 165 167 168 168 169 170 170 171 172 173 175 180 183 186 187 187 187 186 185 187 195 203 207 211 213 216 216 216 215 213 211 209 206 203 202 201 200 198 196 192 191 189 185 181 175 170 166 160 156 151 149 149 148 148 149 149 150 150 150 149 149 149 149 148 148 148 148 148 148 148 148 148 148 148 148 149 150 149 149 150 150 151 151 150 150 149 149 149 149 149 149 149 149 149 149 149 149 149 149 149 150 150 150 150 150 150 151 152 153 154 153 152 153 153 153 155 160 164 169 174 174 174 176 177 179 179 180 179 178 178 178 178 179 182 185 188 192 195 199 203 207 210 214 217 220 224 229 233 239 245 249 253 257 261 264 267 269 269 267 264 262 260 258 255 252 251 252 254 255 258 261 263 265 267 271 277 282 286 292 296 301 307 313 321 329 336 345 357 365 370 373 376 377 378 381 382 382 384 382 382 383 383 383 384 382 381 381 382 378 375 371 369 367 365 362 359 358 355 354 354 353 353 352 355 361 366 370 374 379 382 386 389 391 392 394 397 400 403 406 407 407 408 406 402 401 401 404 407 411 417 420 421 422 421 421 420 418 416 414 412 409 406 403 400 398 396 395 394 393 391 390 390 389 385 380 375 371 371 371 367 362 356 349 342 339 336 332 326 323 319 315 312 308 304 306 308 308 308 304 301 298 297 295 295 294 292 288 284 278 277 280 283 285 287 289 292 295 297 299 299 299 297 295 294 293 293 292 292 296 305 311 316 322 326 329 332 334 337 340 343 344 346 348 349 350 352 352 353 353 353 352 352 351 352 352 353 351 351 351 351 352 352 353 354 356 360 368 373 375 378 380 383 385 388 390 392 396 398 400 402 404 406 407 407 407 406 406 407 408 410 413 418 423 428 434 439 443 447 449 452 454 454 452 449 446 443 439 433 427 428 427 419 414 410 405 403 401 400 399 398 396 393 390 386 381 381 380 378 376 375 374 374 374 374 374 374 374 374 374 374 374 375 375 375 376 377 377 377 379 381 382 384 386 388 390 394 399 406 412 416 419 420 420 418 416 417 420 421 421 421 422 424 426 428 429 430 431 432 434 436 436 435 433 432 435 440 446 450 453 455 458 462 465 470 475 479 483 489 495 499 503 508 514 520 524 527 529 531 535 543 549 557 557 550 537 521 505 493 484 477 472 471 468 465 462 460 460 460 460 459 459 460 460 462 463 464 466 467 468 469 468
226 218 208 198 190 183 175 165 165 165 168 172 177 184 187 189 195 196 195 193 189 185 180 180 185 186 186 184 180 178 185 193 198 196 191 186 180 174 168 161 155 148 144 137 136 136 136 136 136 136 136 136 136 136 136 136 136 136 136 136 136 137 137 139 141 142 142 141 141 141 141 140 139 139 138 136 136 136 136 138 138 138 139 140 140 140 141 141 142 143 144 144 144 145 146 146 148 149 149 150 150 150 150 151 152 153 154 154 154 154 154 154 155 158 165 170 171 168 161 159 160 162 163 164 163 164 168 170 171 172 172 172 171 171 170 169 168 167 164 163 163 163 162 160 157 153 149 148 147 144 144 144 145 145 145 145 146 146 147 150 154 158 161 165 166 165 165 171 175 177 178 178 176 173 173 176 182 189 196 201 204 200 191 182 173 168 167 167 170 168 166 164 161 160 160 160 160 160 160 160 160 160 160 162 163 166 168 169 169 168 169 169 170 171 172 173 178 181 183 184 184 183 182 182 188 197 204 209 214 217 220 222 222 220 217 214 211 208 204 203 202 201 198 196 192 189 186 182 177 171 166 162 156 151 149 149 149 149 149 149 150 150 150 150 149 149 149 149 149 149 149 149 149 149 150 150 150 150 150 151 152 154 153 153 154 156 158 158 156 155 152 149 149 149 149 149 149 149 149 149 149 149 149 149 149 150 150 150 150 150 150 150 150 150 151 151 152 153 153 154 155 157 162 167 172 173 174 175 177 179 177 176 175 175 175 176 177 180 183 185 189 193 195 198 202 205 209 212 215 218 222 227 232 238 243 248 251 256 261 263 266 268 268 266 264 261 259 257 254 251 250 251 253 255 257 259 261 262 267 273 280 285 290 295 299 303 308 313 320 328 337 346 359 367 372 375 377 378 378 381 381 381 382 382 382 382 383 383 384 382 380 380 379 376 373 370 368 366 364 361 359 358 356 355 355 356 356 355 357 362 368 371 374 378 382 385 389 391 392 394 397 400 403 407 409 409 409 407 404 401 401 403 406 410 416 420 421 422 421 421 420 419 417 415 413 411 407 404 401 399 398 396 395 395 394 391 390 388 384 379 373 372 371 370 365 360 354 349 346 343 338 332 326 322 318 316 311 309 308 309 311 311 310 306 302 299 297 297 296 294 293 290 284 279 277 278 279 280 281 284 289 292 295 297 297 296 295 294 293 291 291 291 293 298 305 311 316 322 326 330 333 335 338 341 343 345 347 349 350 351 353 354 354 354 353 352 351 351 351 351 351 350 349 349 350 351 351 352 352 353 363 370 374 377 380 383 386 388 391 393 395 396 397 399 402 403 405 406 406 406 406 406 407 409 413 417 421 426 432 437 441 446 449 452 455 456 454 451 448 444 441 436 430 424 422 425 421 415 408 400 394 392 392 391 392 390 388 385 382 378 378 379 377 375 374 374 374 374 374 374 374 374 374 374 375 375 375 376 376 376 377 377 377 378 381 382 384 388 390 391 393 397 403 408 412 416 418 417 415 413 417 419 420 420 419 419 423 425 427 427 429 430 431 432 433 433 432 430 429 434 439 444 448 450 452 455 460 464 469 474 479 483 489 495 498 502 506 511 517 522 525 527 530 534 541 549 556 553 542 527 511 496 487 480 474 467 465 462 462 460 457 457 457 457 457 457 458 459 460 461 462 464 466 467 467 467
223 214 206 196 188 181 173 165 164 165 167 169 173 178 180 185 190 193 193 192 186 181 177 179 183 184 183 182 177 176 182 189 190 188 184 180 174 170 165 160 155 148 143 136 136 136 136 136 136 136 136 136 136 136 136 136 136 136 136 136 136 136 136 137 138 139 139 138 139 140 140 139 139 138 138 136 136 136 136 137 138 138 139 141 141 141 141 141 142 143 143 143 144 145 145 147 148 149 149 150 151 151 152 153 153 154 154 154 154 154 155 155 157 159 166 171 172 167 160 160 161 164 166 167 166 167 170 172 174 174 174 174 174 174 173 172 170 169 166 166 166 165 164 162 160 156 152 152 150 147 146 147 148 148 149 148 148 147 147 148 152 155 159 162 162 162 165 172 175 176 177 176 173 173 175 178 183 189 195 200 200 196 188 179 172 167 167 169 173 170 166 165 161 160 160 160 160 160 160 160 160 160 160 162 164 166 168 169 169 168 168 168 169 170 171 172 177 180 181 182 181 179 179 182 189 199 206 212 218 222 225 227 226 224 220 216 213 210 205 203 203 202 199 196 192 189 185 180 175 167 162 157 152 149 149 149 149 149 149 150 151 150 150 150 149 149 149 149 149 149 149 150 153 154 155 156 157 157 155 156 159 160 159 158 160 161 161 161 160 159 159 152 149 149 149 149 149 149 149 149 149 149 149 149 149 149 150 150 150 150 150 150 151 152 153 154 154 155 155 156 156 157 160 164 168 171 173 173 174 175 174 173 172 173 173 174 177 180 183 186 190 193 195 198 201 204 207 211 214 217 221 225 230 236 242 247 251 256 260 263 265 267 267 265 263 261 258 256 253 250 250 251 252 253 255 257 259 263 270 275 282 286 293 297 302 307 311 314 320 328 339 350 362 369 373 377 378 378 379 380 380 381 381 381 381 382 382 383 383 381 380 379 377 375 372 370 367 365 363 360 359 358 357 356 357 359 361 359 359 363 369 371 374 378 381 384 388 390 392 393 397 400 403 407 409 409 409 407 405 402 401 401 405 409 415 420 421 422 421 421 421 420 419 417 415 412 409 406 403 402 400 398 395 395 394 391 390 387 384 378 373 372 371 369 363 359 355 352 350 346 339 333 326 322 321 318 312 312 311 311 313 314 312 308 304 299 298 297 296 294 293 289 284 281 280 279 278 278 278 278 283 290 292 294 294 292 292 291 290 289 288 290 293 299 305 311 316 322 327 330 333 336 339 342 345 346 348 349 350 351 353 353 353 353 352 351 350 350 350 350 349 349 348 348 350 351 351 352 352 354 364 371 375 378 381 385 388 391 393 395 397 398 399 398 400 402 403 404 406 406 406 406 408 411 416 420 425 429 434 439 443 448 452 455 457 456 454 450 446 443 437 432 427 421 419 422 420 417 410 402 391 386 384 384 384 384 382 380 378 377 378 378 377 375 374 374 374 374 374 374 374 374 374 374 375 375 375 376 376 376 377 377 377 378 380 381 384 388 392 394 394 395 400 405 408 412 414 413 412 410 415 418 419 418 417 418 422 424 426 426 426 427 429 430 431 430 429 427 428 433 437 440 444 447 450 454 460 465 469 474 478 483 488 494 498 502 506 510 514 520 523 525 528 532 539 549 553 545 534 516 501 488 480 475 470 466 462 459 458 456 454 454 454 454 454 455 456 457 458 459 460 462 464 466 467 466
219 210 202 194 186 179 171 165 163 163 163 166 170 173 176 180 186 192 192 192 187 180 175 175 179 180 180 178 173 173 180 183 183 181 178 174 169 165 161 158 154 148 143 136 136 136 136 136 136 136 136 136 136 136 136 136 136 136 136 136 136 136 136 136 136 137 137 137 138 139 139 139 138 138 137 136 136 136 136 137 137 138 139 141 143 144 142 142 142 143 143 143 144 145 145 147 149 149 149 151 152 152 153 154 155 155 155 155 155 155 156 158 162 163 166 171 169 163 160 160 162 165 168 169 169 170 171 174 175 176 177 177 176 176 175 174 172 170 168 168 169 168 166 164 162 159 156 155 153 150 149 150 151 151 152 151 151 149 148 148 149 153 156 158 159 161 166 172 175 175 175 175 173 173 179 182 188 193 196 199 197 191 183 176 171 168 168 172 173 170 167 165 162 160 160 160 160 160 160 160 160 160 160 162 164 166 168 168 168 168 168 168 168 168 168 171 175 179 179 179 178 176 176 182 191 202 208 215 222 227 231 233 231 228 224 219 215 212 207 203 203 203 198 195 192 189 185 180 175 167 159 154 150 149 149 149 149 149 149 150 151 150 150 150 149 149 149 149 149 149 151 157 160 162 162 162 162 162 161 162 162 163 162 162 162 163 162 162 162 161 161 156 149 149 149 149 149 149 149 149 149 149 149 149 149 149 150 150 150 150 150 151 154 157 158 158 157 159 160 160 162 162 162 163 165 168 171 171 171 172 172 172 172 173 173 173 176 180 184 186 190 194 195 198 201 203 206 211 214 217 220 225 229 234 241 246 250 254 258 262 264 265 265 265 263 260 257 255 252 250 250 251 252 252 256 257 260 264 271 277 284 288 294 299 305 310 313 316 323 332 342 355 365 371 375 378 379 379 379 379 379 379 379 380 380 381 382 382 383 381 379 378 376 373 371 370 367 365 363 362 361 359 358 357 358 361 364 363 361 363 369 371 374 378 381 383 387 389 391 393 396 400 403 407 409 409 410 408 406 403 400 400 403 407 413 419 420 421 421 421 421 420 419 418 416 414 411 408 405 403 400 398 395 394 393 391 389 387 383 377 373 371 371 369 363 360 358 355 351 347 340 333 328 326 324 319 314 315 313 314 315 316 313 310 306 301 298 298 297 294 293 290 286 285 283 281 280 278 278 278 281 287 289 290 289 287 289 288 287 286 288 290 293 298 305 311 316 322 327 330 334 337 339 342 345 346 348 349 349 351 353 352 352 351 350 350 349 349 349 349 348 347 347 348 350 351 351 352 353 357 366 372 376 379 383 386 389 392 394 397 399 400 401 401 401 402 402 404 406 406 406 407 410 414 419 423 428 432 437 441 445 450 454 456 457 456 453 448 444 440 433 428 424 419 416 420 420 417 411 403 393 386 382 379 378 378 378 377 377 377 378 378 377 375 374 374 374 374 374 374 374 374 374 375 375 375 375 376 376 376 377 377 377 378 380 381 384 388 392 395 397 397 400 403 406 409 410 409 408 406 411 415 416 416 415 416 420 422 424 424 424 424 426 427 427 427 426 424 427 430 433 437 442 446 450 456 461 465 469 473 478 482 488 494 498 503 506 509 513 519 522 524 527 531 538 546 546 537 522 505 493 481 474 469 466 463 461 458 455 453 450 449 451 451 452 453 454 455 456 457 459 461 462 464 465 465
213 206 198 191 184 178 171 167 165 162 161 162 168 170 173 176 182 189 191 192 188 181 173 172 175 176 176 173 169 172 176 179 177 175 172 168 163 159 156 154 151 148 142 136 136 136 136 136 136 136 136 136 136 136 136 136 136 136 136 137 137 136 136 136 136 136 136 136 138 138 138 138 137 137 136 136 136 136 137 137 138 138 141 142 145 148 145 143 143 143 143 143 144 144 145 147 149 150 150 151 152 152 153 155 156 156 155 155 155 155 157 161 165 167 168 168 164 160 160 160 163 167 170 171 172 173 173 175 177 178 179 179 179 178 177 176 175 172 171 171 171 170 169 167 164 162 159 158 156 153 152 152 153 153 153 153 152 152 150 149 149 150 153 155 157 161 166 172 174 175 175 174 173 174 182 188 192 197 199 199 196 187 179 173 171 168 170 173 173 171 168 166 162 160 160 160 160 160 160 160 160 160 160 162 165 167 169 168 168 168 167 167 167 167 167 170 174 177 177 176 174 173 175 183 193 204 212 220 228 236 240 241 237 232 228 222 217 213 208 203 202 203 198 194 191 188 184 180 175 168 159 152 150 149 149 149 149 149 149 150 151 151 151 150 150 150 150 150 150 150 155 161 163 163 163 163 163 163 163 163 163 163 163 163 163 163 162 162 162 162 162 159 151 149 149 149 149 149 149 149 149 149 149 149 149 149 150 150 150 150 150 152 155 159 160 162 162 162 163 163 165 165 165 166 166 167 168 171 171 172 172 172 173 173 173 174 175 179 183 186 190 193 195 198 201 203 207 211 214 217 220 225 228 234 240 245 249 254 257 261 262 264 265 264 262 259 257 254 251 249 249 251 252 255 259 261 264 268 272 279 285 290 295 301 306 310 314 316 323 332 343 357 367 373 376 378 378 378 378 378 379 378 378 378 379 380 382 383 383 380 378 377 376 372 371 370 369 367 367 366 364 361 359 358 358 363 368 368 366 364 368 370 373 377 380 382 385 388 390 393 396 400 403 406 409 409 410 408 406 404 401 400 401 406 411 417 419 420 421 420 420 420 419 418 416 414 412 408 405 402 399 397 395 393 392 390 388 386 383 378 373 371 371 369 364 361 358 355 351 347 340 334 332 329 326 319 317 317 316 317 318 317 314 311 308 303 298 298 297 295 294 293 291 289 286 283 280 278 278 278 283 286 285 284 283 283 285 284 284 285 287 289 292 297 304 310 315 322 327 330 334 337 339 342 344 346 348 348 348 350 353 352 351 350 349 349 348 348 348 348 347 346 346 348 350 352 352 352 353 360 368 373 376 380 384 388 391 394 396 399 401 402 402 402 402 402 403 405 406 406 407 409 413 417 422 426 430 436 439 443 447 451 455 457 457 456 452 447 442 436 430 425 421 416 413 418 420 418 412 404 395 388 383 380 378 377 376 376 376 377 377 377 376 374 374 374 374 374 374 374 374 374 374 375 375 375 375 376 376 376 377 377 377 377 379 381 384 388 391 394 397 400 401 403 404 405 406 405 404 403 408 412 414 413 412 414 417 419 420 421 421 422 423 424 424 424 423 422 424 427 430 436 442 447 451 456 461 465 469 473 477 483 489 495 498 502 505 509 513 518 521 523 526 530 535 540 537 526 510 497 486 476 471 463 459 459 457 455 453 450 445 444 447 447 448 450 452 453 454 456 457 459 460 462 463 463
208 201 194 188 181 176 172 172 170 166 160 159 166 169 171 174 178 185 189 190 186 180 172 169 171 172 172 170 165 168 172 173 171 169 165 161 157 154 150 147 146 144 140 136 136 136 136 136 136 136 136 136 136 136 136 137 137 137 137 137 137 138 138 137 136 136 136 136 137 138 138 137 136 136 136 136 136 136 139 140 139 139 141 143 147 150 147 143 143 144 144 144 144 144 146 147 149 150 150 152 152 153 154 155 157 158 155 155 155 156 160 164 167 169 168 166 161 160 160 161 165 168 171 173 175 176 176 177 179 180 181 182 183 182 181 179 177 174 173 173 173 172 171 169 167 164 161 161 159 157 155 155 156 156 156 155 155 154 153 151 150 150 152 153 156 160 165 170 174 174 174 173 173 177 185 192 196 199 200 198 194 185 178 173 171 170 171 173 173 171 169 167 163 160 160 160 160 160 160 160 160 160 160 162 165 167 169 168 168 168 167 167 167 167 167 169 172 174 174 173 171 172 176 184 195 206 216 225 235 243 248 249 244 238 231 225 219 213 208 203 201 202 198 193 189 185 182 178 173 167 158 152 150 150 149 149 149 149 150 150 151 153 154 153 153 153 154 155 155 155 159 163 163 163 164 164 164 164 164 164 164 164 164 164 164 163 163 163 163 163 163 162 156 149 149 149 150 151 150 149 149 149 149 149 149 149 150 150 150 150 151 153 155 158 160 162 163 164 164 165 167 168 168 168 169 168 169 171 171 172 173 174 175 176 176 176 176 179 182 186 190 193 195 197 201 203 207 212 215 218 221 225 228 234 240 244 248 252 256 259 261 263 263 263 262 258 256 254 251 249 248 252 255 258 262 265 268 271 275 280 286 291 296 302 306 310 314 316 322 331 343 357 368 373 376 378 378 378 378 378 378 378 378 378 378 380 383 384 383 380 377 377 376 373 372 372 372 372 372 370 367 363 360 358 358 365 371 373 370 367 367 370 372 377 379 381 384 386 389 392 396 400 403 407 409 409 410 408 406 404 401 400 400 404 409 414 418 419 419 419 419 418 418 417 415 413 411 407 403 400 398 396 394 392 391 389 387 385 382 378 373 371 371 368 363 360 356 353 349 346 341 339 336 332 326 319 318 318 318 319 319 317 314 311 308 303 298 298 297 296 296 295 294 293 289 285 281 279 279 281 283 282 280 280 280 280 281 281 281 283 286 288 291 295 302 308 315 321 326 330 334 336 339 341 343 345 346 346 346 347 350 350 349 349 348 347 346 346 346 346 345 345 347 349 351 353 354 355 357 362 369 374 378 382 386 390 393 396 399 402 402 403 404 404 404 404 405 405 407 407 408 412 416 420 424 429 434 440 442 446 450 454 456 457 457 455 450 443 438 433 427 422 419 413 412 416 419 418 413 405 396 390 385 381 379 377 376 376 376 376 376 376 375 374 374 374 374 374 374 374 374 374 374 375 375 375 376 376 377 377 377 377 377 377 378 381 384 387 390 394 396 399 401 402 401 400 400 399 399 401 406 409 411 411 410 412 414 416 417 418 418 419 420 421 421 421 420 421 424 428 433 438 445 449 454 458 463 467 470 474 479 485 490 495 498 500 504 508 512 516 520 522 525 528 531 533 528 515 500 488 479 472 467 461 455 453 452 451 449 446 440 438 441 442 443 446 449 451 452 454 456 457 459 460 461 462
202 195 189 185 179 176 175 176 175 170 161 158 163 168 169 170 175 180 185 186 182 177 170 166 168 169 168 166 161 163 166 166 164 162 160 157 153 149 145 144 143 141 139 136 136 136 136 136 137 137 137 137 137 137 137 137 137 138 138 138 138 139 139 139 138 137 136 136 136 137 137 136 136 136 136 136 136 139 142 143 142 142 142 143 147 149 147 145 144 144 144 144 144 145 147 148 149 150 151 152 153 153 154 155 159 158 155 155 155 156 160 164 168 169 167 162 160 160 162 165 168 170 173 175 177 178 179 179 180 183 185 186 187 186 184 182 179 177 175 175 175 175 173 172 169 167 164 163 162 160 158 158 160 159 158 158 157 156 155 154 152 151 152 153 155 158 163 169 173 174 174 171 173 180 188 195 199 201 201 198 194 187 181 174 172 172 172 172 172 171 170 168 164 160 160 160 160 160 160 160 160 160 161 163 165 167 168 168 168 167 167 167 166 166 167 168 170 172 172 170 168 172 176 185 197 209 220 231 242 251 259 258 249 241 234 228 221 213 208 203 200 200 197 192 186 183 179 174 171 165 157 152 150 149 149 149 149 149 150 150 151 153 154 155 156 158 161 162 162 162 162 163 164 164 164 164 164 164 164 164 164 164 164 164 164 164 164 164 164 163 163 163 161 153 153 154 157 158 157 151 149 149 149 149 149 149 150 150 150 152 155 157 158 157 159 161 163 164 165 166 168 168 169 169 170 170 171 172 172 173 173 175 176 177 178 179 180 180 182 185 189 192 195 197 200 203 207 212 216 219 222 225 229 234 239 243 247 251 255 257 259 261 263 262 260 258 256 253 250 247 247 252 255 260 265 269 272 275 279 283 288 293 298 303 307 310 314 316 321 331 343 357 367 373 376 378 378 378 377 377 378 378 378 378 378 380 384 385 384 381 378 377 377 376 374 373 373 374 376 375 371 365 361 358 359 366 373 376 373 370 369 370 371 376 378 380 382 385 388 391 396 400 403 407 409 410 410 408 406 404 400 400 400 403 407 411 414 417 418 419 418 418 417 416 414 413 410 406 402 399 397 395 393 391 389 388 386 383 381 377 372 370 370 367 361 357 354 352 350 348 345 342 337 331 325 320 320 320 320 319 319 317 314 311 307 302 298 298 298 298 297 298 297 297 293 286 282 280 279 280 280 279 279 280 280 280 280 280 280 281 283 286 289 293 300 306 313 320 325 330 333 335 337 339 341 342 343 343 344 344 347 348 348 348 347 346 345 345 345 344 343 346 348 350 353 355 358 360 362 364 371 376 380 384 388 391 394 397 401 402 402 404 404 404 405 405 406 406 407 409 411 415 418 422 427 433 439 443 445 448 451 455 457 457 456 453 446 439 434 429 424 419 415 410 409 414 417 417 414 407 398 391 386 382 380 378 376 376 376 375 375 375 374 374 374 374 374 374 374 374 374 374 374 375 375 376 376 377 378 378 377 377 377 377 378 380 382 386 389 393 395 397 398 398 397 397 396 396 397 401 405 407 409 409 408 410 411 413 414 415 416 416 417 418 418 419 419 422 424 428 434 440 445 449 455 461 465 468 472 476 481 485 489 493 495 499 504 509 512 516 519 520 522 524 526 525 518 505 492 481 473 468 462 457 451 446 446 444 442 439 435 434 436 438 440 442 445 447 449 452 454 456 457 459 460 461
199 193 187 183 179 178 177 178 178 173 163 157 160 166 167 167 172 177 181 182 178 174 167 163 165 166 165 163 158 159 160 160 158 156 154 151 146 144 142 141 140 139 137 136 136 136 136 137 137 137 137 138 138 138 138 139 139 139 140 140 140 140 140 140 139 138 137 136 136 136 136 136 136 136 136 136 138 143 145 144 144 144 144 144 145 146 147 147 146 144 144 144 145 146 148 148 150 151 153 154 154 154 154 155 160 156 155 155 155 156 160 164 168 168 164 160 160 162 166 168 171 173 175 177 179 181 182 182 182 185 189 191 191 190 188 185 182 180 178 178 178 177 176 174 172 169 167 166 165 163 161 161 163 163 162 162 161 160 158 156 154 153 153 153 153 155 160 166 171 174 172 168 174 183 191 198 203 205 203 200 197 191 184 177 173 172 172 172 172 172 171 168 164 161 160 160 160 160 160 160 160 161 162 164 165 166 168 168 168 167 167 167 166 166 167 168 169 169 169 167 168 172 177 186 198 212 224 236 248 259 266 264 253 244 237 231 222 213 208 203 200 199 197 192 186 183 177 171 169 164 156 150 150 149 149 149 149 149 150 150 151 152 153 154 156 160 161 162 163 163 163 163 164 164 165 165 165 165 165 165 165 165 165 165 165 164 164 164 164 163 163 163 162 160 161 161 163 163 161 152 149 149 149 149 149 149 150 150 151 156 159 162 161 161 160 161 163 165 165 166 168 168 169 171 172 172 172 173 173 174 175 176 178 180 181 182 183 184 184 185 189 191 194 196 199 202 206 211 216 219 222 226 230 234 238 242 246 249 253 256 258 260 261 261 259 257 255 253 249 245 245 252 256 261 268 272 275 278 282 286 290 295 300 305 308 311 314 317 321 331 342 355 365 373 376 378 378 378 377 377 378 378 378 379 380 382 385 388 385 382 380 380 379 377 376 374 374 374 376 377 376 368 362 358 361 366 374 377 376 373 371 371 372 375 377 379 381 383 387 391 395 399 403 406 409 410 411 409 406 403 400 400 400 401 405 409 411 414 416 417 417 417 416 416 414 412 409 404 400 398 396 394 392 389 387 386 384 382 378 374 370 369 368 364 359 357 357 356 353 351 348 343 337 330 324 321 323 323 322 319 319 317 313 310 306 302 298 298 298 299 299 300 300 300 297 288 284 282 280 279 279 279 279 280 280 280 280 280 280 281 281 283 287 292 297 303 310 318 324 328 331 334 336 337 339 340 340 341 341 341 344 346 346 346 346 345 344 343 343 342 342 347 349 352 355 358 361 363 365 366 372 379 383 386 390 392 394 397 401 402 402 404 404 404 405 406 407 408 409 411 414 417 421 425 431 437 443 445 447 450 454 456 457 456 455 449 441 436 431 426 421 416 412 407 407 412 415 415 414 408 400 393 388 384 381 379 377 376 376 375 374 374 374 374 374 374 374 374 374 374 374 374 374 375 376 376 377 379 380 381 381 379 378 378 378 379 381 383 387 391 394 395 395 395 394 394 394 396 398 400 403 406 407 407 406 408 409 411 412 412 413 414 414 415 415 417 419 424 426 429 434 441 445 449 455 461 465 468 472 478 482 485 488 491 495 501 507 510 514 516 518 519 520 520 519 516 507 495 483 474 467 462 458 453 448 441 439 438 435 433 431 430 432 435 437 438 440 442 445 448 451 453 455 457 458 459
199 194 188 183 180 179 178 179 179 174 165 157 157 164 167 167 169 174 178 178 174 171 165 159 161 162 161 159 154 155 156 154 151 149 148 145 143 141 141 140 139 138 136 136 136 136 136 137 138 138 138 139 139 139 139 140 140 140 141 141 141 141 141 142 142 141 140 136 136 136 136 136 136 136 136 136 139 144 146 146 145 145 145 145 146 147 148 149 149 147 144 144 145 148 149 149 150 152 154 155 155 155 155 155 156 155 155 155 155 156 160 163 166 164 161 160 162 166 169 172 174 176 177 179 181 183 185 186 186 187 192 195 195 194 192 189 186 182 180 180 180 180 179 178 175 172 169 168 168 166 164 165 166 166 166 165 165 164 162 160 156 154 153 153 153 154 157 162 168 171 168 168 177 185 193 200 206 209 205 202 198 192 184 178 173 172 172 172 173 173 173 170 165 162 160 160 160 160 160 160 160 162 163 164 165 166 168 168 168 167 167 167 166 166 167 167 168 168 167 166 169 173 178 187 200 214 227 239 250 263 266 262 253 245 238 232 221 213 207 202 199 198 197 191 185 183 178 169 166 162 155 150 150 149 149 149 149 149 149 149 150 151 152 154 156 159 161 162 163 164 164 164 164 164 165 165 165 165 165 165 165 165 165 165 165 164 164 164 164 163 163 163 163 163 163 163 163 163 162 154 149 149 149 150 150 150 150 151 156 160 162 164 164 164 164 164 164 165 165 166 167 168 169 171 172 173 173 173 174 176 178 179 180 181 183 185 187 188 189 189 189 191 192 195 198 201 206 210 215 218 222 226 229 233 238 241 245 248 251 254 256 259 260 260 258 257 254 252 248 244 246 253 257 263 270 274 277 280 283 288 292 296 301 306 309 314 318 319 321 330 340 353 364 372 376 378 378 378 377 377 378 378 380 382 385 386 387 389 387 384 382 380 379 377 376 375 374 374 375 377 375 368 362 359 362 367 372 375 375 373 371 371 373 375 377 378 380 383 387 391 394 398 401 405 408 410 412 409 406 402 400 400 400 400 404 407 410 412 414 415 416 416 415 415 414 412 408 403 399 396 394 393 390 388 386 384 382 380 375 371 367 366 364 361 359 359 360 359 356 353 347 342 336 330 324 322 324 324 322 320 319 317 314 312 309 302 299 299 299 300 302 302 302 301 299 290 285 283 281 280 280 280 280 280 280 280 280 280 280 281 281 282 285 290 296 301 307 315 322 327 330 332 334 335 336 337 338 339 339 340 342 344 345 345 345 344 343 342 341 341 343 348 351 354 357 360 363 366 369 369 374 380 384 387 390 393 394 397 401 402 402 403 404 404 405 407 407 408 410 412 416 419 423 428 434 440 444 447 450 452 455 457 457 456 451 444 437 432 427 422 418 413 409 406 406 410 413 414 414 409 402 395 390 386 383 380 378 376 376 375 374 374 374 374 374 374 374 374 374 374 374 374 374 376 376 378 380 381 383 383 384 382 381 379 378 379 380 382 386 389 392 393 393 393 393 393 393 395 397 399 402 404 406 404 404 406 407 408 409 410 411 412 412 412 414 417 420 425 429 430 435 441 445 449 455 461 465 468 472 478 482 485 486 491 496 502 508 511 514 517 518 518 518 518 514 508 497 485 477 469 464 460 456 452 447 441 436 433 432 430 428 427 429 432 434 435 436 438 441 443 447 449 451 455 457 457
196 193 188 183 180 178 177 178 179 174 165 156 155 162 167 167 166 170 174 173 170 167 162 156 156 158 157 155 151 150 150 147 144 143 142 142 141 140 139 138 137 136 136 136 136 137 137 137 138 139 139 140 140 140 141 141 141 142 142 143 142 142 142 143 144 144 143 140 137 137 137 137 137 137 138 140 141 145 147 147 147 147 147 147 147 148 149 149 150 150 147 144 146 149 150 150 151 153 154 156 156 155 155 155 155 155 155 156 156 157 160 162 163 161 160 162 166 170 173 175 177 179 181 183 184 187 189 190 190 191 196 199 199 199 197 194 190 186 183 184 184 183 182 181 179 176 173 171 171 170 167 168 169 169 169 168 168 167 165 163 159 156 154 153 153 154 154 158 164 167 165 169 180 187 196 203 208 209 206 202 198 192 184 178 173 172 172 173 173 174 174 172 166 163 161 160 160 160 160 160 161 164 165 165 166 166 167 167 167 166 166 166 165 165 166 167 167 167 166 166 169 173 179 188 201 214 227 238 249 260 261 258 252 244 238 231 220 212 206 200 197 198 196 191 184 181 177 169 165 160 154 150 150 149 149 149 149 149 149 149 149 150 151 153 155 158 160 161 162 163 163 164 165 165 165 165 165 165 165 165 165 165 165 165 164 164 163 163 163 163 163 163 163 163 163 163 164 164 163 156 149 149 149 150 150 150 151 156 160 163 165 167 167 167 167 167 166 166 166 166 167 167 169 172 173 174 174 173 176 179 181 183 183 184 186 188 191 193 194 194 194 193 192 194 197 200 203 208 213 217 221 226 229 233 237 240 243 246 249 252 255 258 259 258 257 255 253 251 246 244 247 254 259 266 272 276 279 282 285 289 293 298 303 307 311 317 322 323 322 329 339 350 361 371 375 378 378 378 378 377 378 379 382 385 388 390 390 390 388 385 382 380 378 377 376 375 373 373 373 373 371 366 363 363 365 368 372 374 375 374 372 372 374 377 377 378 380 383 386 390 393 396 400 403 406 409 412 409 405 401 400 399 399 399 401 404 407 410 412 414 415 416 415 414 413 411 408 402 398 395 392 390 388 386 384 382 380 376 372 367 365 363 362 360 360 361 361 360 357 353 347 341 335 330 324 323 324 324 322 320 319 318 316 313 309 303 299 301 302 303 305 305 303 301 300 291 285 283 282 281 280 280 280 280 280 280 280 280 281 281 281 281 284 289 293 299 304 310 318 324 328 330 331 333 334 334 334 335 336 338 340 342 343 343 343 342 341 340 340 341 346 350 354 356 359 362 366 369 372 372 375 381 385 387 391 393 395 398 401 402 402 403 403 403 404 406 407 408 410 413 416 420 425 430 436 442 446 449 452 455 456 457 456 453 446 439 433 428 424 419 415 410 405 403 406 409 411 413 414 410 404 398 393 389 386 382 379 377 377 376 375 374 374 374 374 374 374 374 374 374 374 374 375 376 377 382 384 385 386 386 386 385 384 382 381 380 381 382 384 387 390 391 391 391 392 392 393 394 396 398 400 402 403 401 401 403 404 405 406 407 408 409 409 412 414 417 420 427 432 432 435 441 445 449 454 460 464 468 472 478 481 483 484 491 496 503 508 511 515 517 517 518 517 514 507 500 489 479 475 469 464 461 456 452 447 441 435 431 429 427 424 423 426 428 430 431 433 434 436 438 441 443 447 452 454 455
193 190 187 183 180 177 176 177 178 173 165 156 154 160 167 167 164 165 169 169 166 163 159 153 150 153 153 151 147 146 145 142 142 141 140 140 140 139 138 138 137 136 136 136 136 137 137 138 139 140 141 142 142 143 143 143 143 143 144 144 144 144 145 146 146 147 146 145 141 142 143 143 142 141 141 145 146 147 150 150 150 150 151 151 150 149 149 150 152 151 150 148 147 149 150 152 152 154 154 157 157 156 155 155 155 155 156 156 156 157 159 160 160 161 162 166 170 173 176 179 181 183 185 187 188 191 193 195 196 197 201 203 204 203 201 198 195 191 187 187 187 187 186 184 182 179 176 174 174 173 170 171 172 172 171 171 170 169 167 165 162 158 155 154 154 154 154 155 159 162 164 172 182 190 198 204 208 208 205 202 197 191 184 178 173 173 173 173 174 175 175 173 167 163 161 160 160 160 160 160 163 167 167 167 167 167 167 167 167 166 165 165 165 165 165 165 165 165 165 165 168 172 179 188 200 213 225 237 245 252 254 252 248 241 236 227 217 210 204 199 196 196 195 190 182 177 175 169 163 159 154 151 150 149 149 149 149 149 149 149 149 149 150 152 154 156 159 161 162 162 162 163 164 164 165 166 166 166 166 166 166 166 165 165 164 163 163 163 162 162 162 162 163 164 164 164 163 163 163 159 149 149 149 150 150 150 155 160 163 165 167 168 168 169 169 168 168 167 167 166 167 167 169 172 174 175 175 175 177 181 184 186 187 187 188 192 195 197 199 200 200 200 199 199 198 199 201 205 211 215 221 226 230 233 236 238 241 244 247 250 254 257 258 258 255 254 252 248 244 244 250 256 262 267 273 278 281 284 288 291 295 300 306 309 313 320 324 324 322 326 337 347 357 367 374 377 378 378 378 377 378 379 383 386 389 391 392 391 389 385 382 379 377 376 376 376 374 372 372 370 368 366 368 370 371 372 374 376 376 376 374 373 376 379 379 380 381 383 384 389 392 396 398 401 405 408 410 407 403 400 399 398 398 398 400 401 404 407 410 413 414 415 414 413 412 410 407 402 397 394 390 388 385 384 382 380 377 373 369 365 365 364 363 362 362 362 361 360 358 353 347 341 336 330 325 324 324 324 323 320 320 318 316 313 308 303 303 304 305 306 306 306 304 301 300 292 285 283 282 281 281 281 281 281 281 281 282 284 284 282 281 281 283 288 291 297 302 307 314 320 325 327 329 330 331 331 331 332 334 336 338 339 341 341 341 340 339 339 340 344 349 353 355 358 361 365 368 371 373 375 377 382 386 388 391 394 397 399 402 402 402 402 402 402 404 405 406 407 409 412 416 420 424 430 436 442 446 449 454 456 456 454 453 448 440 434 429 424 420 416 412 408 402 401 404 408 409 411 411 410 407 401 396 392 389 384 380 377 377 377 376 375 375 374 374 374 374 374 374 374 374 375 376 377 381 385 387 389 390 390 389 387 386 385 384 383 382 382 382 383 386 388 388 389 392 392 392 394 395 397 400 401 399 398 399 401 401 402 403 404 405 406 408 410 414 417 420 427 433 435 436 441 445 448 452 457 463 467 472 477 478 479 484 491 496 503 508 511 515 517 517 515 514 508 501 495 485 478 474 467 463 460 455 451 446 440 435 431 428 424 420 419 422 423 425 427 429 430 432 434 436 439 444 448 450 451
190 187 185 182 179 175 174 176 175 171 162 154 153 159 166 167 163 162 165 164 162 160 156 150 146 149 149 148 145 143 142 142 142 141 140 139 139 138 138 137 137 136 136 136 137 138 138 139 140 141 142 143 143 144 144 144 144 144 145 145 146 147 148 149 150 150 150 147 144 145 146 146 147 146 144 149 150 150 153 154 154 154 154 154 153 152 152 153 153 153 152 151 148 149 150 153 154 155 156 157 159 156 155 155 155 155 156 156 156 157 159 159 160 162 165 170 173 176 179 182 185 187 189 191 193 195 198 200 202 203 205 208 208 208 206 203 199 195 191 191 191 190 189 188 185 182 179 177 178 176 173 173 174 174 173 173 172 171 170 168 165 161 157 155 154 154 154 155 158 160 165 175 184 191 199 203 206 205 203 200 195 189 183 177 173 172 173 173 175 176 176 174 168 164 161 160 160 160 160 162 166 168 168 167 167 167 166 166 166 165 165 164 164 164 164 165 165 164 164 165 168 172 178 187 199 211 223 234 240 245 247 246 242 237 232 223 214 207 202 196 194 195 193 190 182 174 173 169 163 159 155 152 150 149 149 149 149 149 149 149 149 149 149 150 152 154 157 159 161 161 162 162 163 164 165 166 167 167 166 166 166 166 165 164 163 162 162 162 162 162 162 162 163 164 164 164 163 163 162 159 150 149 150 150 150 151 158 163 165 167 168 168 169 169 169 168 167 167 166 166 167 168 170 172 174 176 177 178 179 183 186 190 191 190 192 197 200 203 205 206 206 207 208 207 204 202 202 204 209 215 221 227 231 233 236 237 240 243 246 250 254 256 258 257 255 253 251 245 243 246 252 258 264 270 276 281 284 286 289 293 297 303 307 310 314 321 324 323 321 324 335 344 354 364 373 376 378 378 377 377 377 380 384 388 391 393 393 392 389 385 381 378 377 377 376 376 376 374 373 371 370 373 376 377 378 378 378 379 380 380 378 376 376 380 382 383 383 383 384 388 391 395 398 400 404 406 407 405 402 400 397 396 397 398 399 400 402 405 409 412 414 414 414 413 411 409 406 401 397 393 389 386 383 382 380 377 375 371 370 369 367 365 365 364 364 362 361 361 358 353 347 341 336 332 326 325 325 324 323 320 320 318 316 312 306 303 306 307 307 307 307 306 304 302 300 292 286 282 282 281 281 281 281 281 282 284 286 287 287 285 281 281 283 288 291 294 299 304 310 316 321 323 325 326 328 327 328 331 333 335 336 336 337 339 339 339 338 339 343 348 351 355 357 360 363 367 370 373 376 378 379 383 386 389 391 395 397 399 401 401 401 401 401 402 403 404 404 405 406 409 413 417 422 430 435 441 445 449 453 455 453 450 447 441 434 429 424 420 417 413 410 406 401 401 404 406 407 407 409 409 407 403 398 394 391 386 382 381 381 379 377 376 376 375 374 374 374 374 374 374 375 376 377 381 385 388 390 392 393 394 393 391 389 387 386 387 386 384 383 382 383 386 388 389 391 391 392 393 394 396 396 397 396 394 396 397 398 399 400 401 402 406 408 410 413 416 420 426 433 437 439 442 445 448 451 456 462 466 471 474 474 476 484 491 496 504 508 511 515 517 517 514 511 504 497 491 483 477 471 464 460 456 452 448 443 438 434 430 427 422 417 414 415 417 418 421 423 425 427 428 431 435 438 442 444 446
187 184 183 180 177 174 174 174 173 168 158 151 152 158 163 165 161 160 161 160 159 156 152 147 143 146 147 146 145 144 142 142 142 141 139 138 138 138 137 137 136 136 136 136 137 138 140 141 142 142 143 144 145 145 145 145 145 146 147 147 148 149 151 153 154 154 154 150 147 146 148 150 151 149 148 153 154 154 156 157 157 157 157 157 156 155 155 155 155 155 154 153 151 150 150 153 156 159 161 162 162 161 159 157 155 155 156 156 157 158 159 159 161 164 169 173 176 179 182 185 188 190 193 195 197 200 202 205 208 210 212 214 214 213 211 208 204 199 195 195 195 194 192 191 189 186 182 180 182 180 177 176 177 177 176 175 174 173 171 169 167 164 160 156 154 154 154 158 161 163 168 177 185 191 199 202 204 203 201 197 192 187 181 176 172 172 173 173 176 178 178 176 170 165 162 160 160 160 160 164 167 169 169 167 167 167 166 166 166 164 163 163 162 163 163 163 164 164 164 165 168 172 176 186 197 209 219 230 236 239 241 240 237 233 227 219 210 204 199 193 191 193 192 189 182 175 170 168 163 159 156 153 150 150 149 149 149 149 149 149 149 149 149 149 151 153 155 157 159 160 161 161 162 164 165 167 167 167 167 166 166 165 164 163 162 162 162 162 162 162 162 162 163 163 163 164 163 163 162 159 152 152 154 154 153 153 161 164 166 168 168 168 169 169 169 168 167 166 166 166 167 168 170 173 175 177 178 181 183 186 190 194 195 194 197 203 206 207 209 210 212 214 215 215 213 209 207 205 207 214 221 226 230 233 235 237 238 242 245 249 252 256 257 257 254 252 248 243 243 248 254 259 266 272 279 284 286 289 292 295 300 305 308 311 314 320 322 320 319 323 333 341 353 361 370 375 378 378 377 376 377 381 386 390 393 394 395 394 390 384 380 377 377 378 377 379 380 379 377 374 374 378 382 383 384 384 384 384 384 383 382 379 377 382 384 385 386 386 386 387 391 395 397 400 403 405 404 403 401 399 396 396 396 397 398 399 400 403 407 411 413 413 412 412 410 408 405 400 396 393 389 387 385 382 379 377 375 374 374 372 370 369 367 366 365 362 361 361 357 352 347 341 337 333 328 328 328 324 323 320 319 317 314 310 306 306 308 309 309 310 309 307 305 302 299 292 288 283 282 282 282 282 282 284 285 287 288 289 289 288 283 282 283 288 290 293 297 302 307 312 316 319 322 322 323 325 329 331 331 332 333 333 334 336 336 337 337 340 345 349 353 356 359 362 366 369 372 375 377 379 381 384 388 390 393 396 397 399 400 400 400 400 400 401 402 402 402 402 402 405 406 412 418 426 432 439 445 450 452 450 447 443 439 434 428 424 419 416 413 411 407 404 399 400 402 404 405 403 405 407 406 403 399 394 392 388 386 387 385 383 381 380 379 377 377 375 374 374 374 374 376 377 381 385 388 391 393 395 396 397 397 395 393 391 390 390 391 389 387 382 383 385 388 389 391 391 391 391 392 392 392 392 393 393 394 394 395 396 398 400 403 406 409 410 413 416 420 426 434 438 442 445 448 451 453 457 461 466 469 470 471 476 483 490 496 503 508 511 515 516 516 511 507 499 493 487 480 475 468 463 458 452 448 444 439 435 433 430 427 422 416 412 409 411 411 414 416 419 420 422 426 430 432 434 437 439
184 181 181 179 176 174 173 173 172 165 154 149 152 157 160 162 158 157 158 157 155 152 148 144 143 143 145 145 145 144 142 142 142 141 140 138 138 138 137 137 136 136 136 136 138 139 141 142 143 143 144 145 145 145 145 146 146 147 147 148 149 152 155 157 158 158 157 153 150 149 152 154 156 153 153 157 158 158 159 160 161 161 161 160 159 159 159 159 158 157 156 155 154 153 151 154 158 163 167 168 168 169 168 164 160 158 157 158 160 159 159 160 162 166 172 176 179 182 185 188 192 194 196 198 201 204 207 210 214 216 218 220 219 218 216 213 209 203 199 198 198 198 196 195 192 189 185 184 185 183 180 179 181 181 180 178 176 175 174 172 169 166 162 157 154 154 154 160 164 169 172 179 186 190 196 200 201 200 197 193 188 183 179 174 172 172 173 174 176 179 178 177 173 166 162 160 160 160 162 165 169 170 170 168 167 167 166 165 165 164 163 163 161 162 162 163 163 163 163 165 168 172 177 186 196 206 215 223 229 233 238 237 233 228 222 214 207 202 196 189 190 192 190 187 181 175 170 165 162 160 158 154 151 150 149 149 149 149 149 149 149 149 149 149 149 151 153 155 157 158 159 160 162 163 165 167 167 167 167 166 166 165 163 162 161 161 161 161 161 162 162 162 163 163 163 164 164 164 162 160 158 158 160 159 157 157 162 165 166 167 167 168 168 168 168 168 166 166 166 166 167 168 171 174 176 178 180 184 187 191 194 199 200 198 202 206 209 211 214 216 219 221 221 220 219 216 213 210 208 210 217 222 227 233 235 236 238 241 244 247 251 255 257 256 254 251 245 242 244 249 255 261 268 274 281 285 288 291 293 297 303 307 310 312 314 317 317 317 319 326 334 342 353 361 368 374 377 377 376 376 377 382 387 391 395 396 396 395 390 384 379 379 380 381 379 382 383 383 380 377 378 380 383 384 387 387 388 388 387 386 385 383 379 383 386 388 389 389 389 388 391 395 397 400 402 403 402 401 399 398 396 396 396 396 398 399 400 402 406 409 412 412 412 411 409 407 403 400 396 393 391 390 387 384 382 380 379 378 377 375 373 372 370 367 365 362 361 360 357 351 347 342 337 333 329 330 329 326 323 318 318 316 313 308 306 308 311 311 311 311 310 308 305 302 299 294 288 284 282 282 283 284 284 287 288 288 289 290 290 289 285 282 283 287 289 292 296 301 306 309 313 316 318 319 321 325 329 330 330 330 331 332 333 334 336 336 337 341 346 350 354 358 361 365 368 371 374 377 379 381 383 386 389 391 395 396 397 397 398 397 396 397 399 401 401 400 400 399 399 399 400 408 416 423 432 440 446 450 450 445 441 437 432 427 422 419 414 412 409 407 404 402 396 398 402 403 403 401 402 403 404 402 399 395 393 391 390 390 388 386 385 384 383 381 380 378 376 374 374 374 376 380 384 388 391 393 396 398 399 400 401 399 398 395 394 393 393 392 390 386 383 383 386 388 390 390 390 390 389 389 389 390 391 391 393 394 394 396 399 402 404 407 409 411 414 417 421 427 434 438 442 447 452 454 454 456 460 464 466 467 470 476 482 488 494 500 506 510 513 515 513 508 504 496 487 482 478 473 467 463 458 452 446 440 435 432 430 428 426 422 417 413 407 405 405 406 409 411 411 413 419 423 425 426 428 430
183 180 177 175 175 173 172 172 169 162 151 148 152 155 157 159 156 154 154 154 151 148 144 142 143 143 144 144 143 143 142 142 142 142 141 139 138 138 138 137 136 136 136 137 138 140 142 143 144 144 144 145 146 146 146 147 147 147 149 150 153 155 158 161 161 161 159 157 154 153 157 159 160 158 157 160 162 162 163 164 165 165 165 164 162 163 163 163 162 161 160 158 157 156 154 156 160 166 170 173 174 175 174 172 170 166 162 161 162 163 160 162 163 168 173 177 181 184 188 192 195 197 199 201 205 208 212 216 219 221 223 224 224 223 221 217 213 208 203 202 202 201 200 198 195 193 189 187 187 186 183 182 185 184 183 181 179 177 175 174 171 168 164 159 155 154 155 161 166 172 177 182 187 189 191 195 196 195 193 189 184 180 176 172 172 172 173 175 177 179 178 177 174 168 163 161 160 161 163 167 169 171 171 169 168 167 166 165 165 163 162 162 161 161 162 162 162 162 162 165 169 173 177 185 194 202 210 216 222 230 235 234 229 223 216 209 204 199 192 186 186 189 188 185 180 175 170 166 163 161 159 155 152 150 149 149 149 149 149 149 149 149 149 149 149 149 151 153 155 156 157 159 161 163 166 167 168 168 167 166 166 164 162 162 161 160 160 160 161 162 162 162 163 163 163 164 164 164 163 162 162 162 162 161 160 161 162 165 166 166 166 166 166 166 167 167 166 166 166 166 167 168 171 174 177 179 182 187 192 196 198 202 204 203 205 209 213 216 220 222 224 224 224 223 222 220 217 214 212 211 212 217 224 231 234 235 237 239 242 246 250 254 256 255 252 247 241 242 246 251 257 263 270 276 283 287 290 293 296 300 305 308 311 312 314 314 314 316 322 329 335 343 352 360 366 373 376 376 375 376 377 382 389 393 396 398 397 395 391 385 383 384 384 384 383 385 386 386 383 379 382 384 385 386 388 390 391 392 391 389 388 386 382 383 387 390 391 392 392 392 391 395 397 400 401 401 401 400 399 398 396 396 396 396 398 399 399 402 405 408 410 410 410 410 408 406 403 400 397 394 394 392 389 386 384 383 382 380 378 376 374 372 370 368 365 362 360 359 356 350 346 342 336 333 332 332 330 327 324 318 315 313 310 308 308 311 312 312 312 312 310 308 304 301 299 295 288 285 282 282 285 287 287 287 288 289 290 291 291 289 287 283 284 287 288 290 294 299 303 305 309 312 314 315 318 324 328 328 328 329 332 334 335 336 336 336 337 341 346 350 356 359 363 367 371 374 377 379 380 382 384 387 390 391 394 395 395 395 396 394 393 395 398 398 399 399 398 397 397 395 397 408 417 425 432 439 445 447 446 442 437 431 426 421 418 414 411 408 405 403 401 399 395 396 401 402 401 400 398 399 402 401 398 395 394 393 392 391 390 389 388 387 386 385 383 381 378 374 374 374 377 383 387 390 393 395 397 399 401 402 403 402 401 399 398 396 395 394 392 389 383 383 383 387 388 389 388 388 387 387 388 390 391 392 393 394 395 398 402 404 405 407 410 412 415 419 422 428 434 438 442 448 453 453 453 455 457 460 461 465 470 475 480 485 490 496 501 506 509 511 509 506 502 493 483 478 474 469 465 462 458 453 447 441 434 430 427 426 425 422 417 412 407 401 399 400 402 405 405 405 411 414 416 418 421 422
182 180 175 172 173 172 169 168 166 160 150 147 150 153 155 156 155 152 151 150 147 144 142 142 143 143 143 143 143 143 143 143 143 143 143 141 142 142 140 137 136 136 137 138 139 141 142 143 144 144 145 146 146 146 146 147 147 148 149 154 158 159 161 163 164 163 162 161 160 157 161 163 164 162 162 164 166 166 167 169 170 170 169 168 166 167 167 167 166 165 164 162 161 159 156 157 163 168 172 175 177 180 180 178 176 174 171 167 164 167 164 163 167 169 173 177 182 186 190 195 197 199 201 204 209 213 217 220 222 224 227 229 230 229 226 222 218 211 206 205 205 204 203 201 199 196 192 190 190 188 186 185 188 187 186 184 181 179 177 176 173 169 165 160 155 154 155 161 167 174 179 185 186 185 184 186 187 188 186 183 180 177 174 171 171 172 174 177 179 178 178 177 174 169 164 161 160 161 164 168 171 173 173 170 168 167 166 165 164 163 162 162 160 160 161 161 162 162 162 164 168 172 176 183 190 196 203 211 219 228 233 233 228 221 211 205 201 196 189 184 183 186 186 183 179 175 171 168 165 163 160 156 153 151 149 149 149 149 149 149 149 149 149 149 149 149 149 151 152 153 154 157 160 163 166 168 168 168 167 166 165 164 162 162 160 160 160 160 160 162 162 162 163 163 163 163 164 164 163 163 163 163 163 162 161 162 164 164 165 165 164 164 163 165 166 167 165 165 165 167 167 169 172 175 178 180 185 191 197 201 204 205 206 206 208 213 217 222 225 226 227 227 226 225 224 223 220 217 215 214 212 214 221 229 233 234 235 237 242 247 251 254 255 253 250 243 239 243 249 255 260 266 272 278 284 288 292 295 299 302 306 309 312 312 312 311 312 317 324 331 336 343 350 360 366 371 374 375 375 375 377 383 390 395 398 399 398 395 391 387 386 388 388 387 386 387 389 389 387 383 385 387 390 390 389 391 394 395 395 393 390 389 385 384 389 392 394 395 395 395 394 396 398 399 400 400 400 399 398 397 395 395 395 396 397 398 399 401 404 406 408 409 409 409 408 406 403 401 398 397 396 394 390 388 387 385 384 382 379 377 375 373 370 368 365 362 359 357 354 350 345 341 335 334 335 334 331 328 326 321 315 311 308 308 310 312 313 313 313 312 310 308 304 301 299 295 289 286 283 283 286 288 288 288 289 290 291 292 292 291 289 286 285 287 288 290 292 296 300 302 305 308 310 313 317 321 325 326 328 331 335 337 339 340 338 337 338 341 346 351 357 361 365 369 373 375 378 380 382 384 386 389 391 392 394 394 394 394 394 391 390 394 396 396 397 397 396 396 394 392 395 408 417 425 432 438 441 442 441 438 432 425 420 416 414 411 408 405 402 400 398 397 395 395 399 401 401 399 395 396 398 399 397 394 393 392 392 391 391 390 390 390 388 387 385 383 380 374 373 374 379 385 389 392 395 397 399 401 402 403 404 403 403 402 401 399 397 396 393 389 384 383 383 384 386 387 386 386 387 388 389 391 393 394 395 397 398 401 405 405 406 408 410 412 415 419 423 428 434 438 441 447 448 448 451 452 452 454 458 464 469 472 476 481 485 489 493 500 505 506 505 503 499 492 482 476 470 466 463 461 457 452 447 442 435 431 424 422 422 420 416 412 406 400 396 395 397 399 400 399 401 404 406 408 411 413
180 179 175 171 169 169 167 164 162 156 149 146 148 151 153 154 153 149 147 147 144 142 142 142 143 143 143 143 143 143 143 144 145 146 146 146 146 146 142 138 136 136 137 138 139 140 142 143 144 144 145 146 147 147 147 148 148 148 152 159 161 163 163 165 166 167 166 166 165 162 165 168 168 166 166 169 171 172 173 174 174 174 173 172 171 171 171 171 170 169 168 167 165 163 160 159 164 170 174 177 180 183 185 184 181 179 177 173 168 169 170 167 171 175 177 179 183 187 192 196 199 201 202 207 213 218 221 223 225 228 232 235 237 236 233 229 223 215 210 209 208 207 205 204 202 199 195 192 193 191 188 188 190 190 189 187 184 182 179 177 175 171 165 160 154 154 156 161 167 174 180 185 185 180 174 175 177 178 179 178 178 176 173 171 169 171 176 178 179 179 178 177 174 169 164 161 160 161 165 169 172 173 174 171 169 167 166 164 164 163 162 161 159 160 161 161 162 162 162 162 166 170 175 179 185 189 195 208 217 225 231 231 227 221 212 203 198 193 187 183 181 183 183 181 178 175 173 168 165 163 160 156 154 152 149 149 149 149 149 149 149 149 149 149 149 149 149 149 150 151 153 156 159 162 166 169 169 169 167 166 165 163 161 161 159 159 159 159 160 162 162 162 163 163 163 163 164 164 164 164 164 164 163 163 163 163 163 163 163 163 162 161 160 163 164 165 165 165 166 168 169 172 173 176 178 182 188 195 202 205 207 209 209 209 211 216 221 225 228 229 230 229 228 227 226 224 222 220 218 217 215 213 218 225 231 231 232 237 242 247 251 253 253 251 246 239 240 246 253 259 265 270 275 280 285 290 293 297 301 305 307 309 311 309 309 311 314 318 324 331 337 343 350 359 366 371 373 373 374 375 377 384 392 396 399 401 400 396 392 389 390 392 392 391 389 391 393 393 391 386 387 390 394 395 394 394 396 398 399 397 394 393 387 386 391 394 396 398 398 398 398 398 399 400 400 400 400 398 397 397 395 395 395 395 397 398 399 401 403 405 407 407 407 407 406 406 404 402 400 399 397 395 392 390 388 386 385 383 380 377 376 373 371 368 364 361 358 355 351 347 344 341 337 337 337 335 332 330 327 322 314 310 309 310 311 313 314 315 314 312 310 308 304 302 299 296 291 287 284 283 287 288 289 290 290 291 292 293 293 293 292 289 288 289 290 293 295 296 299 302 305 308 311 315 319 320 324 327 331 334 338 340 342 342 341 339 339 342 348 353 357 363 368 371 374 376 379 382 384 386 388 390 391 393 393 392 392 391 391 388 388 392 393 394 394 394 394 392 391 388 394 405 415 423 429 435 437 438 437 434 428 420 415 413 411 408 406 404 402 401 399 397 395 395 397 399 399 398 395 392 394 396 395 393 392 391 391 391 391 391 391 391 390 389 387 385 381 374 372 374 379 386 390 394 396 399 401 402 404 404 405 405 405 404 403 401 399 396 393 389 385 383 383 384 384 385 385 386 388 389 390 391 394 396 398 400 401 402 405 405 406 408 411 413 416 420 424 428 433 438 441 443 441 443 446 446 446 450 456 460 466 469 471 474 476 478 486 492 498 501 501 499 497 489 481 476 470 464 460 457 456 451 447 441 434 430 423 418 418 418 415 411 405 399 396 393 393 395 397 396 395 396 398 399 401 403
177 175 173 169 166 166 164 160 157 152 148 145 146 148 150 151 151 148 144 144 142 142 142 142 143 143 143 143 143 143 145 147 148 150 151 152 152 150 144 140 136 136 136 138 138 139 140 142 143 144 144 146 147 147 147 148 148 149 156 162 164 166 167 169 170 171 171 171 170 167 169 173 173 170 171 175 177 178 179 180 180 179 177 176 175 175 175 175 174 173 172 170 168 167 164 160 165 170 174 178 181 183 185 186 186 184 181 177 172 171 173 172 174 178 181 183 185 187 192 196 198 201 204 210 216 221 223 225 229 233 238 241 243 242 239 235 227 218 216 214 212 209 208 206 205 202 197 195 195 194 191 191 193 193 192 189 187 185 181 179 176 172 166 160 154 154 157 161 167 173 180 182 179 173 165 166 168 170 172 174 176 176 174 172 168 169 175 178 179 179 178 176 174 169 164 161 160 162 165 169 172 173 174 172 170 168 166 164 163 162 162 161 159 159 160 161 162 162 162 161 164 168 172 176 179 183 192 204 214 221 228 229 226 220 212 204 196 190 185 180 178 180 181 179 177 174 172 168 165 162 160 156 154 152 149 149 149 149 149 149 149 149 149 149 149 149 149 149 149 150 152 154 158 161 165 168 168 168 167 165 164 162 161 160 158 158 159 160 161 162 162 162 163 163 163 163 163 163 164 164 163 163 163 163 163 163 162 162 162 161 160 159 160 162 162 163 165 166 167 169 172 174 176 178 180 185 192 199 205 208 211 212 212 211 213 219 224 227 230 231 233 232 230 229 227 225 224 222 220 219 218 215 215 220 225 227 232 237 241 246 251 252 251 247 240 239 242 248 256 262 268 273 278 282 287 291 295 299 303 306 307 308 307 306 308 313 318 323 327 331 337 343 349 358 365 370 372 373 373 374 377 384 392 397 400 402 402 398 393 390 393 395 396 394 392 395 397 396 394 389 389 393 399 401 400 399 398 401 403 401 398 396 391 390 394 397 398 399 400 401 402 402 403 401 400 400 400 398 397 397 395 395 395 395 397 398 398 400 401 404 406 406 405 405 405 405 403 402 400 399 398 396 394 392 390 388 386 384 381 378 376 374 372 369 364 359 356 353 348 345 343 342 341 340 339 336 332 329 326 321 313 311 311 311 311 313 315 316 316 313 310 308 305 303 300 297 294 289 286 284 286 288 289 290 291 292 293 293 294 294 294 292 291 291 293 295 297 299 302 305 308 311 312 316 320 323 325 329 331 334 338 341 342 342 341 341 339 342 349 354 358 364 368 372 375 377 380 384 388 390 392 392 393 394 393 392 390 389 388 386 386 389 390 391 391 390 390 389 387 387 393 402 412 419 426 431 434 434 433 429 423 416 412 411 410 408 407 406 404 402 400 398 395 394 395 397 397 396 394 389 390 392 391 391 391 390 390 390 391 391 391 391 391 390 389 387 382 374 371 373 378 385 390 394 398 401 403 404 405 405 406 406 406 406 405 403 400 396 392 389 386 384 384 384 384 385 386 387 389 390 391 393 395 397 400 402 403 404 405 406 407 408 411 413 416 420 424 428 432 436 439 438 435 435 437 438 441 447 452 456 460 462 461 460 461 467 476 482 488 494 497 495 493 485 479 475 470 463 458 454 452 450 445 439 433 429 423 415 413 414 412 408 402 398 395 392 390 391 393 393 391 392 393 393 395 397
177 173 171 168 165 164 161 157 153 149 145 144 145 147 148 148 147 145 143 142 142 142 142 142 143 143 143 143 145 147 149 151 152 153 154 156 155 152 147 142 138 136 136 136 136 138 139 141 143 143 144 146 147 147 147 148 149 153 160 165 168 170 172 173 174 176 176 175 174 171 174 177 178 177 176 180 182 184 185 186 186 185 182 181 182 182 181 179 178 177 176 174 172 170 167 163 165 169 174 177 180 182 185 186 187 187 185 180 175 174 176 178 179 181 184 188 190 192 193 196 198 201 207 213 219 223 225 228 233 238 243 246 248 247 244 240 232 222 220 218 216 213 210 208 206 204 199 197 198 196 193 193 195 196 195 192 189 187 184 180 177 173 166 160 155 155 157 161 166 172 177 176 171 166 161 162 162 163 164 171 174 175 174 172 168 169 174 176 177 178 177 176 173 169 164 160 160 162 165 169 172 173 174 172 170 168 166 164 163 161 161 160 158 158 159 160 161 161 161 159 161 165 169 172 173 180 190 200 210 217 224 226 223 218 211 204 197 187 183 178 178 178 179 178 176 173 170 167 165 162 160 156 154 151 149 149 149 149 150 150 150 150 150 150 150 149 149 149 149 149 150 153 155 159 163 167 167 166 165 164 163 161 160 159 156 158 159 160 161 162 162 162 163 163 163 163 163 163 163 163 163 163 162 162 162 161 161 160 160 158 157 158 161 163 163 164 165 167 168 172 174 176 177 180 183 188 196 203 208 212 214 215 215 214 216 222 227 230 232 234 235 234 233 230 228 226 225 223 222 221 219 217 216 217 221 226 232 236 240 246 251 251 246 241 238 239 243 248 256 263 268 275 279 283 287 291 295 300 305 306 306 305 305 306 311 317 323 329 333 335 338 343 349 357 364 369 372 372 371 372 378 383 391 397 400 403 403 400 395 393 396 398 399 398 397 399 400 400 397 393 391 396 403 406 406 404 402 405 406 404 401 399 394 393 397 399 401 402 403 404 406 407 406 404 401 401 400 398 397 397 395 395 395 395 396 397 398 399 401 402 403 403 402 402 403 403 402 402 400 399 398 396 394 393 391 388 386 384 381 379 377 375 375 373 367 362 357 352 348 347 347 345 344 342 340 336 332 329 325 320 314 314 312 312 312 314 316 317 316 314 311 309 306 304 302 300 297 292 288 284 284 287 288 290 291 292 294 294 294 295 295 294 294 294 295 296 298 301 304 307 311 313 314 316 319 323 326 329 330 334 337 340 341 342 341 340 340 342 349 355 360 364 369 372 375 378 383 387 392 394 395 395 395 395 394 391 390 388 385 383 384 386 387 388 388 387 387 386 383 384 391 398 408 415 422 427 430 430 427 423 417 414 412 411 410 410 409 408 405 402 400 398 395 393 394 395 395 395 392 388 386 388 388 388 389 389 388 389 390 390 390 391 391 390 389 388 382 373 369 372 377 383 389 395 401 403 405 406 407 407 407 407 409 409 408 404 400 396 392 389 386 385 384 384 386 386 388 389 390 392 394 395 397 399 402 403 405 406 408 408 408 408 410 413 416 420 424 427 428 431 433 431 429 427 428 431 438 443 446 449 452 451 449 448 451 458 467 474 480 488 492 492 489 482 477 474 469 462 458 451 447 445 441 436 431 428 423 415 410 409 408 404 399 396 393 390 387 387 389 389 387 388 388 389 391 392
180 173 169 167 165 163 161 158 154 150 144 144 144 145 145 145 144 142 142 142 142 142 142 142 143 143 145 147 148 150 152 154 156 157 157 158 157 153 149 143 138 136 136 136 136 136 137 141 144 144 144 146 147 147 148 149 150 158 164 168 172 174 176 178 179 180 181 181 178 176 179 183 184 184 183 186 188 190 191 192 192 191 189 188 190 189 188 186 184 182 180 178 176 174 171 167 165 167 171 174 178 181 183 185 186 187 185 181 177 176 179 182 184 186 188 191 194 198 200 201 203 205 211 216 221 224 227 233 238 242 246 250 252 252 249 244 235 229 227 223 220 217 214 211 208 205 202 200 200 198 195 196 198 199 198 195 192 189 186 182 178 174 167 160 155 156 157 160 165 170 172 169 164 161 162 162 162 161 161 167 173 174 174 172 167 168 173 176 178 179 177 175 173 168 164 160 160 162 165 168 171 173 174 172 169 168 165 163 162 161 160 159 157 157 157 159 160 160 160 158 160 164 167 168 169 177 186 196 206 213 219 222 219 214 208 202 196 185 180 178 177 177 177 176 174 171 170 167 166 163 161 157 155 151 149 149 149 149 150 150 150 150 150 150 150 149 149 149 149 149 149 150 153 156 160 164 165 165 164 162 161 160 158 156 156 158 160 161 161 162 162 163 163 163 163 163 163 163 163 163 162 162 162 161 161 160 159 158 157 156 157 160 163 164 165 167 168 168 169 172 175 177 179 181 185 191 199 205 210 215 217 219 219 217 218 224 228 232 234 236 238 237 236 233 230 228 226 225 223 222 220 218 217 217 220 225 230 235 239 244 247 244 239 237 239 243 246 250 256 260 265 273 278 281 285 289 295 300 304 305 303 302 305 309 315 322 328 332 336 339 341 345 349 356 363 368 371 372 370 373 379 382 390 396 400 404 405 403 398 396 399 401 402 402 400 402 403 403 401 398 395 399 406 411 411 410 408 409 409 407 404 402 397 397 400 402 403 404 406 407 409 410 409 407 402 401 399 397 396 396 395 394 394 394 396 397 397 399 400 400 401 400 400 400 402 401 401 401 400 399 397 396 395 393 391 389 387 385 381 379 377 374 374 374 368 362 356 353 352 352 350 348 346 343 339 335 332 329 328 324 320 317 312 312 312 314 317 317 317 315 313 311 309 307 305 303 300 294 289 286 284 285 287 290 291 292 294 295 295 295 295 295 295 296 297 298 300 302 305 308 311 313 314 316 318 323 327 329 330 333 336 339 341 341 341 340 340 342 349 355 361 366 370 372 375 379 385 390 396 398 398 399 398 396 395 392 390 386 383 381 383 384 385 385 386 386 385 384 382 382 388 394 402 411 418 423 425 424 421 417 414 412 411 411 411 411 410 409 406 403 400 398 395 392 392 393 394 393 391 386 383 385 386 386 386 386 386 386 387 389 389 390 390 390 390 388 381 373 368 370 375 382 389 394 400 404 407 408 408 408 408 410 413 415 412 405 401 397 393 389 387 386 385 386 389 389 390 391 393 395 396 397 399 400 402 404 405 406 407 407 407 408 410 412 415 419 422 423 424 424 425 424 422 421 423 428 434 438 440 442 443 443 444 446 448 453 461 469 477 485 489 488 486 480 476 473 467 461 457 450 443 439 436 433 430 426 422 415 410 406 403 401 396 393 391 389 386 384 385 385 383 384 384 386 387 388
180 173 167 166 164 162 161 157 154 150 143 143 143 143 143 143 143 142 142 142 142 142 142 142 143 146 148 150 151 153 155 157 159 160 160 159 157 153 149 143 138 136 136 136 136 136 137 140 144 144 145 146 147 147 148 149 154 162 168 172 176 179 180 182 183 184 185 184 182 180 184 187 189 190 189 192 194 195 196 197 197 197 196 196 196 196 196 194 191 188 186 184 180 178 174 170 168 167 169 172 175 179 182 184 186 186 185 181 178 178 180 183 186 191 193 194 196 201 205 208 210 211 215 219 223 226 231 236 241 246 249 254 257 258 255 247 239 235 234 229 225 221 217 214 210 207 204 203 202 200 197 198 200 201 200 198 195 192 189 185 180 176 169 161 157 156 157 159 163 166 166 163 160 160 164 166 165 163 161 163 169 172 173 170 166 168 173 177 179 179 177 175 171 167 163 160 160 160 163 167 170 173 173 171 168 167 165 162 161 160 159 158 157 156 156 157 158 158 157 156 158 161 164 165 166 173 182 191 201 208 213 216 214 210 204 200 193 184 178 177 176 175 175 175 173 171 170 169 168 166 163 159 155 150 149 149 149 149 150 150 150 150 150 150 150 150 150 149 149 149 149 149 150 153 156 160 161 162 162 161 159 158 155 155 155 158 160 161 162 162 162 162 163 163 163 162 162 162 162 162 162 162 161 160 159 158 156 155 155 156 159 161 163 165 166 168 170 171 172 173 175 177 180 183 188 194 202 208 213 217 220 222 222 220 221 226 230 233 236 238 240 240 239 236 232 229 227 225 224 222 221 219 219 219 219 223 228 232 236 240 241 238 236 236 241 246 249 254 259 261 263 270 275 278 282 286 292 298 302 302 299 301 306 311 318 324 330 332 336 339 342 346 349 355 360 365 368 369 370 375 379 382 389 396 400 404 408 406 401 398 402 404 405 405 404 404 406 406 405 402 399 402 409 414 416 415 413 412 412 410 407 405 401 400 402 404 405 407 409 410 412 413 412 408 402 401 399 397 395 395 394 393 393 394 396 397 397 398 399 399 399 399 399 399 400 399 399 399 398 398 397 396 395 394 392 389 387 385 380 378 375 372 370 368 365 360 357 358 358 355 353 350 347 343 339 335 333 332 331 328 323 318 312 312 312 315 317 317 317 316 315 314 312 311 308 305 301 295 290 286 285 285 287 290 291 292 294 294 294 295 296 296 296 298 299 299 302 304 307 310 312 314 315 316 317 321 327 331 331 334 336 339 339 340 339 339 340 343 349 355 361 367 370 372 376 380 387 393 398 400 402 403 401 399 395 392 389 384 380 378 381 381 383 383 385 385 384 383 382 382 385 391 399 407 415 419 419 418 415 412 410 409 409 412 414 413 412 409 406 403 400 398 394 390 390 391 391 390 389 385 381 383 383 384 384 384 383 382 383 385 387 388 389 389 390 388 381 373 367 369 374 380 387 393 399 404 407 409 410 411 411 414 418 419 415 408 404 399 394 390 388 387 387 388 390 391 391 393 394 395 397 398 400 400 402 403 404 404 405 405 406 407 409 411 413 417 419 419 419 420 419 418 416 417 421 426 430 433 436 437 438 441 444 447 449 455 462 469 477 484 486 485 483 478 474 471 465 459 455 449 441 435 431 429 426 423 419 413 410 406 400 398 394 392 390 387 384 382 381 380 380 381 381 383 384 384
180 172 166 164 162 161 159 156 154 150 143 143 143 143 143 143 143 142 142 142 142 142 142 144 147 148 149 150 152 154 157 160 161 162 162 159 157 153 148 142 139 136 136 136 136 136 136 140 144 144 145 146 147 147 148 151 159 166 172 176 180 182 184 186 187 188 189 188 184 185 189 192 194 195 195 196 198 200 202 203 203 203 203 203 202 202 202 200 198 195 192 190 186 182 177 172 172 171 171 172 173 176 180 183 185 185 184 181 181 181 184 185 187 192 196 199 201 203 207 211 213 216 219 222 225 229 235 240 245 248 252 258 263 264 259 251 243 240 237 233 229 224 220 217 213 210 207 205 204 202 199 199 203 203 203 201 198 194 190 186 182 177 170 162 159 158 158 159 161 163 163 161 160 161 166 170 169 165 161 161 164 168 169 166 166 168 173 178 179 179 177 175 171 167 163 160 160 160 162 166 169 171 171 169 167 165 163 161 160 159 158 158 157 156 156 156 157 156 156 156 157 160 161 162 165 170 177 185 194 202 206 209 207 205 200 196 189 183 178 177 175 175 174 174 173 171 170 169 168 167 164 159 154 149 149 149 149 150 150 150 150 151 151 151 151 150 150 150 149 149 149 149 149 150 153 155 157 158 158 157 156 154 152 154 155 157 160 161 161 162 162 162 162 162 162 162 162 162 162 162 162 162 160 160 157 155 155 155 155 156 160 162 164 166 167 170 172 173 174 174 176 178 181 184 189 196 202 209 213 219 222 224 224 222 222 228 231 234 237 239 241 240 240 238 235 231 228 226 225 223 221 220 220 219 219 221 226 230 234 236 237 235 235 238 244 247 250 255 261 264 267 270 274 278 283 286 289 294 298 299 299 303 308 313 319 324 328 332 338 342 345 350 354 357 360 363 366 367 372 377 380 383 389 395 401 405 408 407 404 401 403 406 408 408 408 408 409 409 409 406 403 406 412 417 421 419 416 414 414 413 410 408 402 401 403 405 406 408 410 412 414 415 413 409 402 401 399 397 395 395 393 393 392 393 396 397 397 398 398 398 398 399 399 399 399 399 398 397 397 396 396 396 395 394 392 389 387 384 379 376 372 370 367 366 365 363 363 362 361 358 354 351 348 343 340 338 336 334 332 329 325 318 312 312 312 315 317 317 317 317 317 317 315 312 309 306 301 294 290 286 285 286 287 289 290 292 293 294 294 294 295 295 296 298 299 300 302 305 307 310 313 314 316 316 317 321 327 330 332 334 337 340 340 339 339 339 340 343 350 355 361 366 370 372 376 382 390 396 400 403 406 407 404 401 395 392 388 383 378 376 378 380 383 384 386 385 384 383 382 382 384 390 397 405 412 415 415 414 411 409 407 407 408 411 414 414 412 409 405 402 400 397 394 389 387 389 389 389 388 385 380 379 380 380 380 380 379 378 377 380 383 385 387 388 389 387 382 374 366 367 373 378 384 390 395 401 405 408 410 411 414 418 420 420 416 411 406 402 396 391 389 388 388 388 390 391 391 393 395 396 397 399 400 401 402 402 403 403 403 403 404 406 408 410 412 413 414 414 415 416 415 412 410 415 421 426 429 431 434 437 439 443 447 450 453 456 462 469 476 481 483 481 480 475 471 468 462 458 453 448 440 435 430 425 422 418 416 413 409 406 400 395 393 390 388 385 382 380 380 380 380 380 380 382 381 380
180 171 163 161 161 160 158 156 154 151 143 142 142 142 142 142 142 142 142 142 142 142 145 149 149 149 149 150 153 155 159 162 162 163 162 159 156 152 147 142 139 136 136 136 136 136 136 139 143 144 144 146 147 148 149 156 164 171 177 180 183 185 188 191 192 193 193 192 188 190 194 196 198 200 200 200 204 206 209 210 210 210 211 210 209 209 209 206 204 201 198 195 191 185 179 176 177 177 176 174 173 174 178 180 182 184 184 184 186 185 188 190 189 193 199 204 207 208 209 212 216 219 222 226 228 232 238 244 248 251 256 262 268 270 265 257 250 245 241 236 232 227 223 219 216 211 209 208 206 204 202 202 205 206 205 204 200 196 192 188 184 179 172 163 160 158 158 158 160 161 161 160 160 162 169 173 172 169 164 161 161 163 163 162 165 169 173 178 179 178 176 175 171 167 164 160 159 159 161 164 167 169 168 166 164 162 161 160 159 159 158 157 157 155 155 156 157 156 156 155 156 157 159 160 163 167 172 179 186 194 198 201 200 198 195 191 185 180 177 176 175 174 173 173 172 171 169 168 168 166 163 157 152 149 149 149 149 150 151 151 151 151 151 151 151 151 150 150 149 149 149 149 149 149 150 152 153 154 154 153 152 151 149 152 154 155 157 158 161 162 162 162 162 161 161 161 161 161 161 161 161 161 159 157 155 155 155 155 155 158 160 162 165 167 169 172 174 174 175 175 177 179 181 185 190 196 202 208 213 219 224 226 226 224 224 228 231 235 237 239 240 240 240 240 238 235 232 228 226 225 223 222 221 221 220 221 224 227 230 232 233 233 237 241 245 248 250 255 262 266 270 274 278 282 286 289 291 292 295 297 300 306 311 317 322 326 332 337 341 346 351 356 360 364 365 367 369 370 373 378 381 385 390 395 401 406 409 409 407 404 404 408 411 412 412 412 413 413 413 410 407 409 415 419 424 421 418 417 416 415 413 411 406 401 404 407 408 410 412 415 417 416 414 408 403 402 401 398 396 395 393 392 391 393 395 396 396 397 397 397 397 398 398 398 398 397 397 396 395 394 394 394 394 393 391 389 387 384 380 377 375 374 372 370 370 369 368 365 363 360 356 352 349 346 342 341 338 336 333 328 324 318 313 312 313 315 317 317 317 318 318 318 317 313 310 306 302 295 290 286 285 286 287 288 289 289 290 293 293 294 295 295 296 298 299 300 302 306 307 310 313 316 317 318 317 321 326 329 331 333 336 338 339 337 338 339 340 344 350 355 360 365 368 371 376 383 391 397 402 405 408 408 405 401 395 391 386 380 376 375 376 379 383 386 388 386 384 382 382 382 384 389 396 403 409 411 411 410 407 405 405 405 406 410 413 414 412 408 404 401 399 396 393 387 384 386 388 387 386 384 379 374 375 376 376 375 374 371 368 373 379 381 384 385 386 386 382 374 365 365 370 376 381 386 391 396 400 403 405 409 412 415 418 417 414 411 407 404 399 393 390 388 388 388 390 391 391 394 395 396 397 398 399 401 401 401 401 401 400 400 400 402 404 407 408 408 410 411 412 412 409 406 408 415 422 427 431 433 435 438 442 446 450 452 455 458 464 469 475 479 479 477 476 472 467 464 458 454 450 445 438 434 429 423 419 414 412 409 407 405 399 395 391 387 385 383 381 380 380 380 380 380 380 380 380 380
177 169 162 160 160 160 158 157 156 152 145 142 142 142 142 142 142 142 142 142 142 142 146 148 148 148 148 150 153 157 161 163 163 163 161 159 155 151 146 141 139 136 136 136 136 136 136 138 142 143 144 145 147 148 153 161 169 176 181 184 187 189 193 195 197 197 197 196 193 195 198 201 204 206 206 206 210 213 216 219 220 220 221 220 219 218 216 213 209 206 203 199 194 187 181 182 183 184 183 181 178 176 179 182 183 185 187 190 191 191 193 196 195 194 201 207 211 214 214 215 218 222 225 229 232 236 242 247 250 254 259 265 271 275 270 264 257 250 244 239 235 230 225 222 218 213 212 210 208 205 203 203 207 209 208 206 203 199 194 190 186 181 175 165 160 159 159 159 160 160 160 160 160 165 172 174 174 172 168 163 161 161 161 162 165 170 173 176 177 177 176 174 171 167 164 159 158 159 159 161 165 166 166 164 162 160 159 159 158 157 157 157 156 155 155 155 156 156 156 154 155 156 156 158 161 164 168 174 179 185 189 192 193 192 190 186 181 178 176 174 173 173 173 171 170 168 168 166 164 162 159 154 151 149 149 149 149 150 151 151 152 152 152 152 152 152 151 151 150 149 149 149 149 149 149 149 150 151 151 150 149 149 149 149 151 151 152 155 160 161 161 161 161 161 160 158 157 159 160 160 159 158 156 155 155 154 154 155 155 157 160 162 165 169 171 173 175 176 176 177 178 180 182 186 190 195 201 207 213 219 226 229 228 226 226 228 231 234 236 238 239 239 238 239 239 238 235 231 227 227 226 225 224 223 222 222 222 224 226 228 230 233 240 241 244 248 250 254 262 268 272 277 281 285 289 292 295 296 297 299 303 308 314 320 325 330 335 339 345 350 356 361 364 367 368 370 372 373 374 378 382 385 390 396 401 406 410 411 410 407 406 410 413 415 415 416 416 416 416 415 411 412 416 419 422 420 418 418 418 417 415 413 409 404 406 408 410 411 415 418 419 417 413 408 405 406 404 400 397 395 392 390 390 392 394 396 396 396 396 396 396 397 397 397 396 396 396 395 393 391 390 391 393 392 391 389 387 386 383 379 380 380 379 377 376 374 371 368 365 362 359 354 351 348 345 342 339 336 333 327 322 318 314 313 314 314 316 316 317 319 321 320 318 315 311 308 303 297 291 286 286 286 286 287 287 288 288 292 293 293 294 295 296 298 299 300 302 306 307 310 314 316 318 319 320 321 325 329 330 332 334 335 336 336 338 338 340 346 352 355 359 363 367 372 377 385 391 397 401 405 408 408 405 400 394 390 384 378 375 374 375 379 382 387 389 386 383 381 381 383 384 389 395 401 405 407 408 406 403 401 403 404 405 408 412 413 411 406 403 400 397 395 391 386 384 383 385 385 385 383 378 371 369 371 370 369 368 365 360 365 372 377 380 381 382 383 381 374 364 363 369 373 377 381 386 390 394 396 398 401 403 407 410 411 410 409 406 404 401 396 392 389 389 389 390 391 391 393 395 396 396 396 397 398 397 397 398 398 397 395 395 397 400 403 404 404 407 409 409 408 404 405 411 417 422 429 432 434 436 440 444 448 451 453 455 459 464 468 473 475 475 473 471 469 464 460 455 451 447 440 435 431 427 423 418 414 409 406 403 401 398 394 390 385 383 383 381 380 380 380 380 380 380 380 380 380
173 165 161 160 160 160 160 159 157 154 147 142 142 142 142 142 142 142 142 142 142 142 142 144 146 147 149 151 155 159 162 163 163 163 161 158 154 149 144 140 138 136 136 136 136 136 136 136 141 143 143 144 145 150 158 167 174 180 184 188 191 194 198 200 201 201 201 199 197 200 204 207 210 212 213 213 216 221 225 229 231 231 231 229 228 226 222 219 215 211 207 203 196 188 185 188 190 191 191 189 184 182 186 189 191 192 194 197 198 197 199 202 200 197 204 210 214 217 219 218 220 225 228 232 235 240 245 249 252 256 261 267 275 279 274 269 262 254 247 241 237 232 226 223 219 216 215 212 210 206 204 204 209 210 210 208 205 201 196 191 187 182 176 167 161 160 160 160 160 160 160 160 161 169 174 175 174 174 169 163 161 160 160 162 165 169 172 174 176 176 175 174 171 167 164 158 157 157 158 159 162 163 163 161 160 159 158 158 157 157 156 156 155 155 154 155 156 156 155 153 154 155 155 156 159 161 164 168 174 178 182 185 186 185 183 180 178 177 175 174 173 173 173 171 168 166 166 162 161 158 155 152 149 149 149 149 149 150 151 152 152 153 153 153 153 153 152 151 151 150 149 149 149 149 149 149 149 149 149 149 149 149 149 149 149 149 150 155 157 158 158 158 159 158 156 154 153 156 157 157 156 155 154 154 154 154 154 155 155 157 160 163 166 170 172 173 175 176 177 179 180 181 183 186 190 196 202 207 214 221 229 231 230 227 227 228 230 232 234 235 236 237 238 238 239 239 238 234 231 230 228 227 225 225 224 223 223 224 226 227 231 235 239 241 244 247 251 255 263 269 273 278 282 286 290 294 298 300 301 303 306 311 317 322 328 333 337 342 348 355 360 364 367 369 371 373 374 376 377 378 382 385 389 395 401 406 410 412 412 410 408 411 415 417 418 419 419 419 419 418 415 416 417 418 419 419 419 419 419 419 416 414 410 407 407 409 411 413 417 420 420 417 413 408 408 408 406 401 398 395 392 389 389 391 393 395 395 395 395 395 395 396 396 396 395 395 395 394 392 389 386 387 390 391 391 390 389 389 385 382 385 385 384 383 380 377 373 370 367 364 361 356 352 349 346 343 340 337 333 327 321 317 316 315 315 315 316 317 318 321 323 323 320 317 312 309 304 299 292 287 286 286 286 287 288 288 289 291 292 293 294 294 296 298 299 299 302 305 307 310 313 316 318 319 320 321 324 328 330 331 333 334 335 336 337 338 340 347 352 355 359 363 367 373 379 385 391 396 400 404 407 405 402 398 393 389 383 377 373 372 375 378 381 386 390 386 383 381 380 383 384 388 393 397 401 403 404 402 399 397 401 403 404 407 410 411 409 405 402 398 395 392 388 386 384 382 382 384 384 382 378 370 363 365 365 364 362 359 355 359 366 371 374 377 378 378 376 370 360 360 365 369 373 376 380 383 387 389 390 392 393 395 399 403 404 405 405 403 401 396 392 389 388 388 389 390 391 392 394 395 395 394 395 395 393 393 394 394 393 391 391 391 394 397 398 401 404 406 407 404 401 408 413 417 422 428 432 434 437 441 445 448 451 453 454 458 463 466 469 471 470 469 468 466 462 458 455 451 446 437 431 427 423 420 417 413 408 404 401 398 395 393 389 385 383 383 381 381 381 380 380 380 380 380 380 380
169 162 161 161 161 161 161 161 159 156 149 141 141 142 142 142 142 142 142 142 142 142 143 143 146 148 150 154 157 161 163 164 164 162 160 156 151 146 142 139 138 136 136 136 136 136 136 137 140 142 143 144 146 154 163 172 179 184 188 192 196 199 202 204 206 206 205 203 202 206 210 213 215 218 219 219 222 228 233 236 238 239 239 237 235 232 228 225 220 216 212 206 200 191 190 194 197 198 197 195 190 188 193 195 197 200 202 204 205 204 203 207 205 201 207 213 217 221 223 223 222 227 231 235 238 243 247 251 255 259 263 270 278 281 277 271 265 257 249 243 238 233 229 224 221 219 217 214 211 208 205 206 209 210 210 209 207 203 198 193 189 182 176 168 161 160 160 160 160 160 160 160 165 172 174 175 174 173 169 163 161 160 160 162 164 168 171 173 174 175 174 173 170 166 164 158 154 154 156 157 159 160 160 160 159 158 157 157 157 156 155 155 154 154 153 154 156 155 154 153 153 153 153 155 157 159 161 164 168 172 175 177 178 179 177 176 175 175 174 174 174 173 173 172 169 167 166 162 159 154 152 149 149 149 149 150 150 150 152 152 153 154 154 154 154 154 154 153 153 152 150 149 149 149 149 149 149 149 149 149 149 149 149 149 149 149 149 152 154 155 153 154 155 153 151 150 150 153 154 154 154 154 154 154 154 154 154 155 156 158 161 165 169 172 173 174 176 177 178 180 181 182 185 189 191 196 202 209 215 224 232 233 231 227 227 227 229 231 233 233 234 237 239 239 240 241 241 237 235 234 232 230 228 227 226 225 224 225 227 228 232 236 239 242 245 246 251 257 265 270 274 279 283 286 291 296 300 303 305 307 310 315 320 324 330 335 339 345 351 358 363 366 369 371 373 374 376 378 380 381 384 386 389 393 398 405 409 412 414 412 411 413 416 418 420 421 422 422 422 421 418 419 419 419 419 419 420 420 420 419 416 414 411 407 407 410 413 416 419 421 420 417 413 408 410 409 407 402 398 395 392 389 389 389 392 393 394 394 394 394 395 395 395 395 394 394 393 392 390 387 384 384 387 390 390 391 391 390 387 385 388 388 387 386 383 380 376 372 368 365 362 358 354 351 348 344 341 337 332 326 320 317 317 317 317 316 317 317 318 320 323 323 321 317 313 309 305 300 293 287 287 287 287 288 288 289 290 291 292 293 294 295 297 298 299 299 300 303 305 308 311 314 317 319 320 321 323 327 329 331 332 334 334 335 336 338 341 348 353 355 358 362 367 373 379 385 391 395 398 402 403 401 398 396 391 387 382 375 371 372 374 377 381 386 390 386 383 380 379 382 384 387 390 392 396 398 398 398 395 392 399 401 403 405 407 408 408 404 401 398 394 390 387 385 384 380 380 381 381 380 376 369 360 359 359 359 356 353 351 356 362 366 368 371 371 371 369 363 357 358 362 364 367 372 375 377 379 381 382 383 384 385 388 392 395 398 402 402 400 396 392 389 387 386 387 388 389 390 392 392 391 391 392 392 390 388 389 389 388 387 387 387 389 391 393 397 400 403 403 399 401 407 412 417 421 426 430 433 437 441 445 448 452 454 455 458 461 463 465 466 466 466 464 462 459 457 455 450 445 437 430 425 419 416 413 410 408 404 400 396 393 390 388 383 383 383 382 382 382 380 380 380 380 380 380 380
165 161 161 161 161 161 162 161 161 157 150 141 141 141 141 141 142 142 142 142 143 145 146 145 147 149 151 155 160 162 163 163 163 161 157 153 148 143 140 139 137 136 136 136 136 136 136 138 140 142 143 144 149 158 168 177 183 188 192 197 201 204 207 209 210 211 211 209 207 212 216 218 221 224 226 225 228 234 239 243 246 248 248 245 241 237 234 229 225 220 216 210 204 195 194 199 203 204 203 201 195 195 199 202 204 207 209 211 212 211 209 211 210 205 209 215 220 224 227 227 226 229 233 237 241 246 250 253 256 260 265 271 279 281 277 273 266 258 251 244 239 234 230 226 224 222 219 215 212 209 207 208 209 210 210 209 208 204 199 193 189 183 178 171 165 161 160 160 160 160 160 161 168 174 175 175 174 172 167 163 160 159 159 161 163 167 169 172 173 174 174 172 169 166 163 158 151 151 153 155 157 158 159 158 157 157 157 156 156 155 154 154 153 152 152 153 155 155 153 152 152 152 153 154 155 157 158 161 163 166 169 171 172 173 173 174 173 173 174 174 174 174 174 174 171 168 166 162 159 154 149 149 149 149 149 150 150 150 152 153 154 155 155 155 155 154 154 154 154 154 152 151 149 149 149 149 149 149 149 149 149 149 149 149 149 149 149 149 151 152 150 150 150 150 150 150 150 150 152 153 153 153 153 154 154 154 154 155 157 159 162 166 170 174 174 176 177 178 179 180 182 184 187 191 194 197 202 210 215 224 233 234 232 228 227 227 228 231 233 234 237 239 241 243 244 244 244 241 239 238 236 234 232 231 229 228 227 225 227 229 235 240 242 245 247 248 251 257 265 270 274 279 282 286 291 297 301 305 308 310 313 318 321 326 332 336 341 347 354 361 365 368 370 372 374 376 378 380 382 384 387 390 392 394 397 402 408 412 414 414 413 414 418 420 421 422 423 425 425 423 421 420 419 419 419 419 419 420 420 418 415 414 411 408 408 411 414 419 421 422 420 418 414 411 412 412 408 404 399 396 393 389 389 389 389 391 392 393 393 393 394 395 394 394 393 393 392 390 388 386 383 382 385 388 389 391 391 390 388 388 389 390 390 388 386 382 378 373 369 366 362 359 354 351 348 344 341 337 331 325 320 318 318 318 317 317 317 318 318 319 322 322 320 316 312 307 304 300 292 287 287 287 287 287 288 289 290 292 292 293 294 295 297 299 300 300 301 303 305 307 311 314 317 319 320 321 323 326 328 330 331 333 333 334 336 339 342 347 352 354 357 362 367 373 378 384 390 393 396 398 399 397 395 393 390 386 380 373 370 372 373 377 380 385 388 386 382 379 377 381 384 385 387 388 391 393 394 394 391 389 396 399 401 403 405 406 405 403 400 397 393 390 387 385 383 377 376 378 379 377 372 367 360 354 352 353 351 349 348 352 358 361 364 365 365 365 362 357 354 357 360 361 363 366 371 372 373 374 374 375 375 378 381 385 388 393 399 400 398 395 390 388 387 384 384 385 385 386 388 388 387 387 389 388 387 385 386 386 384 384 384 384 386 388 390 393 395 399 399 397 403 407 412 415 419 424 428 431 436 440 444 449 452 455 456 458 460 460 462 463 463 463 461 459 457 455 452 447 441 435 430 425 418 413 410 408 405 402 399 396 393 390 388 384 383 383 383 382 382 380 380 380 380 380 380 380
