ncols         949
nrows         34
xllcorner     -71.0333333333
yllcorner     41.76443
cellsize      1.0E-5
NODATA_value  -9999
6 5 5 5 5 5 5 5 5 5 5 5 6 7 8 8 8 8 8 8 7 7 6 5 4 3 3 3 3 3 3 3 2 2 2 2 2 3 3 2 2 2 2 2 3 3 4 4 4 6 6 6 6 6 6 6 7 7 7 8 8 8 8 8 9 9 9 9 8 8 8 8 8 9 9 10 11 11 10 9 9 8 8 6 4 3 3 3 3 3 4 5 5 6 6 6 6 8 8 8 8 8 11 11 12 13 13 14 15 15 16 16 17 17 18 18 18 18 19 20 20 20 20 21 20 20 20 20 20 20 20 20 21 21 21 21 21 21 20 20 20 20 20 20 21 22 23 23 22 22 21 20 20 19 19 19 22 23 22 21 20 19 19 19 19 19 20 20 21 22 22 21 21 20 19 18 18 16 16 16 16 15 12 9 9 9 10 12 13 13 13 13 13 13 13 12 12 12 11 11 10 10 10 10 11 12 14 15 16 17 16 16 15 15 14 14 14 14 14 15 15 16 16 15 15 15 15 15 16 16 16 16 16 14 14 16 16 17 17 17 17 17 16 16 16 16 16 16 17 17 17 17 17 17 17 17 17 17 17 17 17 17 17 18 18 19 19 20 22 22 23 22 20 19 20 23 26 26 27 26 25 22 20 20 20 22 22 23 23 23 24 25 27 28 29 29 32 33 34 34 34 34 34 33 32 30 29 27 25 25 25 26 27 28 28 28 28 28 28 28 28 27 27 27 27 26 25 25 24 23 23 23 23 21 21 21 20 21 21 21 23 24 23 22 21 19 19 18 17 14 12 11 11 13 14 15 16 19 21 23 24 24 24 24 24 25 26 27 27 27 27 28 29 29 30 33 36 39 43 47 48 48 48 48 49 50 50 51 48 45 44 46 48 50 52 52 50 48 43 40 38 35 35 35 35 35 33 31 29 28 27 27 27 28 28 30 30 30 30 30 31 32 32 32 32 32 32 33 33 33 34 34 35 35 38 40 40 40 40 41 41 39 39 39 41 40 40 40 40 41 41 41 42 43 44 44 45 46 47 48 48 48 48 47 48 48 48 48 48 48 48 46 46 45 44 44 43 42 41 41 40 38 38 37 37 36 35 35 35 35 34 33 29 28 28 29 29 28 28 28 29 29 29 29 29 29 29 29 29 29 28 29 31 34 35 36 36 37 37 36 35 35 34 34 34 34 33 32 32 32 31 31 30 30 30 30 30 30 30 33 33 34 34 34 34 34 33 32 32 33 33 30 29 29 28 28 29 29 29 29 29 29 29 29 29 29 29 30 32 32 30 30 31 32 33 32 31 31 31 31 31 31 32 32 33 34 34 33 33 33 33 34 36 36 36 35 34 32 31 29 28 28 28 28 29 29 29 29 29 29 29 29 29 29 31 31 31 30 30 31 32 32 32 32 31 31 33 33 34 34 33 32 32 33 33 33 33 33 33 33 34 34 34 33 32 30 30 30 32 32 34 34 35 34 33 33 33 33 34 34 34 34 34 34 33 33 33 33 34 35 35 35 35 35 34 34 34 33 33 32 32 32 32 34 33 32 32 33 33 34 35 36 36 36 35 35 34 33 33 32 32 32 32 32 32 32 32 33 34 34 34 34 34 33 32 32 30 30 30 32 33 33 34 34 34 35 35 35 36 36 35 35 35 34 34 34 35 35 34 32 30 28 27 27 28 30 30 30 30 31 32 32 33 33 33 32 32 32 32 32 33 33 33 33 34 34 34 35 35 35 35 35 34 33 32 31 30 30 30 30 30 31 31 31 32 32 31 31 32 32 32 32 32 31 30 29 28 28 28 29 29 30 30 32 32 33 33 33 33 33 33 33 33 33 33 31 31 32 33 33 33 33 34 34 34 34 34 34 34 33 33 33 33 33 33 33 33 34 34 34 36 38 40 41 42 42 41 38 38 37 37 37 35 33 31 31 31 31 31 31 31 31 31 31 31 31 30 30 31 33 37 37 37 37 39 40 41 42 41 40 39 38 37 36 37 38 38 37 35 35 36 37 39 41 41 40 40 40 43 44 44 43 42 40 39 39 38 38 36 35 34 34 34 34 35 39 40 39 38 35 35 36 36 36 35 34 33 33 34 37 38 38 38 38 39 40 39 39 39 38 38 40 41 42 42 43 45 46 47
6 5 5 5 5 5 5 5 5 5 5 5 5 6 7 7 8 8 8 8 6 6 6 5 4 3 3 2 2 3 3 3 3 3 3 3 3 3 3 3 3 3 3 3 3 4 4 5 5 5 5 6 6 6 6 6 7 7 7 8 8 8 8 8 9 9 9 9 8 8 8 8 8 9 10 11 12 12 9 9 9 8 8 6 4 3 3 3 3 3 5 5 6 6 6 7 7 8 7 7 8 9 11 12 12 13 13 15 15 16 16 16 18 18 18 19 19 19 19 21 21 21 21 21 20 20 20 20 20 20 20 20 20 20 21 21 20 20 20 20 20 20 20 20 21 22 22 22 22 21 21 20 20 20 20 20 23 24 23 22 21 19 19 19 19 19 20 20 22 22 22 22 22 20 20 18 18 16 16 16 15 15 11 9 9 9 11 13 14 14 14 14 14 14 13 13 13 12 12 11 10 10 10 10 11 11 13 14 15 16 16 16 15 15 14 14 14 14 14 15 15 15 15 14 14 14 15 15 16 16 16 16 16 13 13 14 15 16 16 17 18 18 17 16 16 16 16 16 17 17 17 17 17 17 17 17 17 17 17 17 17 17 17 17 17 18 19 21 22 23 24 23 21 19 20 24 26 27 27 26 25 23 21 20 20 21 21 22 22 23 23 25 26 27 28 28 32 34 34 35 35 36 35 34 33 31 29 28 26 25 25 27 27 28 28 28 28 28 28 28 28 27 27 26 26 25 25 25 24 23 22 22 22 21 21 20 20 20 20 20 22 23 23 22 21 19 19 18 17 14 11 11 12 14 15 16 16 20 21 23 24 24 24 24 24 25 26 28 28 27 27 28 29 29 31 34 37 41 44 48 49 49 48 48 50 50 51 51 48 44 42 44 46 48 50 51 50 48 43 40 37 35 35 36 36 36 35 32 30 29 29 28 28 29 29 29 29 29 29 29 32 32 33 33 33 33 33 32 32 32 34 34 35 35 37 39 39 40 40 42 41 39 39 40 41 41 41 41 41 41 41 41 42 42 44 45 46 47 47 49 49 48 47 47 47 47 47 47 48 48 48 47 47 45 45 44 43 43 41 41 40 38 38 37 37 36 35 35 35 35 33 33 30 29 29 28 28 28 29 29 29 29 29 29 29 29 29 29 29 29 28 28 31 33 34 36 36 38 38 36 35 35 34 34 33 33 33 33 33 32 32 31 30 30 30 30 30 30 30 32 33 34 34 34 34 34 33 33 33 34 34 31 29 29 29 29 28 28 29 29 29 29 29 29 29 29 30 32 32 32 30 30 30 31 32 31 31 31 31 31 31 31 32 32 33 33 33 33 33 33 33 34 37 37 37 35 34 32 31 29 28 28 28 28 29 29 29 29 29 29 29 29 29 29 31 31 29 29 29 31 32 32 32 32 32 32 34 34 34 33 32 32 32 32 33 33 32 32 33 33 34 34 34 32 31 30 30 30 32 32 34 34 35 33 33 33 33 33 33 33 33 34 33 33 33 33 33 33 33 34 35 35 35 35 34 33 33 32 32 32 32 32 33 34 34 32 32 33 33 34 35 37 37 37 35 35 34 34 34 32 32 31 31 31 31 31 32 33 34 35 35 34 34 33 32 32 30 30 30 32 32 33 33 34 34 35 35 35 36 36 35 35 34 33 33 33 34 34 33 33 30 29 27 27 28 30 30 30 30 31 33 33 33 33 33 32 32 32 32 32 33 33 33 33 34 34 34 35 35 35 35 34 33 32 31 31 30 29 29 30 30 31 31 32 32 32 31 31 32 32 32 31 31 30 29 29 28 27 27 28 29 30 30 32 32 33 33 33 33 33 32 33 33 34 33 32 32 32 33 33 34 34 34 34 34 34 34 35 35 34 33 33 33 33 33 33 33 33 33 33 34 36 38 39 41 41 40 38 37 38 38 36 34 32 32 32 32 32 32 31 31 32 32 32 31 31 30 30 33 35 37 37 37 37 39 40 42 42 41 40 39 39 39 38 39 40 40 38 35 35 36 37 39 40 40 40 40 41 43 44 43 42 41 39 39 38 38 37 35 34 34 34 34 34 35 39 40 39 38 36 36 37 37 37 36 35 34 34 34 36 37 38 38 37 37 38 38 38 38 39 40 41 42 43 44 45 46 47 48
6 5 5 5 5 4 4 4 4 4 5 5 5 5 5 5 6 7 8 8 6 5 5 5 4 3 3 2 2 3 3 3 3 3 2 2 2 2 2 3 3 3 3 3 4 4 5 6 6 5 5 6 6 6 6 6 7 7 7 8 8 8 8 8 9 9 9 9 8 8 8 8 8 10 11 12 12 12 11 10 9 8 8 7 4 3 3 3 4 4 5 5 5 6 6 7 7 7 7 7 7 9 11 12 13 14 15 15 15 15 16 16 17 17 19 19 19 19 20 21 21 21 21 21 21 21 21 20 20 20 20 20 20 20 21 21 20 20 20 20 20 20 20 20 21 22 22 22 22 21 21 22 21 21 21 21 24 24 23 23 22 21 20 20 20 20 21 21 22 22 22 22 22 20 20 18 18 16 16 17 16 15 11 9 9 10 12 14 15 15 15 14 14 14 13 13 13 12 11 11 10 10 10 10 10 11 12 13 15 15 15 16 15 14 13 13 14 14 14 15 15 15 15 14 14 14 14 14 14 14 15 15 15 13 13 13 15 15 15 16 17 17 17 16 16 16 16 16 17 17 17 17 17 17 17 17 17 17 17 17 17 17 17 17 17 17 18 20 21 23 24 23 21 21 22 25 28 28 27 26 25 24 21 20 20 20 21 22 22 23 23 25 26 26 28 29 32 34 34 35 35 35 35 33 32 31 29 28 27 27 27 27 27 28 28 28 28 28 28 28 28 26 26 25 25 25 23 23 22 21 21 21 21 21 21 20 20 20 20 20 21 22 22 21 20 18 18 17 16 14 11 11 13 14 16 16 16 20 21 23 24 24 24 24 24 25 26 28 28 27 27 28 29 30 32 35 38 42 45 49 49 49 48 47 49 50 52 52 48 43 42 43 44 46 48 49 49 47 42 40 37 34 34 34 35 36 35 33 31 31 29 29 29 29 29 29 29 29 29 30 32 33 34 34 34 32 32 30 31 32 33 33 35 35 37 39 39 40 40 42 41 40 39 40 42 42 41 41 41 41 41 41 42 44 45 46 46 47 48 49 49 48 47 47 47 47 47 47 47 47 47 46 46 45 44 44 43 42 41 41 39 38 38 37 37 36 35 35 34 34 32 31 30 29 28 28 28 28 29 29 29 29 29 29 29 29 29 29 29 29 28 28 31 33 34 35 35 38 38 36 34 33 33 32 32 32 32 32 32 31 31 30 30 30 30 30 30 30 31 32 32 34 34 34 34 34 33 33 34 34 34 31 29 29 29 29 28 28 29 29 29 29 29 29 29 29 32 32 32 32 30 30 30 30 32 31 31 31 31 31 31 31 32 32 33 32 32 31 31 32 33 34 37 37 37 36 34 32 31 29 28 28 28 28 29 29 29 29 29 29 29 29 29 29 30 30 29 29 29 31 32 32 32 31 31 32 34 34 34 33 32 32 32 32 32 32 32 32 32 32 32 32 32 32 31 30 30 30 32 32 34 34 34 33 33 33 33 33 33 33 33 33 33 32 32 32 32 33 33 34 34 34 35 35 33 32 32 32 31 32 32 32 34 34 34 33 32 33 33 34 35 36 36 36 35 35 34 34 34 33 32 31 31 31 31 31 33 33 34 35 35 35 35 33 32 31 30 30 30 31 33 33 34 34 34 35 35 35 36 36 35 35 34 33 33 33 33 33 32 32 30 28 26 26 28 29 29 30 31 31 33 33 33 33 33 32 32 32 32 32 33 33 33 33 34 34 34 35 35 34 34 34 33 32 30 30 29 29 29 30 30 31 31 31 31 31 31 31 32 31 31 31 31 30 29 28 27 27 27 27 28 30 30 32 32 34 34 34 32 32 31 32 34 34 33 32 32 32 33 33 33 33 33 33 34 34 34 34 34 34 32 32 32 32 32 32 32 33 33 33 33 35 36 38 39 40 40 37 37 37 36 35 33 32 31 31 31 31 31 31 31 32 32 32 32 31 30 31 34 36 37 37 36 36 38 40 42 42 41 41 40 40 40 40 40 41 42 40 37 36 37 38 39 40 40 41 43 44 45 45 43 42 40 39 39 37 37 36 34 33 33 33 34 34 34 38 40 39 38 37 37 37 36 36 36 35 34 34 34 35 36 37 37 36 36 37 37 37 37 39 41 42 43 44 45 47 47 47 48
6 6 6 5 5 4 4 4 4 4 4 4 4 5 5 5 5 5 7 7 5 5 4 4 3 3 3 3 3 3 2 2 3 3 2 2 2 2 2 3 3 3 4 4 5 5 5 6 6 6 6 6 6 6 6 6 7 7 7 8 8 8 8 8 9 9 9 9 8 8 8 9 9 10 11 12 12 12 11 11 10 8 8 6 5 4 4 4 5 5 6 6 5 7 7 7 7 6 6 6 7 8 11 12 13 15 15 15 15 15 15 15 17 17 18 19 19 20 20 21 21 21 22 22 22 22 22 21 20 20 20 20 21 21 21 21 20 20 20 20 20 20 20 20 21 21 22 22 22 22 22 22 22 22 22 22 24 25 23 23 22 21 21 21 21 21 22 22 22 22 22 22 22 20 20 18 18 17 17 17 16 15 12 9 9 11 13 15 15 16 16 15 14 14 14 13 13 12 11 11 10 10 10 10 10 10 12 13 14 15 15 16 15 14 13 13 15 15 15 15 15 14 14 14 13 13 13 13 13 14 14 14 14 13 13 14 15 15 15 15 16 16 16 16 16 16 16 16 17 17 17 17 17 17 17 17 17 17 17 17 17 17 17 17 17 17 17 18 19 20 22 23 23 23 25 27 28 28 26 25 24 23 21 21 21 21 21 22 22 23 24 25 26 27 28 30 33 34 34 33 33 32 32 30 30 29 28 28 28 30 30 29 28 28 28 28 28 28 28 28 28 26 26 24 24 24 22 22 21 21 20 20 20 20 20 20 20 20 20 20 21 21 21 20 20 18 18 17 16 14 11 11 14 15 16 16 16 20 21 23 24 24 24 24 24 25 26 28 28 28 28 29 30 31 33 36 39 43 45 49 49 49 47 47 48 50 51 51 47 42 41 42 42 44 46 47 47 46 42 38 37 34 32 32 33 34 34 33 32 32 30 30 30 28 28 28 28 28 30 31 33 33 33 33 33 32 31 29 29 31 33 33 34 34 36 38 39 41 41 42 41 40 40 41 43 43 42 42 42 42 42 42 44 45 46 46 47 48 48 49 49 47 47 47 47 47 46 46 47 46 46 46 45 44 44 43 42 42 41 40 39 38 37 37 37 36 35 35 34 33 31 31 30 28 28 27 27 28 29 29 29 29 29 29 29 29 29 28 28 29 29 31 32 33 34 35 36 38 38 36 33 32 32 31 31 31 31 31 31 31 31 29 29 29 30 30 30 31 31 32 32 34 34 34 35 35 34 34 34 34 34 32 30 29 29 29 28 28 29 29 29 29 29 29 29 29 32 32 32 31 30 30 30 30 31 31 31 32 32 32 31 31 32 32 32 32 32 31 31 31 33 34 36 36 36 36 34 32 31 29 28 28 28 28 29 29 29 29 29 29 29 29 29 29 30 30 29 29 30 32 33 32 32 31 31 31 33 33 33 32 32 32 32 33 32 32 32 32 32 32 32 32 32 31 31 30 30 30 32 32 34 34 34 33 33 33 33 32 32 32 32 32 32 32 32 32 32 33 33 34 34 34 35 35 33 32 32 31 31 32 32 32 34 34 34 33 32 33 33 34 35 36 36 36 35 35 34 34 34 33 31 31 31 31 31 32 33 33 34 35 35 35 35 33 31 31 30 30 31 32 33 34 34 35 35 35 36 36 36 36 36 36 34 33 33 33 33 33 32 32 30 27 26 26 27 29 29 31 32 32 32 32 33 33 33 32 32 32 32 32 33 33 34 34 34 34 34 35 35 34 34 33 32 31 30 30 29 29 29 30 30 31 31 31 31 31 31 31 32 31 31 31 31 29 28 28 27 27 27 27 28 30 30 32 32 34 34 34 32 32 31 32 34 34 34 32 32 32 32 32 31 31 32 32 33 33 33 33 33 33 32 32 32 32 32 32 32 33 33 33 33 34 34 35 37 39 39 37 37 36 35 34 33 31 31 31 31 31 31 31 31 32 32 33 32 31 30 33 34 35 37 36 35 35 36 38 40 41 41 41 41 41 41 41 41 42 42 41 39 37 39 39 40 40 40 42 45 46 46 46 43 43 41 40 39 37 36 35 33 33 33 33 34 34 35 38 39 39 38 37 37 37 35 35 36 36 35 33 33 33 34 36 36 35 35 36 37 37 37 39 41 43 44 45 46 47 48 48 49
6 6 6 5 5 4 4 4 4 4 4 4 4 5 5 5 5 5 6 6 5 5 4 3 3 3 3 3 3 3 2 2 3 3 3 3 3 3 3 3 3 3 4 4 5 5 5 6 6 6 6 6 6 6 6 6 7 7 7 8 8 8 8 8 9 9 9 9 9 9 9 9 9 10 11 13 13 13 12 11 11 8 6 5 5 4 4 4 5 5 6 6 6 6 6 7 7 6 6 6 7 8 11 12 14 15 15 15 14 14 15 15 16 17 18 19 19 20 20 21 21 21 22 22 22 22 22 21 21 20 20 20 21 21 21 21 20 20 20 20 20 20 20 20 21 21 22 22 22 22 22 23 23 23 23 23 24 25 23 23 23 22 22 22 22 22 22 22 22 22 22 21 21 20 19 18 18 17 18 18 17 15 12 9 9 12 14 16 17 17 17 16 15 15 14 13 13 12 11 11 10 10 10 10 10 10 11 13 13 14 14 15 15 14 13 13 15 15 15 15 15 14 14 14 13 13 13 13 13 13 13 13 13 13 13 14 15 15 15 15 15 16 16 16 16 16 17 17 18 18 17 17 17 17 17 17 17 17 17 17 17 18 18 17 17 17 17 17 17 18 21 23 24 24 26 28 28 27 25 24 23 23 22 21 21 22 22 22 23 24 25 25 26 27 29 31 33 33 31 31 30 29 29 28 28 27 27 28 30 31 31 29 28 28 28 28 28 28 28 28 28 27 26 24 24 23 22 21 21 20 19 19 19 20 20 20 20 20 20 20 20 20 20 19 19 18 18 17 15 13 12 12 14 15 16 16 16 20 21 22 24 24 24 24 25 25 26 28 28 29 30 31 31 32 33 36 40 43 45 49 49 49 46 45 47 49 50 50 47 42 41 40 41 42 43 45 45 43 41 38 36 33 31 30 31 32 33 33 32 32 30 30 30 28 28 27 27 28 30 32 34 34 32 32 32 31 30 28 28 30 32 33 34 34 36 38 39 40 40 41 41 41 41 41 43 43 43 43 43 43 43 44 46 47 47 48 48 49 49 49 48 47 47 47 46 46 45 45 45 45 45 44 43 42 42 41 41 40 40 39 38 38 37 36 36 35 35 35 34 33 31 30 30 28 28 27 27 28 29 29 29 29 29 29 29 29 29 28 28 29 31 33 33 34 35 36 37 39 39 36 32 31 31 30 30 30 30 30 29 29 30 29 29 29 31 31 31 32 32 32 32 34 34 35 35 35 34 34 34 33 33 32 31 29 29 29 29 29 29 29 29 29 29 29 29 29 30 31 31 31 30 30 30 30 31 32 32 34 34 33 32 32 33 32 32 31 31 30 30 31 34 34 34 34 35 35 34 32 31 29 28 28 28 28 29 29 29 29 29 29 29 29 29 29 31 31 31 31 31 33 33 32 32 31 31 31 32 33 33 32 32 32 32 33 33 32 31 31 30 30 30 30 30 30 30 30 30 30 32 32 33 33 34 33 33 32 32 32 31 31 31 31 32 32 32 32 32 33 33 34 34 34 35 35 33 32 32 31 31 32 33 33 34 34 34 34 34 34 34 35 35 36 36 36 35 35 35 35 35 32 31 31 31 31 32 32 33 33 35 35 35 35 35 33 30 30 31 31 31 32 33 35 35 35 35 36 36 37 37 38 36 36 35 33 33 33 33 32 31 31 29 26 24 25 27 28 29 31 32 33 32 32 32 32 33 32 32 32 32 33 33 33 34 34 34 34 34 34 34 34 33 32 31 31 30 30 29 29 29 30 30 31 31 31 31 31 31 31 32 31 31 31 31 29 28 28 27 27 27 27 28 30 30 32 32 33 34 34 32 32 31 32 33 34 34 32 31 31 31 30 30 30 31 31 32 32 32 32 32 32 32 31 31 31 31 32 32 33 33 32 32 32 32 33 36 38 38 37 36 35 34 33 32 31 30 30 30 30 30 31 31 31 32 31 31 32 32 33 34 35 36 36 35 35 36 37 39 41 41 41 41 41 41 41 42 43 43 42 40 39 40 41 40 39 39 44 48 48 48 46 44 43 42 40 40 37 36 34 32 32 33 33 35 35 35 38 38 38 38 37 36 35 35 34 35 36 35 32 31 31 32 32 32 33 34 35 36 36 37 40 41 43 44 45 47 47 48 48 50
6 6 6 5 5 4 4 4 4 4 4 4 4 4 4 4 4 4 4 4 4 4 3 2 2 3 3 3 3 3 2 2 3 3 3 3 3 3 3 3 3 3 4 4 5 5 5 6 6 6 6 6 6 6 6 6 7 7 7 8 8 8 8 8 8 8 10 10 10 10 10 9 9 11 11 13 14 14 12 12 9 7 6 5 5 5 5 5 6 6 6 6 6 6 6 7 7 6 7 7 7 8 11 13 14 15 15 14 14 14 15 15 16 16 17 18 18 20 20 21 21 21 22 22 23 23 23 21 21 21 21 21 21 21 22 22 20 20 20 19 19 19 19 20 21 21 21 21 21 21 21 24 24 24 24 24 25 25 24 24 24 23 23 23 23 22 22 22 22 22 21 21 21 19 19 18 18 18 18 18 17 15 12 10 10 13 15 17 18 18 17 17 15 15 14 13 13 12 11 11 11 10 10 10 10 10 11 12 12 13 13 15 15 14 13 13 16 16 15 14 14 13 13 13 12 12 13 13 13 13 13 13 13 14 14 14 14 14 15 15 15 16 16 16 16 17 17 17 18 18 18 18 18 17 17 17 17 17 17 17 18 18 18 17 17 17 17 17 17 17 19 22 23 24 25 27 28 26 25 24 24 24 24 24 23 23 23 23 23 25 25 26 26 27 29 31 32 32 31 30 29 28 27 27 27 27 26 28 31 32 32 29 29 28 28 27 27 27 28 28 29 27 26 24 24 22 21 21 20 20 19 19 19 20 20 21 21 20 20 20 20 20 19 19 19 18 18 16 15 13 11 11 15 15 16 16 16 19 20 22 24 24 24 25 25 25 27 29 30 31 32 33 32 33 34 36 40 43 45 47 49 47 44 43 45 48 49 49 46 42 40 40 40 40 41 42 43 42 40 37 35 33 29 28 29 31 32 32 33 33 30 30 30 28 28 27 27 27 31 32 34 34 32 32 32 30 30 27 27 28 31 32 33 34 35 36 38 40 40 41 41 41 41 41 42 42 43 43 43 44 44 45 47 48 48 48 49 49 49 48 48 47 47 47 46 46 45 45 45 45 45 43 43 42 42 41 40 40 39 38 38 37 37 36 36 35 35 35 34 32 29 29 29 28 28 27 27 28 29 29 29 29 29 29 29 29 29 29 29 31 33 34 34 34 35 36 37 39 39 36 32 31 30 29 29 29 29 29 29 29 29 30 30 30 31 31 32 32 32 31 31 33 34 35 35 35 34 34 33 33 33 32 32 30 29 29 29 29 29 29 29 29 29 28 28 28 28 30 31 31 30 30 30 31 31 32 32 34 35 35 33 33 33 32 32 30 30 30 30 31 33 33 33 33 34 35 35 32 31 29 29 29 29 29 28 28 29 29 29 29 29 29 29 29 30 31 32 32 32 33 34 33 32 31 31 31 32 32 33 33 33 33 33 33 33 33 31 31 30 30 30 30 30 30 30 30 30 31 32 32 33 33 34 33 33 33 32 32 31 31 31 31 32 32 32 32 32 33 33 34 34 34 34 34 33 32 32 31 31 32 34 34 34 34 35 35 35 35 35 35 35 36 36 36 35 35 35 35 35 32 31 31 31 31 32 32 33 34 36 36 36 35 35 33 30 29 30 30 31 32 34 35 35 35 35 35 37 38 38 38 36 36 35 33 33 33 33 32 31 31 28 26 24 25 26 28 28 31 32 33 32 32 32 32 33 33 33 33 33 34 34 34 34 34 34 34 34 34 34 33 33 31 31 31 30 30 30 30 30 30 30 31 31 31 31 31 31 31 32 32 32 32 31 30 29 28 27 27 27 27 28 30 30 33 33 33 33 33 33 33 32 32 32 33 33 32 31 31 30 30 30 30 31 31 31 31 31 31 31 31 31 31 31 31 31 31 32 33 33 32 32 32 31 31 34 36 37 37 36 35 34 33 31 31 30 30 30 30 30 30 30 31 31 31 31 33 34 34 35 35 35 35 34 34 35 36 38 40 41 41 41 41 41 41 43 44 44 43 42 41 42 42 40 39 40 45 49 49 48 47 44 43 42 40 39 37 36 33 32 32 33 34 35 36 37 39 39 38 38 36 35 34 34 34 35 37 37 33 30 28 28 28 28 30 33 34 35 36 36 39 41 42 43 45 47 47 48 49 51
6 6 6 6 6 4 4 4 4 4 4 4 4 4 4 4 4 4 4 4 3 3 2 2 2 3 3 3 3 3 2 2 2 2 3 3 3 2 2 3 4 4 4 4 5 5 5 6 6 6 6 6 6 6 7 7 7 7 7 7 7 8 8 8 8 8 10 11 12 12 12 11 10 11 12 13 15 15 12 11 8 6 6 5 5 6 6 6 6 6 6 6 7 7 7 7 7 7 7 7 8 9 11 13 13 14 14 14 14 14 14 14 16 16 17 18 18 20 20 21 21 21 22 22 22 22 22 21 21 21 21 21 21 21 21 21 20 20 20 19 19 19 19 19 20 20 21 21 21 21 21 24 24 24 24 24 25 25 24 24 23 23 23 22 22 21 21 21 21 21 21 20 20 19 19 18 18 17 16 16 15 13 12 10 11 14 15 18 20 19 18 17 16 16 14 13 13 12 11 12 12 12 12 13 12 11 11 12 12 12 13 15 15 14 13 13 15 15 14 13 13 13 13 13 12 12 12 12 13 13 13 13 13 14 14 14 15 15 15 15 16 16 16 16 16 18 18 19 19 19 19 19 19 19 19 19 18 19 18 19 19 19 17 17 17 17 17 17 17 17 17 19 21 22 23 25 26 26 25 24 25 26 26 26 25 24 23 23 23 25 25 26 26 27 28 30 30 30 29 28 28 27 27 26 26 26 26 27 29 31 30 28 27 27 27 27 27 27 28 28 29 28 27 25 24 23 21 21 20 20 19 19 20 20 20 21 21 21 21 20 20 20 19 19 19 18 18 16 15 13 10 11 14 15 16 16 16 19 20 22 24 25 25 26 26 26 28 30 32 34 35 35 33 33 35 36 40 44 45 46 46 45 42 41 44 47 48 47 45 42 40 39 38 38 39 40 40 40 38 35 33 31 28 27 28 29 30 31 32 32 31 31 30 29 28 28 27 27 30 32 33 33 32 32 32 31 30 26 26 27 30 31 32 33 34 36 37 39 40 41 41 41 42 42 42 42 42 43 43 44 44 46 46 47 47 47 48 49 49 48 48 48 48 47 47 46 45 45 45 45 45 43 43 42 42 41 40 40 38 38 37 37 36 35 35 35 34 33 32 30 29 29 29 28 28 28 28 28 29 29 30 29 29 29 29 29 29 30 32 33 34 34 35 35 36 37 37 39 39 36 31 31 29 29 29 29 29 29 29 29 29 30 30 30 31 31 32 33 33 31 31 32 33 33 33 33 33 33 32 32 32 32 31 30 30 30 30 30 30 30 30 29 29 28 28 28 28 30 31 31 31 31 31 31 31 32 33 35 36 36 34 34 33 32 31 30 29 29 29 30 32 32 31 32 33 33 33 32 31 30 29 29 29 29 29 29 29 29 29 29 29 29 29 29 30 31 31 32 32 33 34 33 31 30 30 30 32 32 33 33 33 33 33 33 33 33 31 31 30 30 30 30 30 30 30 30 30 32 32 32 33 33 34 34 34 33 33 32 31 31 31 31 32 32 32 33 33 34 34 34 34 34 33 33 32 32 32 31 31 32 34 34 34 34 35 35 35 35 35 35 35 36 36 36 35 35 35 35 35 33 32 31 31 31 32 33 34 34 35 35 35 34 34 32 29 29 30 30 31 33 34 35 34 34 34 34 36 37 37 37 36 35 35 33 33 32 32 32 31 31 28 26 25 25 26 28 28 31 32 33 32 32 32 32 32 33 33 34 34 34 34 34 34 34 34 34 33 33 33 33 33 31 31 31 30 30 30 30 30 30 30 31 31 31 31 31 31 31 32 33 33 32 32 30 29 28 28 28 28 28 28 30 30 33 33 32 32 33 33 33 31 31 31 32 33 32 31 30 29 29 29 29 30 30 30 31 31 30 30 31 31 31 31 31 31 31 32 34 34 32 31 31 30 30 32 35 35 35 35 34 33 32 31 31 30 30 30 30 30 30 30 31 31 31 31 32 34 34 35 35 36 35 34 34 35 35 38 39 40 40 41 42 42 42 44 45 44 44 42 42 44 44 42 40 41 46 49 48 47 46 44 44 42 40 38 37 36 33 32 32 34 35 37 38 39 41 41 39 38 36 34 32 32 32 35 37 38 33 27 28 28 28 28 28 29 32 33 35 36 38 39 40 41 44 46 47 48 49 51
4 4 4 4 5 4 4 4 4 4 3 3 3 3 3 3 3 3 3 3 3 3 3 2 2 3 3 3 3 3 3 3 2 2 3 3 3 2 2 3 4 4 5 5 5 5 5 6 6 6 6 6 6 6 7 7 7 7 6 7 7 8 8 8 8 8 10 11 13 14 14 13 12 12 12 14 15 15 13 11 8 5 5 6 6 6 6 6 7 7 7 7 7 8 8 8 8 8 8 8 9 10 12 13 13 14 14 14 14 14 14 14 15 15 16 18 18 20 20 21 21 21 22 22 22 22 21 21 21 21 21 21 21 21 20 20 20 20 20 19 19 19 19 19 20 20 21 21 21 21 21 23 23 23 23 24 24 24 24 23 22 22 22 21 21 21 20 20 20 20 20 20 20 19 19 18 18 16 15 14 13 12 11 11 11 14 15 19 20 20 19 18 16 16 14 13 13 12 12 13 13 13 14 14 13 11 11 12 12 12 12 15 15 15 14 14 15 14 13 13 13 13 13 13 12 12 12 12 13 13 13 12 13 14 14 15 16 16 16 17 17 17 17 17 17 18 18 20 20 20 20 20 20 20 20 19 19 20 19 19 19 19 17 16 16 16 16 16 16 16 16 17 19 20 22 23 24 25 25 26 28 30 30 29 28 26 24 23 23 24 24 26 27 27 27 28 29 28 28 27 27 27 27 26 25 25 25 26 28 29 29 27 27 26 26 26 27 27 28 28 29 28 28 26 25 23 22 21 20 20 20 20 20 21 21 22 22 22 21 20 20 20 19 19 19 18 18 16 15 12 9 10 14 15 16 17 17 19 19 22 25 26 26 26 27 27 28 32 35 37 37 36 34 34 35 36 41 44 44 44 43 42 39 40 41 44 46 46 44 42 40 38 38 37 37 38 39 38 36 34 32 30 27 27 27 28 28 29 30 31 32 32 31 30 29 28 28 28 30 31 32 33 32 32 32 31 30 26 26 26 28 29 30 32 33 34 37 39 39 41 42 42 42 42 42 42 42 43 43 44 44 45 46 46 47 47 47 48 48 49 49 48 48 48 47 47 46 46 45 45 45 44 44 42 42 41 40 40 39 38 37 36 35 35 35 34 33 31 29 29 29 29 29 29 29 29 29 29 29 29 30 29 29 29 29 30 30 31 32 33 34 35 36 36 36 37 37 38 38 36 32 31 29 29 29 29 29 29 29 29 29 30 30 30 31 31 32 32 32 31 31 32 32 32 32 32 32 32 31 31 31 31 31 30 30 30 31 31 31 31 31 29 29 29 29 29 29 30 31 31 31 31 31 31 31 32 33 36 37 37 35 34 33 31 30 29 29 29 29 29 30 30 30 30 31 32 32 32 31 31 31 30 30 30 30 30 29 29 29 29 29 29 29 29 29 29 31 31 31 33 33 31 31 30 30 30 32 32 33 33 33 33 33 33 32 32 31 31 30 30 30 30 30 30 30 30 31 32 33 33 34 34 34 34 34 34 33 32 32 32 31 31 32 32 32 33 33 34 34 34 33 33 32 32 32 32 32 31 31 32 33 33 34 34 35 35 36 36 36 36 36 36 36 36 35 35 35 35 35 33 32 32 32 32 33 33 34 34 35 34 34 33 33 32 29 29 30 31 32 33 34 34 34 34 34 34 34 35 35 35 35 35 34 33 33 32 32 32 31 31 29 27 26 26 28 29 29 31 32 33 32 31 31 31 32 33 33 33 33 34 34 34 33 33 33 33 33 33 33 33 32 31 31 31 30 30 30 30 30 30 30 31 31 31 31 31 31 31 32 33 33 32 32 31 29 28 28 28 28 28 28 30 30 33 33 32 32 33 33 32 31 31 31 32 33 32 31 30 29 29 29 29 30 30 30 31 31 30 30 31 31 31 31 31 31 32 32 34 33 32 31 31 30 30 31 33 34 34 34 33 33 32 31 31 30 30 30 30 30 30 30 31 31 31 31 31 31 34 36 37 37 35 35 35 35 36 38 39 39 39 41 43 43 44 45 45 44 44 43 43 45 45 43 41 42 47 48 47 46 46 44 43 41 39 38 36 36 34 33 33 35 36 38 40 41 42 42 40 38 35 32 31 30 31 35 38 40 33 27 28 28 28 28 28 28 29 30 33 35 37 38 38 39 43 46 47 48 50 53
2 2 2 3 3 3 4 5 4 4 3 3 3 3 3 3 3 3 3 3 3 3 3 2 2 3 3 3 3 3 3 3 2 2 3 3 3 3 3 3 4 4 5 5 6 6 5 5 5 6 6 6 6 6 6 6 7 7 6 7 7 7 7 8 8 8 9 11 14 15 15 14 13 13 13 14 15 15 14 12 9 5 5 6 6 7 7 7 7 7 7 7 8 8 8 8 8 8 8 9 10 12 12 13 13 14 14 14 14 14 14 14 15 15 16 18 18 20 20 20 20 20 21 21 22 22 21 21 21 21 21 21 21 21 20 20 19 19 19 19 19 18 18 19 20 20 21 21 21 21 21 22 22 23 23 23 23 23 23 23 22 21 21 20 20 19 19 19 19 19 19 19 19 19 19 18 18 16 15 14 12 11 10 11 12 14 16 19 21 21 20 19 17 16 14 14 13 13 13 13 14 15 15 16 14 12 11 12 12 12 12 15 16 15 14 14 14 13 13 13 13 13 13 13 12 12 12 12 13 13 13 12 13 14 14 15 17 17 17 17 17 18 17 17 18 18 20 21 22 21 21 21 21 21 21 20 21 21 21 20 20 19 16 14 14 15 14 14 13 14 15 15 17 18 20 21 22 25 25 27 29 31 31 31 30 27 25 23 24 24 24 26 27 27 26 27 27 27 27 26 26 26 25 25 25 25 25 25 27 27 27 27 26 26 26 26 26 27 28 28 29 28 28 27 26 24 22 21 20 20 20 20 21 21 21 22 22 22 21 20 20 20 19 18 18 17 17 16 15 12 9 10 13 15 17 17 17 19 19 22 25 27 28 28 28 28 29 33 36 38 40 37 34 34 35 36 41 43 44 42 41 39 37 38 40 43 44 44 42 41 40 38 37 36 35 36 36 36 34 33 31 29 27 26 26 27 27 27 28 30 33 33 32 31 30 29 28 28 30 30 31 32 32 32 32 31 30 26 25 25 27 28 29 31 32 33 36 38 39 41 42 42 41 41 41 41 41 43 43 44 44 44 44 44 45 45 46 47 47 48 48 49 49 49 48 48 47 46 45 45 45 44 44 43 43 42 40 40 39 38 36 36 35 34 34 33 33 30 29 29 29 29 29 29 29 29 29 29 29 29 31 30 30 29 30 31 32 32 33 33 34 35 36 36 36 36 36 36 36 35 33 32 29 29 29 29 28 29 29 29 29 29 29 30 31 31 32 32 32 31 31 31 31 31 31 31 30 30 30 30 30 30 30 30 30 30 31 31 31 31 31 30 30 29 30 30 30 30 31 31 31 31 31 31 31 32 33 36 38 38 36 35 34 31 30 29 29 29 29 28 28 28 28 29 29 30 31 33 33 33 32 32 32 32 32 31 30 29 29 29 29 29 29 29 29 29 29 30 31 32 32 30 30 30 30 30 32 32 33 33 33 33 33 33 32 32 31 31 30 30 30 30 30 30 30 31 32 33 34 34 34 34 35 35 35 35 34 33 33 33 32 32 33 33 33 33 33 34 34 33 33 33 31 31 31 31 31 31 31 32 33 33 34 34 35 35 36 36 36 36 36 36 35 35 35 35 35 35 35 34 33 32 32 32 33 33 34 34 33 33 33 32 32 31 30 30 31 32 32 32 33 33 33 33 33 32 32 33 33 33 34 34 34 33 33 32 32 32 31 31 29 28 27 27 29 30 31 31 32 32 32 31 31 31 32 33 33 33 33 34 34 34 33 33 32 32 32 32 32 32 32 31 31 31 30 30 30 30 30 30 30 31 31 31 31 31 31 31 32 33 33 32 32 31 29 29 28 28 28 28 29 30 31 32 32 31 31 31 31 31 30 30 30 31 32 32 31 30 29 29 29 29 30 30 30 31 31 31 31 31 31 31 31 31 31 32 33 34 33 32 31 31 30 30 31 31 32 32 32 32 31 31 32 32 31 31 30 30 30 30 30 31 31 31 31 31 31 31 36 38 37 35 35 35 36 37 38 39 38 38 41 44 45 46 46 46 44 44 43 44 46 46 44 42 43 47 48 46 45 45 43 42 40 39 38 36 35 34 34 34 35 37 39 41 43 43 43 40 38 35 31 30 30 31 34 38 40 33 27 28 28 28 28 28 28 28 28 31 34 36 36 36 38 42 45 46 48 50 52
2 2 2 3 3 3 3 3 3 3 3 3 3 3 3 3 3 3 3 3 3 3 3 3 3 3 3 3 3 3 2 2 2 2 3 3 3 3 3 4 5 5 5 5 5 5 6 5 5 6 6 6 6 6 6 6 6 6 6 7 7 7 7 7 8 8 8 9 12 14 15 14 14 14 14 14 15 15 14 12 10 6 5 7 7 7 7 7 8 8 8 8 8 9 9 9 9 9 9 9 11 12 13 14 14 14 14 14 14 14 13 13 15 16 17 18 19 20 20 20 20 20 21 21 22 22 21 21 21 21 21 21 21 21 20 20 19 19 19 18 18 18 18 18 20 20 21 21 21 21 21 22 22 23 23 22 23 23 23 22 22 21 21 20 20 19 19 19 19 19 18 18 18 19 18 18 18 16 15 14 11 11 10 11 12 14 16 19 21 21 20 19 18 17 16 15 14 14 14 14 15 15 16 16 15 13 12 12 12 12 12 15 16 16 14 14 13 13 13 13 13 13 13 13 12 12 12 12 14 14 13 13 13 14 14 15 18 18 18 18 18 18 18 18 19 19 21 22 22 22 22 21 21 21 21 21 21 21 21 20 20 19 16 14 14 14 14 13 13 13 15 15 17 17 20 21 21 24 25 27 29 31 31 31 30 28 26 25 25 26 25 26 27 27 26 26 27 27 27 26 26 25 25 25 24 24 24 24 26 27 27 26 26 26 26 26 26 26 28 28 28 28 28 27 27 24 22 21 20 20 21 21 21 21 21 21 21 22 21 20 19 19 18 17 17 16 16 15 15 12 9 9 13 15 17 17 17 19 19 23 26 27 29 29 29 29 30 34 36 39 40 39 36 35 35 36 40 42 43 41 40 38 37 37 39 41 42 42 41 39 38 37 36 35 34 35 35 34 32 31 30 28 26 26 26 27 27 27 28 30 33 33 33 31 31 29 29 29 29 29 30 31 32 31 31 31 29 26 25 25 25 27 28 30 31 33 36 38 39 41 42 42 41 41 41 41 41 43 43 44 44 44 44 44 44 44 45 47 47 47 48 48 48 49 49 49 47 47 45 45 45 44 44 43 42 42 40 40 38 38 36 35 35 34 34 33 31 29 29 29 29 29 29 29 29 29 29 29 29 29 31 31 30 30 31 32 32 33 33 33 33 34 36 36 36 36 35 35 35 35 33 32 29 28 28 28 28 29 29 29 29 29 29 30 31 31 32 32 32 31 31 30 30 30 30 30 30 30 30 30 30 30 30 30 30 30 31 31 31 31 31 31 31 30 30 30 30 30 31 31 31 31 31 31 31 33 33 36 38 38 36 35 34 31 30 29 29 29 29 28 28 28 28 28 28 30 31 32 33 33 33 33 33 33 32 32 30 29 29 29 29 29 30 30 29 29 29 30 30 32 32 30 30 30 30 30 33 33 33 33 33 33 33 33 33 33 31 31 31 31 30 30 30 30 30 31 33 33 34 34 34 34 35 35 35 35 34 34 34 34 33 33 33 33 33 33 33 33 33 33 32 32 31 31 31 31 31 32 32 32 33 33 34 34 35 35 36 36 36 36 36 36 35 35 35 35 35 35 35 34 33 33 33 33 33 33 33 33 33 32 32 32 32 31 30 30 31 32 32 32 32 33 33 32 32 32 32 32 33 33 33 33 34 33 33 32 32 32 32 32 29 29 28 28 29 31 31 32 32 32 31 31 31 31 31 33 33 33 33 34 34 34 33 33 32 32 32 32 32 32 32 31 31 31 31 31 31 31 31 31 31 31 31 32 31 31 30 30 31 32 32 31 31 30 29 29 29 29 29 29 30 31 31 32 32 31 31 31 31 31 29 29 29 31 32 32 31 30 29 29 29 29 30 31 31 31 31 31 32 32 31 31 31 31 31 32 33 34 33 32 32 32 31 31 30 30 30 30 31 31 31 31 32 32 31 31 31 30 30 31 31 32 33 33 32 31 30 30 32 38 37 35 35 36 37 37 39 39 38 38 42 45 45 47 47 46 44 44 44 45 47 47 45 43 44 48 48 45 44 44 43 41 40 38 37 35 35 35 35 35 36 38 40 42 43 43 42 41 40 38 35 31 30 30 34 38 39 33 27 28 28 28 28 28 28 28 28 28 31 34 35 36 37 41 45 46 48 49 50
3 3 3 3 3 3 3 3 3 3 3 3 3 3 3 3 3 3 3 3 3 3 3 3 3 3 3 3 3 3 2 2 2 2 3 3 3 3 3 5 5 5 5 5 5 5 6 6 6 6 6 6 6 6 6 6 6 6 6 6 6 7 7 7 8 8 8 8 10 13 14 15 15 13 13 14 15 15 13 12 10 8 7 7 8 8 8 8 8 8 8 8 8 10 10 10 10 10 10 10 11 13 14 15 15 15 15 15 14 14 14 14 15 17 18 19 20 20 20 19 19 19 20 21 21 21 21 21 21 21 21 21 21 21 20 20 19 19 19 18 18 18 18 18 19 19 21 21 21 21 21 22 22 22 22 21 22 22 22 21 21 21 21 20 20 19 18 18 19 19 18 18 18 18 17 17 17 16 15 14 13 11 10 11 12 14 16 18 20 21 20 20 20 19 18 16 15 14 14 14 15 15 16 16 15 13 12 12 12 12 12 14 15 15 13 13 13 13 12 13 13 13 13 13 12 12 12 12 15 14 13 14 14 15 15 15 17 17 18 18 18 19 19 19 21 21 22 23 24 24 23 22 21 22 22 21 20 20 19 18 18 17 15 15 14 14 14 13 13 13 15 15 17 17 20 21 21 24 25 26 28 29 29 30 30 29 27 27 27 28 27 26 27 27 26 26 27 27 27 25 25 25 25 24 24 24 24 24 25 26 26 26 26 26 26 26 25 26 27 26 27 27 27 27 27 25 23 22 21 21 21 21 21 20 19 20 20 20 20 19 18 18 17 17 17 16 15 14 14 13 10 10 13 15 18 19 18 19 19 23 26 28 30 30 30 31 31 34 36 39 40 39 37 36 36 36 39 40 40 39 38 37 36 36 37 38 39 39 38 37 35 35 34 33 33 33 33 32 31 30 29 27 26 26 26 27 27 27 27 29 31 32 32 31 31 30 30 29 29 29 29 30 30 29 29 29 27 25 25 25 25 26 28 29 31 33 35 37 38 40 41 41 41 41 41 41 41 43 43 44 44 44 44 44 44 44 45 46 46 47 47 48 48 48 49 49 47 47 45 44 44 43 43 42 41 40 40 40 38 38 36 34 34 33 33 32 30 29 29 29 29 29 29 29 29 29 29 29 29 30 32 32 32 32 32 33 33 32 32 31 33 34 35 35 36 35 33 34 34 33 32 31 29 28 28 28 28 29 29 29 29 30 30 30 31 31 31 31 31 30 30 29 29 29 30 30 30 30 30 30 30 30 30 30 30 30 30 30 30 30 30 30 30 30 30 30 30 30 30 30 31 31 31 31 32 33 33 35 37 37 35 35 34 32 30 29 29 29 29 28 28 28 28 28 28 30 31 32 33 33 32 32 32 32 31 31 29 28 28 28 28 29 30 30 29 29 29 29 30 31 31 30 30 31 31 31 33 33 33 33 33 33 33 33 33 33 31 31 30 30 30 30 30 30 30 32 33 33 34 34 35 35 35 35 35 35 34 34 34 34 34 34 34 34 34 34 34 33 33 32 32 32 31 31 31 31 32 32 32 32 33 33 34 34 35 35 36 36 36 35 35 35 35 35 35 35 34 34 34 34 33 32 32 32 33 33 33 32 30 31 30 30 30 29 29 29 31 31 31 30 31 32 32 32 32 32 32 32 33 33 33 33 34 33 33 32 32 32 31 31 29 28 28 28 29 31 31 32 32 32 31 31 31 31 32 33 33 33 33 34 34 34 33 33 33 32 32 32 32 32 32 32 32 32 32 32 32 31 31 31 31 31 31 32 31 31 30 30 31 32 32 31 31 30 30 29 29 29 30 30 32 32 32 32 31 30 30 30 30 30 29 29 29 30 31 31 31 31 29 29 29 29 30 31 31 32 32 32 32 33 31 31 31 31 31 32 33 33 31 31 30 30 30 30 30 30 29 30 30 30 30 31 32 32 32 31 31 31 31 31 31 33 33 34 34 33 31 30 32 38 37 34 34 34 35 36 38 38 38 39 42 45 45 47 46 45 44 44 44 45 47 47 46 44 45 47 47 44 42 42 42 40 39 38 37 34 34 34 34 35 37 39 41 42 42 41 41 42 42 42 39 34 31 31 33 36 37 32 28 28 28 28 28 28 28 28 28 28 28 33 33 35 38 41 44 46 47 48 49
3 3 3 3 3 3 3 3 3 3 3 3 3 3 3 3 3 3 2 2 3 3 3 3 3 3 3 3 3 3 2 2 3 3 3 3 3 3 4 5 6 6 6 6 6 6 6 6 6 5 5 6 6 6 6 6 6 6 6 5 5 7 7 7 7 7 8 8 8 11 12 14 14 14 15 17 17 17 15 12 11 8 8 8 8 9 9 9 9 9 9 9 9 11 11 11 11 10 10 10 12 13 15 15 15 16 16 15 15 15 15 15 16 18 19 20 21 20 19 19 19 19 19 20 21 21 21 22 22 22 22 22 21 21 21 21 20 20 19 18 18 18 18 18 19 19 21 21 22 22 22 22 22 22 22 21 21 21 21 21 21 21 21 19 19 18 18 18 19 19 18 18 18 17 17 17 17 16 15 15 13 11 10 11 12 14 16 18 19 20 21 21 21 20 19 17 16 15 15 15 16 16 17 17 15 14 13 13 13 13 13 14 15 14 13 13 13 13 12 13 13 13 13 13 13 13 12 13 15 14 14 15 15 16 16 16 17 17 19 19 19 20 20 20 21 22 23 23 25 25 24 22 22 22 22 20 20 19 18 17 17 17 16 15 15 15 15 13 13 13 15 15 17 17 20 21 21 24 24 26 27 27 27 29 29 29 28 29 29 30 28 27 27 27 26 26 27 27 27 25 25 24 24 24 23 23 23 23 25 26 26 26 26 25 25 25 25 25 26 26 26 27 27 27 27 26 24 23 21 21 21 21 20 19 19 19 19 20 19 19 18 18 17 16 16 15 15 13 13 12 11 11 13 16 20 20 19 19 19 23 27 30 31 31 32 32 33 34 36 38 39 39 37 37 36 36 37 38 39 38 37 36 35 35 37 37 36 37 36 34 34 34 33 32 32 32 31 31 30 30 28 27 27 26 26 28 28 27 27 28 30 31 31 32 32 31 30 29 29 29 28 29 29 28 28 27 26 25 25 25 25 25 27 28 31 33 35 37 37 39 40 40 40 40 41 41 41 43 43 44 44 44 44 44 45 45 45 46 46 46 46 47 47 48 48 48 47 47 44 44 43 42 42 41 40 39 39 39 38 37 36 34 34 33 33 31 29 29 29 29 29 29 29 29 29 29 29 29 30 30 32 32 33 33 33 33 33 31 29 30 32 33 35 35 36 33 32 32 32 32 31 30 29 28 27 28 28 29 29 29 29 30 30 31 32 32 31 30 30 30 30 29 29 29 30 30 30 30 30 30 30 30 30 30 30 30 30 30 30 30 30 30 30 30 30 30 30 30 30 30 30 30 31 32 32 33 33 34 35 36 35 34 33 32 31 30 29 29 29 28 28 28 28 28 29 31 31 32 33 32 32 32 31 31 30 29 27 28 28 28 28 29 30 30 29 29 29 29 29 31 31 31 31 31 32 32 33 33 33 33 33 33 33 33 32 32 31 31 30 30 30 30 30 30 30 32 33 33 34 34 34 34 34 35 35 34 34 34 34 34 34 34 34 34 34 34 34 33 33 32 31 31 32 32 32 32 32 33 33 33 33 33 34 34 35 35 36 35 35 35 35 35 35 35 35 35 34 34 34 33 33 32 32 32 33 33 32 30 30 30 29 29 29 28 28 29 31 31 29 29 30 31 32 32 32 32 32 32 33 33 33 33 33 33 33 32 32 32 31 31 29 27 27 28 29 31 31 32 32 32 32 32 31 31 32 33 33 34 34 34 34 34 34 34 33 33 32 32 32 32 32 33 32 32 32 32 32 32 32 32 32 31 31 31 31 31 30 30 31 31 31 30 30 30 30 30 30 30 30 30 32 32 32 31 31 30 30 30 29 29 29 29 29 30 30 31 31 31 29 29 29 29 30 30 30 31 31 32 32 32 31 31 31 31 31 32 32 32 31 30 29 29 30 30 30 30 29 30 30 29 29 30 32 33 32 32 31 31 31 31 31 32 33 33 35 35 35 35 36 38 36 33 33 33 33 34 37 38 39 41 43 45 45 46 45 45 44 44 44 44 46 48 46 45 47 48 47 43 40 39 40 38 37 37 37 34 33 33 33 35 38 39 42 42 41 39 39 42 44 46 43 37 33 32 33 34 35 31 28 28 28 28 28 28 28 31 30 28 28 30 32 35 38 41 44 45 46 47 48
3 4 4 4 4 3 3 3 3 3 3 4 4 3 3 3 3 3 2 2 3 3 3 3 3 3 3 3 3 3 2 2 2 2 3 3 3 4 5 6 6 6 6 6 6 6 6 5 5 5 5 6 6 6 6 6 5 5 6 5 5 6 6 7 7 7 8 8 8 10 11 14 15 16 17 18 18 18 15 13 10 8 8 9 9 9 9 9 9 9 9 9 10 12 11 12 12 11 11 12 13 14 15 15 15 17 17 15 15 15 15 15 17 18 20 20 20 19 18 18 17 18 19 20 21 21 22 22 22 22 22 22 22 21 21 20 19 19 19 18 18 18 18 18 18 19 21 21 23 23 23 22 22 21 21 21 20 20 20 20 20 20 20 19 18 18 17 17 18 18 17 17 16 15 15 16 16 16 15 15 13 11 9 11 13 15 16 18 18 19 21 21 22 21 20 19 17 15 15 15 16 16 17 17 15 15 13 13 13 13 13 15 15 14 13 13 13 13 13 13 13 14 14 13 12 12 13 14 15 15 14 15 15 15 15 15 16 17 19 19 19 20 20 21 21 23 24 25 25 26 25 23 22 22 22 20 20 19 18 17 16 16 16 16 16 14 14 13 13 13 15 15 17 18 20 21 22 24 25 26 27 27 27 27 28 28 28 29 29 30 29 27 27 27 26 26 27 27 27 25 25 24 24 24 22 22 22 22 24 25 25 25 25 25 24 24 24 24 24 25 25 26 26 26 26 26 24 23 22 21 21 21 19 18 18 18 19 18 19 19 17 17 16 15 15 14 14 13 12 12 11 11 13 17 22 22 20 19 19 23 28 30 32 32 33 33 34 34 35 37 38 38 38 38 37 37 37 37 37 36 35 35 35 35 35 35 34 35 34 33 32 32 31 31 31 31 30 30 29 29 28 27 27 27 27 29 28 28 28 28 28 30 31 32 32 31 31 29 28 28 28 28 28 26 26 26 26 25 25 25 25 25 27 28 30 33 34 35 36 37 38 38 39 40 40 40 41 42 43 44 44 43 43 44 44 44 45 46 46 46 46 47 47 47 48 48 47 47 44 43 43 42 42 40 39 39 38 38 37 37 36 34 34 33 32 30 29 29 29 29 28 28 29 29 29 29 29 29 30 30 31 31 33 33 33 32 30 29 29 29 31 33 35 35 35 32 31 31 31 31 30 29 28 28 27 28 28 29 29 30 30 30 31 31 32 32 31 30 30 30 30 29 29 30 30 30 30 30 30 30 30 30 30 30 30 30 30 30 30 30 30 30 30 29 29 29 30 30 30 30 30 30 31 32 33 33 33 34 34 35 34 33 33 32 32 30 29 29 29 28 28 28 28 28 30 31 31 32 32 32 31 31 31 30 29 28 27 27 27 27 27 28 30 30 29 29 29 29 29 31 31 32 32 32 32 32 33 33 33 33 33 33 33 32 32 32 31 31 30 30 30 30 30 30 30 32 32 33 33 33 33 33 34 34 34 33 33 33 33 33 33 33 33 33 33 33 33 33 32 31 31 31 32 32 32 32 33 33 33 33 33 33 34 34 35 35 35 35 34 34 34 34 34 34 34 34 33 33 33 33 32 31 31 31 32 32 31 29 28 28 27 27 27 27 27 28 29 29 28 27 29 31 32 32 32 32 32 32 33 33 33 33 33 32 32 32 31 31 30 30 28 26 26 28 29 30 30 31 31 31 32 32 32 32 33 34 34 34 34 34 34 34 33 33 33 33 33 33 33 32 32 32 31 31 31 31 31 32 32 31 31 31 31 31 30 30 30 30 31 31 30 30 29 30 30 30 30 30 30 30 31 31 31 30 30 29 29 29 29 28 28 28 28 30 30 31 31 30 29 29 29 29 29 30 30 30 30 31 31 32 31 31 31 31 31 31 31 31 30 29 29 29 29 29 29 29 29 29 29 29 29 29 32 33 32 32 31 30 30 30 30 31 31 32 35 36 37 38 38 38 36 33 32 32 32 33 36 38 40 43 44 45 45 45 44 44 43 43 43 43 45 48 47 45 48 48 45 42 39 38 39 38 36 37 37 34 33 33 33 36 39 40 42 42 40 37 38 42 46 49 46 40 35 33 33 33 33 30 28 28 28 28 28 28 30 36 36 30 28 28 29 32 38 41 44 45 46 47 48
4 4 4 4 4 4 4 4 4 5 5 5 5 4 3 3 3 3 3 3 3 3 3 3 3 3 3 3 3 3 3 3 2 2 3 3 3 4 5 5 5 5 6 6 6 6 6 5 5 6 6 6 6 6 5 5 5 5 6 6 6 6 6 6 7 7 7 7 8 9 11 14 15 17 17 18 18 18 14 11 9 8 8 8 8 9 9 9 10 10 10 10 10 13 12 13 13 13 13 13 14 15 16 16 16 16 16 15 15 15 15 15 17 18 20 20 19 17 17 17 17 17 19 19 21 21 22 23 23 22 22 22 22 22 21 20 19 19 18 18 18 18 18 18 18 19 20 21 22 22 22 21 21 21 21 20 20 20 19 19 19 20 20 18 18 17 16 16 17 17 17 17 16 15 15 15 15 15 15 14 13 11 9 11 13 15 16 18 19 20 22 22 22 22 20 19 18 16 16 16 16 16 17 17 15 14 13 12 12 13 13 15 15 14 12 12 12 12 12 13 14 15 15 14 12 12 14 15 16 15 15 15 15 14 14 14 15 16 18 18 18 19 19 21 21 24 25 26 26 26 25 23 23 22 22 20 20 19 17 17 16 16 16 16 16 14 14 13 13 14 16 16 17 18 20 22 23 25 26 27 27 27 27 27 27 27 27 28 27 27 27 27 27 27 27 27 28 27 27 25 25 24 24 23 22 22 22 22 24 24 24 24 24 24 23 23 23 23 24 24 24 25 25 26 26 25 24 24 22 21 20 20 19 17 17 18 18 18 19 19 17 17 15 15 15 14 14 12 12 12 11 13 16 20 25 25 22 20 21 24 28 30 32 32 33 34 34 35 35 37 38 38 38 38 37 37 37 36 36 35 35 35 35 35 34 34 34 34 33 31 31 31 31 31 31 31 30 30 29 29 28 27 27 27 27 29 29 28 28 28 28 29 30 32 32 31 31 29 28 28 27 27 27 26 26 26 26 26 26 26 26 26 27 27 30 32 33 34 35 36 37 37 39 39 40 40 41 42 42 44 44 43 43 43 44 44 45 45 45 46 46 46 46 47 47 47 47 46 44 43 43 42 42 39 39 39 38 38 37 37 36 34 34 33 32 29 29 29 29 29 28 28 29 29 29 29 29 29 30 31 31 31 32 32 32 30 29 29 29 29 30 32 35 35 35 32 31 30 30 30 29 28 28 28 27 27 28 29 30 31 31 31 32 32 33 33 30 30 30 30 30 29 29 30 29 29 29 29 29 29 29 29 29 29 29 29 29 29 29 29 29 29 29 29 29 29 30 30 30 30 30 30 31 33 33 34 34 34 34 34 33 33 33 32 32 30 29 28 28 28 28 28 28 28 30 31 31 31 31 31 30 30 30 30 28 28 27 27 27 27 27 28 30 30 29 29 29 29 29 31 31 32 32 32 32 32 32 32 32 32 32 33 33 32 31 31 30 30 29 29 29 29 29 30 30 32 32 32 32 32 32 32 33 33 33 33 32 32 32 32 33 33 32 32 32 31 32 31 31 30 30 30 32 32 32 33 33 33 33 32 32 33 34 34 35 35 35 34 34 33 33 33 33 33 33 33 33 33 33 32 32 31 31 31 32 32 30 28 27 27 27 27 27 26 27 28 28 28 27 27 28 31 31 31 31 31 31 31 32 32 32 32 32 32 32 31 31 31 30 30 28 26 26 27 28 30 30 31 31 31 31 31 32 32 33 33 33 33 33 33 33 33 32 32 32 32 32 32 32 31 31 31 31 30 30 30 31 32 32 31 31 31 31 31 30 30 30 30 30 30 30 29 29 29 29 29 29 29 29 29 30 30 30 30 30 29 29 29 28 28 28 28 28 30 30 31 31 30 29 29 29 29 29 29 29 29 29 31 31 31 31 31 30 30 30 30 30 30 30 29 29 29 29 29 29 29 29 29 29 29 29 29 32 34 34 33 31 30 30 30 30 30 30 32 35 37 38 39 38 37 35 33 32 32 32 33 36 38 41 43 44 45 45 44 43 43 43 43 42 42 44 48 47 46 48 48 45 42 38 37 38 38 36 37 37 34 33 33 34 36 40 40 41 41 39 37 38 42 47 50 48 42 37 34 33 33 33 29 28 28 28 28 28 28 31 37 37 35 29 28 28 33 38 42 45 48 49 50 51
4 5 5 5 5 5 5 5 5 6 6 6 6 4 3 3 3 2 2 2 3 3 3 2 2 3 3 3 3 3 3 3 3 3 3 3 3 4 4 5 5 5 5 5 5 5 5 5 5 6 6 6 5 5 5 5 5 5 6 6 6 6 6 6 7 7 7 7 8 8 10 13 15 16 17 18 18 17 13 10 8 8 8 8 8 8 9 9 11 11 11 11 11 13 13 14 14 14 14 14 15 15 16 16 16 16 16 16 16 15 15 15 17 18 19 19 18 16 16 17 17 17 19 19 21 21 22 23 23 23 23 22 22 22 20 20 18 18 18 18 18 18 18 18 18 19 20 21 21 21 21 21 21 20 20 20 19 19 19 19 19 19 19 18 17 17 15 15 16 16 17 17 16 14 14 14 14 14 15 14 12 11 9 11 13 16 16 19 19 20 22 22 22 22 20 20 19 17 17 16 16 17 17 17 14 14 13 12 12 13 13 14 15 15 12 12 11 11 12 13 14 16 16 14 12 12 14 15 16 16 16 15 15 14 14 14 14 15 17 17 17 18 19 20 21 24 26 26 27 27 26 24 23 22 22 20 20 19 17 17 16 16 16 16 16 15 15 14 14 14 16 16 18 18 21 22 23 25 26 27 27 27 26 26 26 26 27 27 27 26 26 26 27 27 27 27 28 27 27 25 25 23 23 23 22 22 22 22 23 23 24 23 23 23 23 22 22 22 23 23 24 25 25 25 25 25 25 25 22 22 20 20 19 17 17 17 17 18 19 19 17 17 15 15 15 14 14 12 12 12 12 13 17 21 26 26 23 21 21 25 28 30 32 32 34 34 35 36 36 37 37 38 38 38 37 37 36 36 35 34 34 35 35 35 34 34 34 34 32 30 30 30 30 30 30 31 30 30 29 29 28 27 26 26 27 29 29 29 28 28 28 29 30 32 32 31 31 30 28 28 27 27 27 26 26 26 26 26 26 26 26 26 27 27 29 32 32 34 34 36 37 37 39 39 40 40 41 42 42 44 44 43 43 43 43 43 44 44 44 45 45 46 46 46 47 47 46 46 44 43 43 42 42 40 39 39 38 38 37 37 36 34 34 33 32 30 29 29 29 29 29 29 29 29 29 29 29 29 30 31 30 30 31 32 32 29 29 29 29 29 30 32 34 35 35 31 31 30 30 29 28 27 27 27 26 27 28 29 30 31 31 32 32 32 34 34 30 29 29 30 30 30 30 30 29 29 29 29 28 28 28 28 28 28 28 28 28 28 28 28 28 28 28 28 28 29 29 29 29 29 30 30 31 33 33 34 34 34 34 34 34 33 33 32 32 29 29 28 28 28 27 27 28 28 30 31 30 30 30 30 30 29 29 29 28 28 27 27 27 26 26 28 29 29 29 29 29 29 29 31 31 32 32 32 32 32 32 32 32 32 32 32 32 31 31 31 30 30 29 29 28 28 28 29 30 31 31 31 31 31 31 31 32 32 33 32 32 31 31 31 32 32 32 32 32 31 31 30 30 30 30 30 32 32 32 33 33 32 32 32 32 32 33 34 34 34 34 34 33 33 33 33 33 33 33 33 33 33 33 32 32 30 30 30 31 31 29 28 26 26 26 26 26 26 26 27 28 28 27 27 27 31 31 31 31 31 31 31 31 31 31 31 31 31 31 30 30 30 29 29 27 26 26 27 28 30 30 31 31 31 31 31 32 32 33 33 33 33 33 33 32 32 31 31 31 31 31 31 31 30 30 30 30 30 29 30 31 31 31 31 31 30 30 30 30 30 30 30 30 30 30 28 28 28 28 28 28 28 29 29 29 29 30 30 30 29 28 28 28 28 28 28 28 30 30 31 31 30 29 29 28 28 28 29 29 29 29 30 30 31 30 30 30 30 30 30 30 30 30 29 29 29 29 29 29 29 29 29 29 29 29 29 33 35 34 34 31 30 30 30 30 30 30 32 36 37 38 39 38 36 35 32 32 32 32 33 36 38 41 43 44 44 44 43 42 42 42 42 42 42 44 47 47 46 47 47 45 42 37 37 38 38 37 37 37 34 33 33 34 36 40 40 40 40 39 38 38 43 47 50 49 43 38 35 33 33 32 29 28 28 28 28 27 27 31 37 38 36 30 28 28 34 39 42 46 48 50 50 52
5 5 5 5 5 6 6 6 6 6 7 7 6 5 3 3 3 2 2 2 3 3 3 2 2 3 3 3 3 3 4 4 4 4 4 4 4 4 4 5 5 5 5 5 5 5 5 5 5 6 6 6 5 5 5 5 5 5 6 6 6 6 6 6 7 7 7 7 8 8 9 12 14 16 16 17 17 16 13 10 8 7 7 8 8 8 9 9 11 12 13 13 13 14 14 14 14 15 15 15 15 16 15 15 15 15 15 16 16 16 15 15 17 18 19 18 17 15 15 16 17 17 19 19 21 21 22 23 23 23 23 22 22 22 20 19 18 18 18 18 18 18 18 18 18 19 20 20 20 20 21 21 20 20 20 19 19 19 18 18 18 19 19 17 17 16 15 15 15 15 16 16 15 13 13 14 14 14 14 13 12 11 9 11 13 16 16 19 19 20 22 22 22 22 21 20 20 18 18 17 17 17 17 17 15 14 13 12 12 13 13 14 14 14 13 12 11 11 12 13 14 16 17 15 12 12 14 17 17 16 16 14 14 14 14 14 14 14 16 16 17 18 18 20 21 24 26 27 27 27 26 24 23 22 22 21 20 19 17 17 16 16 16 16 16 15 15 15 15 15 16 16 18 19 21 23 25 26 27 28 27 27 26 25 25 26 26 27 25 23 24 25 27 28 28 28 28 27 27 25 25 23 23 23 22 22 22 22 23 23 23 23 22 22 21 21 21 21 22 23 24 25 25 25 25 25 25 25 22 22 21 20 19 16 16 16 17 18 19 19 17 16 15 14 14 13 13 12 12 12 12 15 19 25 28 28 25 23 24 26 28 31 32 32 34 34 35 36 36 37 37 38 38 38 37 37 36 35 34 34 34 35 35 35 34 34 33 33 31 30 30 30 30 30 30 31 30 30 29 29 28 26 26 26 27 29 29 29 28 28 28 29 30 31 31 31 31 30 29 28 27 27 27 27 27 27 27 27 27 27 27 27 27 27 29 31 31 33 34 36 37 37 39 39 40 40 41 42 42 43 43 43 42 42 42 42 43 43 44 44 45 45 45 45 46 46 46 45 44 43 43 42 42 40 39 39 39 38 38 37 35 34 34 32 32 30 29 29 29 29 29 29 29 29 29 29 29 29 30 31 29 29 31 31 31 29 29 29 29 29 30 32 34 35 34 32 31 30 30 29 28 27 27 27 26 26 27 29 30 32 32 33 33 33 34 34 30 29 29 30 30 30 30 30 29 29 29 29 28 28 28 28 28 28 28 28 28 28 28 28 28 28 28 28 28 29 29 29 29 29 30 30 31 33 33 34 34 34 35 35 34 34 33 32 32 29 28 27 27 28 27 27 28 29 30 30 29 29 29 29 29 29 28 28 28 28 27 27 27 26 26 27 28 28 29 29 29 29 29 31 31 32 32 32 32 32 31 31 31 31 32 32 32 31 31 31 30 30 29 29 28 28 28 29 30 31 31 31 30 30 30 30 31 32 32 32 31 31 31 31 32 32 32 31 31 30 30 30 29 29 29 30 31 31 32 33 33 32 32 31 32 32 33 34 34 34 34 33 32 32 32 32 32 32 32 32 32 32 32 32 32 30 30 30 31 31 29 28 26 26 26 26 26 26 26 27 28 28 27 27 27 30 30 31 31 31 31 31 31 30 30 29 29 29 29 29 29 30 29 28 27 26 26 28 28 30 30 30 30 30 31 31 31 31 32 32 32 33 33 33 32 30 30 31 31 31 31 30 30 29 29 29 29 28 28 29 30 31 31 31 31 30 30 30 30 30 30 30 30 29 29 28 28 28 28 28 28 28 29 29 29 29 29 30 30 29 28 28 28 28 28 28 28 30 30 31 31 30 28 28 28 28 28 29 29 29 29 30 30 31 30 30 30 30 30 30 30 30 30 29 29 29 29 29 29 29 29 29 29 29 29 31 34 35 35 34 32 31 30 30 30 30 30 32 36 37 38 38 37 35 34 32 32 33 35 36 37 38 40 41 42 43 44 42 41 41 41 42 41 41 43 46 46 45 45 46 45 43 38 36 37 38 38 38 37 35 33 33 35 37 39 39 39 39 39 38 40 43 48 51 51 46 40 35 32 32 31 29 28 28 28 28 27 27 31 37 38 36 33 32 34 37 39 43 47 50 51 52 53
6 6 6 6 6 6 6 6 7 7 8 8 7 6 4 4 3 3 3 3 3 3 2 3 3 3 3 3 3 4 4 4 5 5 5 5 5 4 4 5 5 5 5 5 6 6 5 5 5 6 6 5 5 5 6 6 5 5 5 6 6 6 6 7 6 6 8 8 8 8 8 12 13 15 16 16 16 15 12 9 7 7 7 7 7 8 9 9 11 13 14 14 14 15 15 15 15 16 16 16 16 16 15 15 15 15 15 16 16 16 16 16 17 17 19 17 15 14 14 15 16 17 19 19 20 21 21 21 21 22 22 22 21 21 20 19 18 18 18 18 18 18 18 18 19 19 20 20 20 20 20 20 20 20 20 19 19 19 18 18 18 19 19 17 17 15 14 14 15 15 15 16 15 12 12 12 13 13 13 13 11 11 10 11 14 16 16 19 19 20 22 22 22 22 21 20 20 19 18 17 17 17 17 17 15 14 13 12 12 13 13 14 14 14 13 12 12 12 12 13 14 17 17 15 12 13 15 17 17 16 15 14 14 14 14 14 14 14 16 16 17 18 18 20 21 24 26 27 27 27 26 24 23 23 23 21 21 19 17 17 17 17 17 17 17 16 16 16 16 16 16 17 18 20 22 24 26 27 28 29 28 27 25 24 24 24 25 25 23 21 22 25 27 29 29 29 29 29 28 26 25 24 23 23 22 22 22 22 22 22 21 21 21 20 20 20 20 20 21 22 23 24 24 24 24 24 25 25 22 22 21 20 19 16 16 16 16 17 18 18 16 15 15 14 13 12 12 12 12 12 12 16 22 27 29 30 27 25 26 27 29 31 33 33 34 35 35 36 36 37 37 37 37 37 37 37 36 34 33 33 33 35 35 34 33 33 33 33 31 30 30 30 30 30 30 30 29 29 29 29 28 26 26 26 27 29 29 29 28 28 29 29 30 31 31 32 32 31 29 28 27 27 27 27 27 28 28 27 27 27 27 27 28 28 29 30 31 32 34 35 35 36 37 38 38 39 40 41 41 42 42 41 41 40 40 41 41 42 43 43 44 44 43 44 44 44 45 45 44 44 44 42 42 40 40 40 39 39 38 37 35 34 34 32 32 31 30 29 28 28 28 28 28 29 29 29 29 29 30 30 28 27 29 30 30 29 29 29 29 28 29 32 33 33 33 32 31 29 29 29 27 27 27 27 26 26 26 29 31 32 33 34 35 35 35 34 30 30 30 30 30 29 29 30 28 28 28 28 28 27 27 27 27 27 27 27 27 27 27 27 27 27 27 27 28 29 30 30 29 29 30 30 30 33 33 34 34 34 35 35 34 34 34 32 31 29 28 27 27 29 27 27 29 30 30 28 28 28 27 27 27 28 28 28 28 28 27 27 27 26 26 27 27 27 28 28 29 29 30 31 31 31 31 31 31 31 31 30 30 30 31 32 32 31 30 30 29 29 28 28 27 27 27 29 30 30 30 30 29 28 29 30 30 31 32 31 30 30 30 30 31 31 31 31 31 30 29 28 28 28 28 29 31 31 31 32 32 31 30 30 30 31 33 33 33 33 33 33 31 31 31 31 31 31 31 31 31 31 31 31 30 29 29 29 30 30 29 28 26 26 26 26 26 25 25 26 27 27 27 27 27 29 30 30 30 30 30 30 30 29 29 28 28 28 28 28 29 30 29 28 26 26 26 28 28 29 29 30 30 30 30 30 31 31 32 32 32 32 32 32 31 28 28 30 30 29 29 29 28 28 27 27 26 26 26 28 29 30 30 30 30 29 29 29 29 29 30 30 30 29 29 28 28 28 28 28 28 28 28 28 28 28 28 30 30 29 28 28 28 28 28 28 28 30 30 31 31 30 28 28 28 28 28 29 29 29 29 30 30 30 30 30 30 30 30 30 30 29 29 29 29 29 29 29 29 30 29 30 30 31 31 32 34 35 35 35 33 32 32 31 31 31 31 31 36 37 37 37 35 34 33 33 33 36 38 39 39 39 39 38 40 42 43 41 39 39 41 42 41 40 42 45 45 44 43 44 44 43 39 36 37 39 40 40 38 36 35 35 35 37 39 39 38 37 38 39 41 45 49 51 52 48 42 36 32 31 30 29 29 27 27 28 28 29 33 37 38 37 35 36 38 39 40 43 48 52 54 54 54
6 6 6 6 6 6 6 6 7 7 8 8 8 6 5 5 4 3 3 3 3 3 2 3 3 2 2 3 3 4 4 5 5 5 5 5 5 4 4 5 5 5 5 5 6 6 5 5 5 6 6 5 5 5 6 6 5 5 5 6 6 6 6 7 6 6 8 8 8 8 8 10 12 15 15 16 14 13 11 8 7 7 7 7 7 8 8 8 11 13 14 14 14 16 16 16 16 16 16 16 16 16 15 15 15 15 15 16 16 15 15 15 16 17 18 16 14 14 14 15 16 17 19 19 20 20 20 20 20 21 21 21 21 21 20 19 19 19 18 18 18 18 18 18 19 19 20 20 20 20 20 20 20 20 20 19 19 19 18 18 19 19 18 17 16 15 14 14 14 14 15 15 13 12 12 12 12 13 13 13 11 11 10 11 14 16 17 19 19 21 22 22 22 22 21 20 20 19 19 18 18 18 17 17 15 14 13 12 12 13 13 14 15 15 13 12 12 12 12 14 14 17 17 15 13 15 16 16 17 16 15 14 14 14 14 14 14 14 16 16 17 18 19 20 21 24 25 27 27 27 26 24 23 23 23 22 22 20 18 17 17 17 17 17 17 17 17 17 17 17 17 18 21 22 24 26 28 29 29 29 29 28 25 24 23 23 23 23 21 21 21 24 28 29 30 30 30 29 29 26 26 25 24 24 23 22 22 22 21 21 20 20 20 20 20 20 20 20 20 21 22 23 23 23 23 23 24 24 22 22 21 20 18 16 16 16 16 17 18 18 16 15 14 13 13 12 12 12 12 12 13 19 24 28 30 30 29 28 28 30 30 32 33 33 35 35 36 36 36 37 37 37 36 36 36 36 35 33 33 33 33 34 34 33 32 32 33 33 31 30 30 30 30 30 30 30 29 29 29 29 28 26 26 26 28 29 30 30 29 29 29 29 29 31 31 32 32 30 28 28 27 27 27 27 27 28 28 28 28 28 28 28 28 28 29 30 30 32 33 34 34 35 36 37 38 38 39 40 40 41 41 40 40 40 40 40 41 42 42 42 43 43 43 43 44 44 44 44 44 43 43 42 42 41 40 40 39 38 38 37 34 33 33 32 32 31 30 29 28 28 28 28 28 29 29 29 29 29 29 29 27 27 28 29 29 29 29 29 29 28 29 31 33 33 33 32 31 29 29 28 27 27 27 27 26 26 26 28 31 33 34 35 36 36 35 35 31 30 30 30 30 29 29 30 28 28 28 28 27 27 27 27 27 27 27 27 27 27 27 27 27 27 27 27 28 29 30 30 29 29 30 30 30 33 33 33 33 33 34 34 34 34 34 32 31 28 28 27 27 29 27 27 29 30 30 28 28 27 27 27 27 27 28 28 28 28 28 27 27 26 26 27 27 27 28 28 29 29 30 31 31 30 30 30 30 30 30 30 30 30 30 31 31 30 29 29 29 29 28 28 27 27 27 29 29 30 29 29 28 28 28 29 29 31 32 30 30 30 30 30 31 31 30 30 30 29 27 27 27 28 28 29 31 31 31 32 32 30 30 30 30 30 32 33 33 33 33 32 31 31 31 30 30 30 31 31 31 30 30 30 29 29 29 29 30 30 28 27 26 26 26 25 25 25 25 25 26 26 27 27 28 28 29 29 29 29 29 29 29 29 28 28 28 28 28 27 28 29 28 28 26 26 26 28 28 29 29 30 30 30 30 30 31 31 31 32 32 31 31 31 29 26 26 28 29 28 28 27 26 26 26 25 25 25 25 27 29 30 30 30 30 29 29 29 29 29 30 30 29 28 28 28 28 27 27 27 27 27 27 27 27 27 28 30 30 29 28 28 28 28 28 28 29 30 30 31 31 30 28 28 28 28 28 29 29 29 29 29 29 30 30 30 30 30 30 30 30 29 29 29 29 29 30 30 30 30 30 31 31 32 32 34 35 35 36 36 34 33 33 32 32 30 30 31 36 37 36 35 33 32 32 34 35 39 42 42 41 40 38 37 38 40 41 39 38 38 41 42 41 40 40 43 44 43 41 42 44 44 39 36 37 40 42 42 39 37 36 36 36 38 39 39 37 37 37 40 42 45 48 51 52 49 42 37 32 31 30 29 29 27 27 28 29 32 35 38 39 39 38 38 40 42 42 45 49 53 55 55 55
6 6 6 6 6 6 6 6 7 7 7 7 6 6 6 5 5 4 3 3 3 3 3 3 3 2 2 3 3 4 5 5 6 6 6 5 5 5 4 4 4 4 5 5 6 6 6 6 6 6 6 6 6 6 6 6 6 6 6 6 6 6 6 7 7 7 7 7 8 8 8 8 11 15 15 15 12 11 8 8 7 7 7 6 6 7 7 7 9 11 12 13 15 16 16 15 14 14 15 15 15 15 16 16 16 16 16 16 16 15 15 15 15 16 17 15 14 14 14 16 18 18 18 18 18 18 18 18 18 19 19 21 22 22 21 21 21 21 20 19 18 18 18 18 19 19 20 20 20 20 20 19 19 19 19 19 19 19 19 19 19 19 18 16 15 14 14 14 13 13 13 13 12 12 12 12 12 14 14 13 13 13 13 13 14 16 17 19 20 21 24 24 23 23 21 19 18 17 17 19 20 20 19 19 16 14 14 14 14 15 15 15 14 14 13 13 13 13 13 14 15 14 14 14 15 17 16 14 13 14 14 14 15 16 16 16 15 15 18 19 20 21 21 22 22 23 25 25 27 27 26 24 23 23 23 22 22 21 20 20 19 17 17 17 17 18 19 19 20 20 20 20 23 24 26 28 31 32 31 30 29 28 26 24 22 21 20 20 20 21 21 22 27 29 31 31 31 30 30 29 28 28 28 27 26 25 22 22 21 19 19 19 19 19 19 20 20 20 20 20 20 20 21 21 21 23 23 23 23 22 21 20 18 16 16 16 16 17 16 16 15 14 13 12 12 11 11 12 12 14 17 22 27 29 31 31 31 31 31 32 33 33 34 34 35 35 35 37 37 35 35 35 35 35 34 34 33 32 32 31 31 30 31 31 30 30 32 32 31 30 30 30 30 29 29 28 27 27 26 26 26 28 28 28 30 31 31 32 32 32 29 29 29 31 31 31 30 29 27 26 27 27 27 28 28 27 27 28 28 29 28 28 28 28 29 30 30 32 32 33 33 34 35 35 37 37 38 39 39 39 39 39 39 39 39 40 41 42 42 42 42 43 43 43 43 43 43 43 42 42 41 41 41 39 39 37 36 36 35 35 33 32 32 31 30 29 29 29 28 28 29 29 29 29 29 28 28 29 29 29 28 28 28 29 29 29 29 29 29 29 29 31 31 31 31 30 29 28 28 26 26 26 26 26 27 27 27 28 30 34 34 37 37 37 35 35 33 31 31 31 31 30 30 30 29 29 28 28 27 27 27 27 27 27 27 27 27 27 27 27 27 27 27 27 27 28 29 29 31 31 31 31 31 32 32 32 32 32 32 32 33 33 32 31 30 29 29 28 29 30 29 29 30 30 30 28 28 26 26 26 26 26 26 26 27 27 27 27 27 28 28 28 28 28 29 30 29 29 30 30 29 28 28 28 28 28 29 29 30 29 29 29 29 28 28 28 27 27 27 27 27 27 28 30 30 29 29 29 28 28 28 28 27 29 29 30 30 30 30 30 30 30 29 28 28 27 27 27 27 28 29 30 31 31 32 32 32 32 32 31 31 31 32 32 32 32 32 31 31 30 30 28 29 30 31 31 31 30 30 30 30 29 29 29 29 29 28 27 26 26 26 25 24 24 24 24 24 24 25 25 25 26 26 27 27 28 28 28 29 29 28 28 28 28 28 28 28 28 28 27 26 26 27 28 28 29 29 30 30 30 30 30 31 32 32 32 32 29 28 27 26 24 24 26 26 25 25 25 25 25 25 25 25 25 25 26 28 30 30 30 30 29 29 29 29 29 29 29 28 27 27 27 27 27 27 27 27 27 27 27 26 27 28 30 30 29 28 28 28 28 28 29 30 29 30 30 30 29 29 29 29 29 29 29 29 29 29 29 29 30 29 29 30 30 30 31 30 30 30 30 30 30 31 31 31 31 32 33 33 33 34 35 36 36 36 36 36 35 35 34 33 31 31 32 36 36 35 34 33 32 33 35 37 41 44 44 43 40 37 37 37 38 39 38 38 38 39 40 40 39 38 40 41 41 40 41 42 43 40 38 38 40 43 42 40 39 39 38 38 40 39 39 39 39 40 41 42 42 45 47 48 47 41 36 34 34 32 31 30 29 29 29 30 32 37 41 42 42 42 42 44 45 46 48 52 54 56 57 59
6 6 6 6 6 6 6 6 7 7 6 6 6 6 6 5 5 4 4 4 3 3 3 3 3 3 3 3 3 4 6 6 6 6 6 6 6 5 5 5 5 5 5 5 6 6 6 6 6 6 6 5 5 5 6 6 6 6 6 7 7 6 7 7 7 7 8 8 8 8 8 8 12 16 16 14 11 10 8 8 7 7 7 7 7 7 7 7 7 8 11 13 15 16 15 14 13 13 14 14 15 15 16 16 16 17 17 16 16 15 15 15 15 16 17 15 14 14 15 17 17 17 17 17 17 17 18 18 18 19 19 21 22 22 22 22 22 22 21 19 18 18 18 18 18 18 19 19 19 19 19 19 18 19 19 19 19 19 18 18 18 18 17 16 15 13 13 13 13 13 12 12 12 11 11 12 13 15 14 14 14 14 14 14 15 16 18 20 20 22 24 24 23 23 20 18 17 17 17 18 19 19 19 18 17 14 14 14 14 16 15 14 14 14 13 13 13 13 13 14 16 14 14 14 17 19 16 13 13 14 14 14 15 17 16 16 16 16 18 19 20 21 21 22 22 23 25 25 28 28 27 24 23 23 23 23 22 21 21 21 19 18 17 17 18 19 20 20 21 21 21 22 24 25 27 30 32 32 32 31 29 28 26 24 21 20 19 20 20 21 21 22 27 29 30 30 30 30 29 29 29 29 29 28 27 26 23 22 21 20 19 19 19 19 19 19 20 20 20 20 20 20 20 21 21 22 22 22 22 21 20 19 17 16 16 17 17 17 16 15 14 13 13 12 12 11 11 13 12 16 19 24 28 29 31 31 32 32 32 34 34 34 35 35 34 34 35 36 36 35 34 34 34 34 34 33 32 31 31 30 30 29 29 29 29 30 31 31 31 30 30 30 30 29 29 28 27 27 26 26 26 27 28 29 30 32 32 32 32 32 29 28 28 31 31 31 30 29 26 26 27 27 28 28 28 26 26 27 27 29 28 28 28 28 29 30 30 31 31 32 33 33 34 35 36 37 38 39 39 39 39 39 39 39 40 40 41 42 42 43 43 43 43 43 42 42 43 42 41 41 41 40 40 39 38 36 35 35 34 33 32 31 31 30 29 28 28 28 28 28 29 29 29 29 29 29 29 29 29 29 28 28 28 28 28 28 28 29 29 29 30 31 31 30 30 29 28 27 27 26 26 26 26 26 27 28 28 29 30 33 34 37 37 37 35 35 34 32 32 32 31 29 29 29 29 29 28 28 27 27 27 27 27 27 27 27 27 27 27 27 27 27 27 27 27 28 28 29 31 31 32 32 32 32 32 32 32 32 31 32 32 32 31 30 30 29 29 29 30 31 30 30 30 30 29 28 28 26 26 25 25 25 26 26 27 27 27 27 27 28 28 29 28 28 29 30 29 29 30 30 29 27 27 27 27 28 29 30 29 28 28 28 27 27 27 27 27 27 27 27 27 28 28 30 30 29 29 29 29 29 28 28 26 28 29 30 30 31 30 30 29 29 28 27 27 27 27 27 27 29 30 30 31 31 32 32 32 32 32 31 31 31 32 32 31 31 31 31 31 30 29 27 28 29 31 31 31 30 30 29 29 29 29 29 28 28 28 27 27 27 26 25 24 24 24 24 24 24 25 25 24 25 25 26 27 28 28 28 28 28 28 28 28 28 28 27 27 28 28 27 27 27 27 28 29 29 29 30 30 30 30 30 32 32 32 32 32 29 26 25 24 24 24 24 25 25 25 25 25 25 25 25 25 25 26 26 28 30 30 30 30 29 29 29 29 29 29 29 28 27 27 27 27 27 27 27 27 27 27 27 26 27 28 30 30 29 28 28 28 28 28 28 29 28 29 29 29 28 28 28 28 28 29 29 29 28 28 29 29 29 29 29 30 30 30 31 30 30 30 30 30 30 31 31 31 31 32 32 32 33 33 34 35 35 35 35 35 36 36 35 35 33 32 33 36 36 35 35 34 33 35 37 39 41 44 45 43 40 37 37 37 37 38 38 38 38 38 39 39 38 38 38 39 39 39 41 42 43 40 39 40 41 43 42 41 40 39 39 39 40 39 39 39 39 41 42 42 41 42 44 45 45 40 35 34 35 34 32 30 29 29 29 30 33 38 42 44 45 45 45 47 47 48 50 53 55 57 57 59
6 6 6 6 6 6 6 6 6 6 6 6 6 6 6 5 5 4 4 4 4 4 3 3 3 3 3 4 4 4 5 5 6 6 6 5 5 6 6 5 5 5 5 5 6 6 6 6 6 6 6 6 5 6 6 6 6 6 6 7 7 7 7 8 7 7 8 8 8 8 8 9 13 15 15 14 10 10 8 8 7 6 6 7 7 7 7 7 7 7 10 13 15 15 14 12 11 12 13 13 15 15 17 17 17 18 18 17 17 16 15 15 15 15 16 15 15 15 16 17 17 17 17 17 17 17 18 18 18 19 19 21 22 22 23 23 23 23 22 20 19 18 18 17 17 17 18 18 18 18 18 18 18 19 19 19 19 19 19 18 17 17 15 15 14 13 13 13 12 12 12 12 12 11 11 13 14 15 15 15 15 15 15 16 16 17 18 20 20 22 23 24 23 23 20 18 17 17 17 18 19 19 18 17 17 15 15 15 15 16 15 14 14 14 13 13 13 13 13 15 16 15 14 14 17 19 17 14 14 14 14 14 16 18 18 18 18 18 20 20 20 20 20 21 22 23 25 26 28 29 27 25 24 24 24 24 24 23 21 20 19 19 19 19 20 21 22 22 22 22 22 23 25 25 28 31 32 32 32 31 29 28 25 24 21 20 19 20 21 22 22 22 27 29 29 29 29 29 28 29 29 28 28 27 27 26 24 23 23 21 20 19 19 19 19 19 20 20 20 20 19 19 19 20 20 20 21 21 20 19 18 17 16 16 16 16 16 16 15 14 13 13 13 12 12 11 12 14 14 17 20 24 28 29 31 31 33 34 34 35 35 35 34 34 33 33 34 35 35 34 34 33 33 33 32 32 31 31 30 30 30 29 29 29 29 29 31 31 31 31 31 30 30 29 29 28 27 27 26 26 26 27 27 29 30 31 31 31 31 31 28 28 28 30 30 30 30 29 27 27 28 28 29 28 28 26 26 27 28 29 28 28 28 28 30 30 30 31 31 32 33 33 34 34 36 36 38 39 39 39 39 39 39 39 40 40 41 42 42 42 42 42 42 42 41 41 41 41 41 41 41 40 40 38 37 35 33 33 33 33 32 31 31 29 29 27 27 28 28 28 29 29 29 29 29 29 29 29 29 29 29 29 28 28 28 28 28 29 29 29 30 30 30 29 29 28 28 27 27 26 26 26 26 27 28 28 29 30 30 33 34 37 37 37 35 34 34 34 34 32 32 29 28 28 29 29 29 29 28 28 28 27 27 27 27 27 28 28 27 27 28 28 28 28 28 28 28 29 32 32 32 32 32 32 32 32 32 31 31 31 31 31 30 29 29 29 29 30 30 31 32 32 30 30 29 28 27 25 25 25 25 25 26 26 27 27 28 28 28 28 28 29 28 28 29 30 29 29 29 30 29 27 27 27 27 27 29 30 29 28 28 27 27 26 26 26 27 27 27 27 27 28 28 30 30 29 29 29 28 28 28 27 26 27 28 30 30 30 30 30 29 29 27 27 26 27 27 27 28 29 31 31 31 31 31 31 31 32 32 32 32 32 32 32 31 31 31 31 31 30 29 27 28 29 32 32 31 30 30 29 29 29 29 29 28 28 28 28 28 27 27 25 24 24 24 24 24 24 25 25 24 25 25 26 26 28 28 28 27 27 28 28 28 28 28 26 26 26 27 27 27 27 28 29 29 29 29 29 29 29 29 29 31 31 32 31 31 28 24 23 23 23 24 24 25 25 25 25 25 25 25 25 26 26 26 26 29 30 30 31 31 30 29 29 30 30 29 29 27 26 26 26 26 27 27 27 27 27 27 27 28 28 28 30 30 29 28 28 28 28 27 27 27 27 27 28 28 27 27 27 27 27 28 28 29 28 28 28 28 29 29 29 30 30 30 30 30 30 30 30 30 30 31 31 31 31 31 31 31 32 32 33 34 34 34 35 35 36 36 36 36 35 34 34 36 35 35 35 35 35 37 39 40 41 44 45 43 40 37 37 37 37 37 38 39 38 36 37 37 37 37 37 37 37 38 41 42 43 41 41 41 42 42 41 41 40 40 40 40 39 39 39 39 40 41 42 41 39 39 41 42 42 38 35 34 36 36 33 30 29 30 29 30 34 39 43 45 47 48 48 49 50 50 51 54 55 57 57 59
6 6 6 6 6 6 6 6 6 6 6 6 6 6 6 5 5 5 4 4 5 5 4 3 3 3 3 4 4 4 5 5 6 6 6 5 5 6 6 5 5 5 5 5 6 6 6 7 7 7 7 7 7 7 7 7 7 7 7 7 7 8 8 8 8 8 8 8 8 8 9 11 14 15 15 13 10 10 7 7 7 6 6 7 7 7 7 7 8 8 10 14 15 14 13 10 10 11 12 13 14 15 17 18 18 18 18 18 17 17 16 16 15 15 16 15 15 16 17 17 17 16 17 17 18 18 18 19 19 20 20 21 22 22 23 23 23 23 22 21 19 19 18 17 16 16 17 17 18 18 18 18 18 18 19 19 19 19 19 18 16 15 14 14 13 12 12 12 12 12 12 12 12 12 12 13 15 16 16 16 16 16 16 17 17 17 18 20 21 22 23 23 23 22 19 17 17 17 17 18 18 18 17 16 16 16 15 15 15 16 15 14 14 14 14 14 14 14 14 16 17 16 15 15 17 19 18 16 15 15 14 15 17 18 18 19 19 19 20 20 20 20 19 21 22 24 25 28 29 29 28 25 25 25 25 25 25 24 22 20 19 19 20 21 22 23 23 23 23 23 23 24 25 25 27 30 31 32 31 30 29 27 25 23 21 20 19 20 22 24 24 24 28 29 28 27 27 27 27 28 29 27 26 26 26 24 25 25 25 24 22 19 18 18 18 19 21 20 20 20 19 19 19 19 19 19 20 20 19 17 17 16 16 16 16 16 16 15 14 13 11 12 13 12 12 11 14 16 16 19 21 24 27 29 31 32 33 34 35 35 35 35 34 33 32 32 33 34 35 34 33 33 32 32 32 30 30 30 29 29 29 29 29 29 29 29 30 30 30 30 30 31 31 30 30 28 28 28 27 27 27 27 27 28 29 30 30 30 30 30 27 27 27 29 29 30 30 29 27 27 28 28 29 28 28 26 26 27 28 29 29 29 29 29 30 30 30 30 30 31 33 33 34 34 35 36 37 39 39 39 39 38 38 38 39 40 40 41 41 42 41 41 41 41 41 40 40 40 40 41 41 40 40 37 37 34 32 32 33 33 32 30 30 29 28 26 26 27 28 28 28 28 28 28 28 29 29 29 29 29 29 29 29 28 28 28 29 29 29 29 29 29 28 28 28 28 28 28 27 27 27 27 27 28 29 29 29 30 30 33 34 37 36 36 34 34 34 33 33 32 31 29 28 27 28 28 28 28 28 28 28 27 27 27 27 27 28 28 28 28 28 28 28 28 28 28 28 28 31 31 31 31 31 32 32 32 32 31 30 30 30 30 30 29 28 28 28 29 30 30 31 31 30 30 29 27 26 25 24 24 25 25 26 26 27 27 28 28 28 28 28 28 28 27 28 29 28 28 29 29 29 27 27 27 27 27 29 30 29 28 28 26 26 26 25 25 26 26 27 27 27 28 28 30 30 29 28 28 28 27 27 27 26 27 28 29 29 30 30 29 28 28 27 26 26 27 27 27 28 29 30 30 30 30 30 30 31 31 31 31 31 31 31 31 31 30 30 30 30 30 29 27 28 29 31 31 31 30 30 29 29 28 28 28 27 27 27 27 27 27 27 25 24 24 24 24 24 24 25 25 24 25 25 26 26 27 27 27 26 27 27 28 27 27 27 25 25 25 26 26 27 27 29 29 29 29 29 29 29 29 28 29 30 31 31 30 30 28 24 23 23 24 24 25 25 25 25 25 25 25 25 26 26 26 27 27 29 30 31 31 31 30 30 30 30 30 29 29 27 26 26 26 26 26 27 27 27 27 28 28 28 28 29 30 30 30 28 28 28 28 27 27 27 27 27 28 27 27 27 27 27 27 27 27 29 28 28 27 28 28 29 29 29 29 30 30 30 30 30 30 30 30 30 30 30 30 30 31 31 32 32 32 33 33 34 34 35 35 35 37 37 37 36 36 37 35 35 35 36 36 38 41 41 42 43 44 43 40 37 36 36 37 37 38 39 38 35 35 36 36 36 36 36 37 39 42 43 43 40 40 40 42 42 41 40 40 39 39 39 38 38 38 38 39 40 41 39 37 37 38 39 39 37 35 35 37 37 34 31 31 31 31 32 35 40 44 46 47 48 49 50 51 52 53 55 55 56 57 58
6 6 6 6 6 6 6 6 6 6 6 6 6 6 6 5 5 5 5 5 5 5 5 3 3 3 3 4 4 4 5 5 6 6 6 6 6 6 6 6 5 5 5 5 5 5 6 7 7 7 7 7 7 7 7 7 7 7 7 7 7 8 8 8 8 8 8 8 8 8 10 13 15 15 14 13 10 10 7 7 7 6 6 7 7 7 7 7 8 8 12 14 15 13 11 8 8 9 11 12 13 14 17 18 18 19 19 20 19 19 18 17 16 16 16 16 16 16 17 16 16 16 16 17 19 19 19 20 20 20 20 21 22 23 24 24 24 24 23 21 20 19 18 17 16 16 17 17 18 18 18 17 17 18 19 20 20 20 18 17 16 14 13 13 13 12 12 12 12 12 12 12 12 12 12 14 15 17 17 17 17 17 17 17 17 17 18 20 21 22 23 23 23 22 19 17 17 17 17 18 18 17 16 16 16 16 16 16 16 15 15 14 14 14 14 14 15 15 15 16 18 17 16 16 17 19 19 18 17 16 15 16 18 19 19 20 21 21 21 20 20 19 19 20 21 24 26 28 30 30 28 26 26 26 26 27 27 26 22 20 19 20 22 23 24 25 25 25 25 24 24 24 26 26 27 30 31 31 31 30 28 27 24 23 21 21 20 20 23 25 26 27 28 29 27 26 26 26 26 27 27 26 24 24 23 23 25 27 27 26 24 19 18 18 18 20 22 21 19 19 19 18 18 18 18 18 18 18 17 16 15 14 15 15 15 15 15 15 13 12 11 11 13 13 13 13 16 18 18 20 22 23 27 28 31 32 33 35 35 35 34 34 33 32 31 31 31 33 33 33 33 32 32 32 31 30 29 29 29 29 29 29 29 29 29 29 30 30 30 30 30 31 31 30 30 30 28 28 27 27 27 27 27 27 27 29 28 28 28 28 27 27 27 28 28 29 29 30 29 29 29 29 28 28 28 26 26 28 28 29 30 30 29 29 30 30 30 30 30 31 33 33 33 33 35 36 37 38 38 39 39 38 38 38 39 39 40 40 41 40 40 39 39 39 39 39 39 39 39 40 40 40 40 37 36 33 32 32 33 33 32 30 29 28 28 26 26 26 27 27 27 27 27 27 27 28 28 28 28 28 29 29 29 29 29 29 29 30 30 29 28 27 26 26 26 27 28 28 28 28 28 28 28 29 30 30 30 30 31 33 35 37 36 36 34 34 33 32 32 31 30 29 28 27 27 27 27 27 29 29 29 27 27 27 27 27 27 27 30 30 31 30 30 30 29 28 28 28 29 30 30 30 30 31 31 32 32 31 30 30 29 29 29 28 27 27 27 28 29 30 31 31 30 29 28 26 26 24 24 24 25 25 27 27 27 27 28 28 28 27 27 27 27 27 27 28 28 28 28 28 28 27 27 27 27 27 29 30 30 28 28 26 26 25 25 25 26 26 27 27 27 28 28 29 29 28 27 27 27 26 26 26 26 27 28 29 29 29 28 28 27 27 26 26 26 27 27 28 28 29 30 30 29 29 28 29 29 30 30 30 30 30 31 31 30 30 29 29 29 29 29 29 29 30 31 31 31 30 29 28 28 28 28 28 26 26 26 26 27 27 27 26 25 25 25 25 25 25 26 26 25 25 25 26 26 27 27 27 25 25 26 26 26 25 25 24 24 24 25 26 27 27 29 28 28 28 28 28 28 28 28 28 28 28 28 28 28 26 24 24 24 24 25 25 26 26 26 26 26 26 26 26 27 27 27 27 29 30 31 31 31 31 31 31 30 30 29 29 27 26 26 26 26 26 26 26 27 27 28 28 29 30 30 30 31 30 29 29 28 28 27 27 27 27 27 27 27 27 27 27 27 27 27 27 28 28 27 27 27 28 28 28 29 29 29 30 30 30 30 30 30 30 30 30 30 30 30 31 31 32 32 32 31 31 33 34 35 35 35 38 38 39 39 39 37 36 35 35 37 37 38 42 42 42 43 43 42 39 36 35 35 37 37 38 38 37 35 34 34 35 36 37 37 37 39 43 43 43 40 40 39 41 41 40 39 38 37 37 36 37 37 36 36 37 39 38 33 30 35 36 37 37 37 35 36 38 39 36 34 33 33 33 35 38 42 45 46 48 48 50 51 52 54 55 56 56 56 56 57
6 6 6 6 6 6 6 6 6 6 6 6 6 6 6 6 6 6 6 6 6 6 5 3 3 3 3 4 4 5 5 5 6 6 6 6 6 6 6 6 5 5 5 5 5 5 6 7 7 8 8 7 7 7 7 7 7 7 7 8 8 8 8 8 9 9 9 9 8 9 13 15 15 14 14 13 11 10 8 8 7 7 7 7 7 7 7 7 8 8 12 14 14 11 10 7 7 8 10 11 12 14 16 18 18 20 20 21 21 20 19 18 16 16 16 16 16 17 17 16 15 15 16 17 19 19 19 20 20 21 21 21 23 23 24 24 23 23 22 20 20 19 19 17 16 16 17 17 18 17 17 17 17 19 19 20 20 20 18 17 16 14 13 13 13 12 12 12 12 12 12 12 12 12 12 14 15 16 16 16 16 16 16 16 16 17 18 20 21 22 23 23 23 22 18 16 16 17 17 18 17 17 16 16 16 16 16 15 15 14 14 14 14 14 14 14 15 15 16 18 19 18 17 17 18 19 20 20 18 17 15 17 19 19 21 21 21 21 21 20 20 20 19 20 22 24 26 28 30 30 28 27 26 27 27 28 28 27 23 20 19 21 24 25 25 26 26 26 25 25 25 25 26 26 28 30 31 31 31 29 28 27 24 22 21 21 21 21 23 26 27 28 29 29 27 26 25 25 25 26 26 24 23 23 22 22 24 27 27 26 25 20 18 18 18 22 24 21 19 19 18 17 17 17 17 17 17 16 15 14 13 13 14 14 14 14 14 14 13 12 11 11 13 13 13 14 16 19 20 21 22 24 27 28 31 31 33 34 34 34 33 33 32 32 31 31 31 32 33 33 32 32 31 31 30 29 29 28 28 28 28 28 28 28 28 29 29 29 30 30 30 31 31 30 30 30 29 29 28 27 27 27 27 27 27 28 28 27 27 27 27 27 27 28 28 29 29 29 30 30 29 29 28 28 28 26 26 28 29 29 30 30 30 30 30 29 29 29 29 30 32 32 33 33 35 35 36 38 38 38 38 38 38 38 38 39 39 40 40 39 39 39 39 39 39 39 39 39 39 40 40 40 39 37 35 32 31 32 33 33 32 29 29 28 28 26 26 25 25 25 26 26 26 26 26 27 27 27 27 27 29 30 30 30 30 30 30 29 29 28 27 26 25 25 25 27 28 29 29 28 28 28 29 30 30 30 30 30 31 34 35 36 36 35 34 33 32 31 31 30 30 29 28 27 27 27 27 27 29 29 29 27 27 27 27 27 27 27 30 31 32 31 31 30 30 28 28 28 29 29 30 30 30 30 30 31 31 31 30 30 29 29 28 28 27 27 27 28 29 30 31 31 29 29 27 26 25 24 24 24 25 25 27 27 27 28 28 29 29 27 27 27 27 27 27 27 27 27 27 27 27 27 27 27 27 27 29 30 30 27 27 26 26 25 25 25 26 26 27 27 28 27 27 28 28 27 27 27 26 26 26 26 26 27 28 28 28 28 28 28 27 27 27 27 27 27 28 29 29 29 30 30 29 28 27 28 29 30 30 29 29 29 31 31 30 29 28 29 29 29 29 29 30 30 31 31 31 30 29 28 28 27 27 28 26 26 26 26 27 27 27 26 26 25 26 26 26 26 26 26 26 26 26 26 26 27 27 27 25 25 26 26 26 24 24 24 24 24 24 25 27 27 29 28 28 28 28 28 28 28 28 28 27 27 27 27 27 25 25 24 25 25 26 26 27 27 27 27 27 26 26 26 27 27 27 27 29 31 31 32 32 31 31 31 31 31 29 29 27 26 26 26 26 25 25 25 27 28 29 29 29 30 30 31 31 31 29 29 28 28 27 27 27 27 27 27 27 27 27 27 27 27 27 27 27 27 27 27 27 27 28 28 28 28 29 29 29 30 30 30 30 30 30 30 30 30 31 31 31 32 33 32 31 31 33 34 34 34 35 38 38 39 39 39 38 37 36 36 37 37 38 41 41 41 42 42 42 39 35 34 35 37 37 38 38 37 34 33 33 33 35 37 37 37 40 43 44 44 41 40 38 39 40 39 38 37 36 35 35 36 36 35 35 35 33 31 27 26 29 34 36 36 37 36 38 39 40 38 36 35 36 36 38 41 44 46 47 48 48 50 51 53 55 56 56 56 55 55 55
6 6 6 6 6 6 6 6 6 6 6 6 6 6 6 6 6 6 6 6 6 6 5 4 4 4 4 4 4 5 6 6 6 6 6 6 6 6 6 6 6 6 5 5 6 6 6 7 8 9 9 8 8 8 8 8 8 8 8 8 8 8 8 8 9 9 9 9 9 12 14 15 15 14 14 13 11 11 9 8 8 7 7 6 6 7 7 7 8 8 11 12 13 10 9 6 6 6 7 8 10 13 16 18 19 20 20 22 22 22 21 19 17 17 17 17 17 16 16 15 14 14 16 17 19 19 20 21 21 22 22 22 23 23 23 23 23 23 21 20 19 19 19 17 16 16 17 17 18 17 17 17 17 18 19 21 21 20 18 17 16 14 13 13 13 12 12 12 12 12 12 12 12 12 12 14 15 15 14 14 14 14 14 14 14 16 18 20 22 23 24 24 22 21 18 16 16 17 17 18 18 17 16 16 16 16 16 14 14 14 14 15 15 14 14 14 15 15 17 18 20 20 19 18 19 20 20 20 18 17 17 18 20 21 22 22 21 21 21 21 21 21 21 21 23 24 27 29 29 28 27 26 26 27 28 29 29 28 23 21 20 22 24 26 27 28 29 28 27 27 26 26 26 26 28 30 31 31 31 29 28 26 24 22 21 21 21 21 23 26 27 29 28 28 26 26 25 25 25 24 24 23 22 21 21 21 23 26 26 25 24 20 19 19 21 23 25 22 19 19 17 17 17 16 16 16 15 15 14 12 12 12 12 13 13 13 13 13 12 11 11 11 13 13 13 15 17 20 21 22 23 25 27 28 30 31 32 33 33 32 32 32 32 32 31 31 31 32 32 32 32 31 30 30 29 28 28 28 28 27 27 28 28 28 28 28 29 29 30 30 30 31 31 30 30 30 29 29 28 28 27 27 27 27 27 27 27 27 27 27 27 27 27 28 28 29 29 29 30 30 29 29 27 27 27 26 26 28 29 30 30 30 30 30 29 29 29 28 28 29 31 32 32 33 35 35 36 37 38 38 38 38 38 38 38 38 39 39 39 39 39 39 39 39 39 39 39 39 39 40 40 39 38 36 34 32 31 32 33 33 32 29 29 28 28 27 26 26 25 25 25 25 25 25 25 25 25 25 25 25 28 30 30 30 30 30 30 28 28 28 26 26 25 25 25 27 28 30 30 30 29 29 29 30 30 30 30 30 31 34 34 35 35 35 33 33 31 31 31 30 30 29 29 27 27 27 27 27 29 29 29 26 26 26 26 26 27 27 30 31 32 31 31 30 30 28 28 28 29 29 29 29 29 30 30 31 31 31 30 30 29 29 28 27 27 27 27 28 28 29 30 30 29 28 26 25 25 24 24 24 25 26 27 27 28 28 29 28 28 27 27 27 27 27 27 27 27 27 27 27 27 27 27 27 27 27 29 29 29 27 27 26 26 25 25 25 26 26 27 27 28 27 27 28 28 27 27 27 26 26 26 26 26 28 28 27 27 27 27 27 27 27 27 27 27 27 28 30 30 30 29 29 28 27 27 28 28 30 30 29 29 29 31 31 30 28 28 29 29 30 30 30 30 30 30 30 30 29 29 28 28 27 27 28 27 26 26 26 27 27 27 27 27 27 27 27 27 27 27 27 26 25 25 27 27 27 27 27 25 25 26 26 26 24 24 24 24 24 24 24 26 27 28 27 27 27 27 27 27 28 28 28 26 26 26 26 26 26 25 25 26 26 27 27 27 27 27 27 27 27 27 27 27 27 27 27 29 31 31 32 32 32 32 32 31 31 29 29 28 26 26 25 25 25 25 25 27 28 28 28 29 29 30 31 31 31 29 29 29 29 28 28 28 27 27 27 27 27 27 27 27 27 27 27 27 27 27 27 27 27 28 28 28 28 29 29 29 30 30 30 30 30 30 30 31 31 31 32 32 32 33 32 30 30 33 33 34 34 35 38 38 40 40 40 39 38 37 37 37 36 37 40 41 40 41 41 41 39 34 33 34 37 37 37 37 35 33 32 31 32 35 38 38 38 41 44 45 45 41 40 37 38 40 39 36 32 30 30 32 34 34 34 33 33 27 26 26 27 27 32 35 34 36 36 38 39 40 39 38 38 38 39 42 44 45 47 48 48 48 51 52 54 56 57 56 56 54 54 54
6 6 6 6 6 6 6 6 6 6 6 6 6 6 6 6 6 6 6 6 5 5 5 4 4 4 4 5 5 5 6 6 7 7 7 7 7 6 6 6 6 6 5 5 6 6 7 8 8 9 9 8 8 8 8 8 8 8 8 8 8 9 9 9 9 9 11 11 12 14 15 15 15 14 14 13 12 13 12 10 8 7 7 6 6 7 7 7 8 8 9 10 11 9 7 5 5 5 5 6 9 13 16 19 20 20 22 23 24 24 22 19 18 18 17 17 17 16 15 14 14 14 16 17 19 19 19 22 22 23 23 23 23 23 23 23 22 22 21 19 19 18 18 17 16 16 17 17 18 18 17 17 17 18 20 21 21 20 18 18 17 15 14 13 13 13 13 13 12 12 12 12 12 12 12 14 15 14 13 13 13 13 13 13 13 15 17 20 22 24 24 23 21 21 18 16 16 16 17 18 18 17 16 16 16 16 16 14 14 14 14 15 15 15 14 14 15 15 17 20 21 21 20 20 20 21 20 20 18 18 18 19 20 23 24 23 21 21 21 21 21 22 22 23 24 25 28 29 28 28 26 26 26 28 28 30 30 29 24 21 21 23 26 28 29 30 30 29 28 27 26 26 26 26 29 31 31 31 31 29 27 26 23 22 21 21 21 21 23 26 27 28 28 28 27 27 26 25 25 24 23 22 21 21 21 21 21 23 24 23 22 20 20 22 24 25 25 23 20 19 17 17 17 16 16 15 14 14 13 12 12 12 12 13 13 13 13 12 11 11 11 11 13 13 14 15 17 20 21 23 25 27 28 28 29 30 31 32 32 32 32 32 31 31 31 31 31 32 32 31 31 30 30 30 28 28 28 28 28 27 27 27 27 27 28 28 28 28 30 30 30 30 30 30 30 29 29 29 28 28 27 27 27 27 27 27 27 27 27 27 27 27 27 28 28 29 29 29 30 30 29 29 27 27 27 27 27 28 29 30 31 31 30 30 30 29 29 28 28 28 30 31 32 33 35 35 36 37 37 38 38 38 37 37 37 38 39 39 39 39 39 39 39 39 39 39 39 39 39 40 40 39 37 35 34 32 31 32 33 33 32 29 29 27 27 27 26 26 24 24 24 24 24 24 24 25 25 25 25 25 27 29 29 29 29 29 29 28 28 27 26 26 26 26 26 27 28 30 30 30 30 30 30 30 30 30 30 31 32 34 34 35 34 34 33 33 31 31 31 30 30 29 29 27 27 27 27 27 28 29 28 26 26 26 26 26 26 26 29 30 31 31 31 30 30 28 28 28 29 29 29 29 29 29 29 30 30 31 30 30 29 29 28 28 27 27 27 28 28 29 29 29 28 26 25 25 25 25 25 25 26 28 28 28 29 29 29 28 28 27 27 26 26 26 26 26 26 26 26 26 26 27 27 27 27 27 29 29 28 26 26 26 26 25 25 25 26 26 27 27 28 27 27 28 28 27 27 27 26 26 26 26 26 27 27 27 27 27 27 27 26 26 27 27 27 28 28 30 30 29 29 29 28 27 27 28 28 29 30 29 29 29 31 31 28 28 28 29 29 30 30 30 30 30 30 30 30 29 29 29 29 28 28 28 27 27 27 27 28 28 28 27 27 26 26 26 26 26 26 26 25 25 25 26 26 27 27 27 25 25 26 27 26 24 24 24 24 24 24 24 26 27 28 27 27 27 27 27 27 27 28 28 26 26 26 26 26 26 26 26 26 26 27 27 27 27 27 27 27 27 27 27 27 27 27 28 31 32 32 32 32 32 32 32 31 31 29 29 28 27 26 25 25 24 24 24 27 27 28 28 28 29 29 31 31 31 30 30 29 29 29 29 29 28 27 27 27 27 27 27 27 27 27 27 27 27 27 27 27 27 28 28 28 28 29 29 29 30 30 30 30 30 30 31 31 31 32 32 32 33 34 31 30 30 32 33 33 33 35 38 38 39 40 40 40 39 38 38 36 36 36 39 40 40 40 40 40 38 34 33 34 36 37 37 36 35 33 32 31 31 35 38 38 39 41 44 45 44 41 39 37 37 39 38 34 26 26 27 29 32 33 30 29 28 27 26 26 27 27 31 33 33 35 36 39 39 40 39 39 38 39 41 43 45 47 48 49 49 49 51 53 55 57 58 57 56 54 54 53
6 6 6 6 6 6 6 6 6 6 6 6 6 6 6 6 6 6 6 6 5 5 5 4 4 4 4 5 5 5 6 6 7 8 7 7 7 6 6 6 6 6 5 5 6 6 7 8 8 10 10 9 8 9 10 10 10 9 8 8 8 9 9 9 10 10 12 14 15 16 16 15 14 14 14 13 13 14 14 12 9 7 7 7 7 7 7 7 8 8 8 9 10 7 6 5 4 4 4 4 7 13 16 19 20 22 24 26 26 27 23 21 18 18 17 16 16 15 14 14 14 14 16 18 19 19 19 21 21 22 22 22 23 23 22 22 22 22 21 19 19 18 18 18 17 17 17 18 19 18 17 17 17 19 21 22 22 20 18 18 17 16 14 13 13 13 13 13 12 12 13 13 12 12 12 14 15 14 13 13 12 12 12 12 12 14 16 20 21 24 24 22 21 21 19 16 16 16 17 18 18 16 16 16 16 16 16 14 14 14 14 15 16 15 14 15 15 16 18 20 22 22 22 21 21 21 21 20 19 19 19 20 21 24 25 24 21 21 21 21 22 22 23 24 25 26 28 29 28 27 26 26 27 28 29 30 31 30 25 22 21 24 27 29 31 32 32 31 29 28 27 26 26 26 29 31 31 31 31 29 27 26 23 22 21 21 21 21 22 25 27 28 27 27 27 27 26 25 25 23 23 21 21 20 20 20 20 20 21 21 21 20 20 23 25 25 24 23 20 19 17 16 16 16 16 15 14 13 12 11 11 11 11 12 12 13 13 11 11 10 11 12 13 13 15 16 18 20 22 24 26 27 28 28 29 29 30 31 31 31 31 31 30 31 32 32 31 31 31 31 30 29 29 29 28 28 28 28 28 27 27 27 27 27 28 28 28 28 29 30 30 30 30 29 29 29 29 29 28 28 27 27 27 27 27 27 27 27 27 27 28 28 28 28 28 29 29 29 30 30 29 29 27 27 27 27 27 28 29 30 30 30 30 30 30 29 29 28 28 28 29 30 31 32 34 35 35 36 37 37 37 38 37 37 37 37 38 38 38 39 39 39 39 39 39 39 39 39 39 39 39 38 35 34 33 32 32 32 32 32 31 30 29 27 27 27 26 26 23 23 23 23 24 24 24 24 24 24 24 24 25 27 28 28 28 28 28 28 27 27 26 26 26 26 26 27 28 30 31 31 31 31 30 30 30 30 31 32 32 34 34 34 34 33 33 33 31 31 31 30 30 29 29 27 27 27 27 27 28 28 27 26 26 26 26 26 26 26 28 29 30 29 30 30 30 28 28 28 29 29 28 28 28 28 29 30 30 30 30 30 29 29 29 29 28 28 28 28 28 28 28 28 26 25 24 25 25 25 26 26 27 29 29 29 29 29 28 28 27 27 27 26 26 26 26 26 26 26 26 26 26 26 26 26 26 27 28 28 27 26 26 26 26 26 26 26 26 26 27 27 28 27 27 27 27 27 27 27 26 26 26 26 26 27 27 27 26 26 26 26 26 26 27 27 28 29 29 30 29 28 28 28 28 27 27 28 28 29 29 30 30 30 30 30 28 28 28 29 29 30 30 30 30 30 29 30 30 29 29 29 29 28 28 28 28 27 27 28 28 28 28 27 27 26 26 26 26 26 25 25 24 24 24 25 26 27 27 27 26 26 27 28 26 24 24 24 24 24 24 24 26 27 27 26 26 26 26 26 26 27 27 27 27 27 27 27 27 26 26 26 27 27 26 26 27 27 27 27 27 27 27 27 27 27 27 29 32 32 32 32 32 32 32 32 31 31 30 29 28 28 27 25 25 24 24 24 27 27 28 28 28 29 29 31 31 31 30 30 30 30 29 29 29 28 28 27 27 27 27 27 27 27 27 27 27 27 27 27 27 27 27 27 27 28 28 29 29 29 29 29 29 29 30 31 31 31 31 31 31 32 34 31 29 29 31 32 32 33 35 37 37 39 40 40 40 40 39 38 36 35 35 38 39 39 39 39 39 37 33 32 33 36 37 37 36 34 33 32 31 31 35 38 38 38 41 43 43 42 40 38 36 36 37 36 32 26 26 27 27 30 29 27 27 27 27 27 27 27 27 27 28 31 34 36 38 39 40 39 39 39 39 41 44 46 48 49 49 50 51 53 55 57 59 59 58 57 54 53 52
6 6 6 6 6 6 6 6 6 6 6 6 6 6 6 6 6 6 6 6 6 6 5 5 5 5 5 5 5 5 6 6 8 8 8 8 8 7 7 6 6 6 5 5 7 7 7 9 9 10 10 10 10 12 14 15 14 12 11 10 9 9 9 10 11 12 15 16 17 17 16 14 14 14 14 14 14 14 14 13 10 8 8 8 7 7 7 7 8 8 8 9 8 5 5 4 4 4 4 4 6 11 15 17 19 21 24 25 26 26 23 21 18 18 17 16 16 15 14 14 15 16 18 18 19 19 18 20 20 21 21 21 23 23 22 22 22 22 21 19 18 18 18 18 17 17 17 18 19 18 18 17 18 20 21 22 22 20 19 18 18 16 15 14 14 13 13 13 13 13 14 14 13 13 13 13 14 14 13 13 12 12 12 12 12 13 16 19 20 22 23 22 21 21 19 17 16 16 16 17 17 16 15 15 15 15 15 14 14 14 14 15 16 16 16 16 16 17 19 21 22 23 23 22 22 22 21 20 20 20 20 21 21 24 25 25 22 21 21 22 23 24 25 25 26 27 28 29 28 27 26 26 28 29 29 31 31 30 26 23 23 25 28 30 32 33 33 31 30 29 27 27 27 27 30 31 31 31 31 30 28 26 24 22 21 21 21 21 22 24 26 27 27 27 26 26 26 25 25 23 23 21 21 20 20 20 19 19 19 19 19 20 20 23 25 25 24 22 20 18 17 16 16 16 16 14 13 13 11 11 11 11 11 12 12 13 13 11 10 10 10 12 13 15 16 18 20 22 23 25 27 27 29 29 29 29 29 29 29 30 30 30 30 31 32 32 31 31 31 30 29 29 28 28 28 28 28 28 28 27 27 27 27 27 27 27 28 28 29 30 30 29 29 29 29 28 28 28 28 28 27 27 27 27 27 27 27 27 27 27 28 28 28 28 28 29 29 29 30 30 29 29 27 27 27 28 28 29 29 30 30 30 30 30 30 29 29 28 28 27 28 29 31 32 33 34 35 36 36 36 36 37 37 37 37 37 37 37 37 38 38 39 39 39 40 40 40 40 39 39 38 36 35 33 33 33 32 32 31 31 31 30 29 27 27 27 26 25 23 22 22 22 23 23 23 24 24 24 24 24 25 25 26 27 27 27 27 27 26 26 26 26 25 25 26 27 28 30 31 32 32 31 30 30 30 30 31 33 33 34 34 33 33 33 33 33 32 31 31 30 30 29 29 28 27 27 28 28 28 27 27 26 26 26 26 26 26 26 27 27 28 28 28 29 29 29 29 29 29 29 28 28 27 27 28 30 30 30 30 30 30 30 30 30 30 29 29 29 29 28 27 27 25 24 24 25 25 26 26 28 29 29 30 30 29 29 28 27 27 26 26 26 25 25 25 25 25 25 25 26 26 26 26 26 26 27 28 27 26 26 26 26 26 26 26 26 26 26 27 27 28 28 28 27 27 27 27 27 27 27 27 27 27 28 28 27 26 26 26 26 26 26 27 28 28 30 30 30 29 28 27 27 28 28 28 28 28 29 29 30 31 31 29 28 28 28 28 28 28 29 29 30 29 29 29 29 30 29 29 29 29 29 29 29 28 28 28 28 28 28 28 28 28 26 26 26 26 26 25 25 23 23 23 25 25 27 27 28 28 28 28 28 27 25 25 24 24 24 24 24 26 27 26 26 26 26 26 26 26 27 27 27 27 27 27 27 27 27 27 27 27 27 26 26 27 27 27 27 27 27 27 27 27 27 28 32 33 33 33 33 33 32 32 32 31 31 30 30 29 28 28 26 25 24 24 24 27 27 28 28 28 29 29 31 31 31 30 30 30 30 29 29 29 28 28 27 27 27 27 27 27 28 27 27 27 27 27 27 27 27 27 27 27 27 28 29 29 29 29 29 28 28 29 30 30 30 30 30 30 32 33 31 29 29 30 31 31 33 34 37 37 38 39 40 41 41 39 39 36 34 34 36 37 38 38 38 37 35 32 32 33 36 37 37 36 35 34 33 32 32 34 37 37 37 39 42 41 40 38 38 37 35 35 33 30 27 27 27 27 27 27 27 27 27 27 27 27 27 27 27 27 27 32 35 37 38 39 40 40 40 40 42 44 46 49 50 51 51 52 54 56 59 61 61 58 57 55 53 50
6 6 6 6 6 6 6 6 6 6 6 6 6 6 6 6 6 6 6 6 6 6 5 5 5 5 5 5 5 5 7 7 8 8 8 8 8 7 7 6 6 6 6 6 7 7 8 8 8 10 10 11 13 15 16 16 16 16 15 13 11 10 10 11 12 14 16 17 17 17 16 14 14 14 14 14 13 13 13 12 10 10 10 9 8 7 7 8 9 10 10 9 8 5 5 5 5 4 4 4 6 8 12 15 16 19 22 24 25 26 23 20 17 17 16 16 15 15 14 14 16 17 19 19 19 18 17 18 19 19 19 20 22 22 22 21 21 21 21 18 18 18 18 18 17 17 17 18 19 18 18 18 18 20 21 22 22 21 20 19 18 17 16 15 14 14 14 14 14 14 15 15 14 12 12 12 13 14 14 13 13 12 12 12 12 13 14 17 18 20 21 21 21 21 20 18 16 15 15 15 16 15 14 14 15 15 15 15 15 14 14 15 17 17 17 17 17 18 20 22 22 23 23 23 23 23 21 20 20 20 21 22 22 24 25 24 22 21 21 23 24 25 26 26 27 28 28 29 28 27 27 27 29 29 30 31 32 31 26 24 23 25 29 31 32 34 33 31 30 29 27 27 27 28 30 31 32 32 31 30 28 26 24 23 22 21 21 21 22 24 25 27 26 26 26 26 26 25 25 23 23 21 21 20 20 20 19 19 19 19 19 20 20 21 23 23 22 20 19 18 17 16 16 16 16 14 14 13 12 12 11 11 12 13 13 13 13 11 10 10 10 11 13 16 19 21 23 23 24 26 27 27 29 29 29 30 30 29 29 29 29 29 30 30 31 31 30 30 30 29 29 29 28 28 28 28 28 28 28 27 27 27 27 27 27 27 27 27 28 29 29 29 29 28 28 27 28 28 28 28 27 28 28 27 27 27 27 27 27 27 28 28 28 28 28 28 28 30 31 31 30 30 28 28 28 28 28 29 29 30 30 30 29 29 29 28 28 28 28 27 28 28 30 31 32 33 34 35 35 36 36 37 37 37 37 37 37 37 37 38 38 38 38 39 40 40 40 40 39 38 38 36 34 32 32 32 31 31 30 30 30 30 29 27 27 26 26 25 22 22 22 22 22 23 23 24 24 24 24 24 25 25 25 26 27 26 27 27 26 25 25 25 25 25 25 27 27 30 31 33 32 32 30 30 30 30 31 33 33 34 34 33 33 33 33 33 32 31 31 31 31 30 30 28 28 28 28 28 28 27 27 27 26 26 26 26 26 26 27 27 28 28 28 29 29 29 28 28 28 28 28 28 27 27 27 29 29 29 29 29 29 29 29 29 29 28 28 28 28 27 27 27 25 24 24 25 25 26 27 28 29 29 30 29 29 28 28 27 27 26 26 26 25 25 25 25 25 25 25 26 26 26 26 26 26 26 28 26 26 26 26 26 26 26 26 26 27 27 27 27 27 27 27 27 27 27 27 27 27 27 27 27 27 27 27 26 26 25 25 25 25 26 27 28 28 29 29 29 28 27 27 27 28 27 27 27 27 29 29 29 30 30 28 28 28 28 28 28 28 28 29 29 29 28 28 28 29 29 28 28 28 29 29 29 28 28 28 27 27 27 27 27 27 26 26 26 26 26 25 25 23 23 23 25 25 27 27 28 29 29 28 28 26 25 25 24 24 23 24 24 26 27 26 25 25 25 25 26 26 27 27 27 27 27 27 27 27 27 27 27 27 27 27 27 27 27 27 27 27 27 27 27 27 27 30 33 33 33 33 33 33 32 32 32 31 31 30 30 29 28 28 26 25 24 24 25 27 28 28 28 29 29 30 31 31 30 30 29 29 29 29 28 28 28 28 28 28 27 27 27 28 28 28 28 28 27 27 27 27 27 27 27 27 27 28 28 28 28 28 28 28 27 28 29 29 29 29 29 30 32 33 31 29 29 30 30 31 33 34 37 37 38 39 40 41 41 39 39 36 34 33 34 36 37 37 36 35 33 32 32 32 36 38 37 37 36 35 34 33 33 34 37 37 37 38 40 38 36 36 37 37 34 32 30 28 27 27 27 27 27 27 27 27 27 27 27 27 27 27 27 27 27 31 34 37 38 39 39 39 40 41 43 45 47 50 51 52 53 55 56 58 60 61 61 58 57 55 52 49
6 6 6 6 6 6 6 6 6 6 6 6 6 6 6 6 6 6 6 6 6 6 5 5 5 5 5 5 5 6 7 7 8 8 9 8 8 7 7 6 6 6 6 6 7 7 8 8 9 10 11 12 16 16 17 17 17 17 18 16 13 11 11 12 13 15 16 16 17 17 15 14 14 13 13 13 13 13 12 11 10 12 13 12 9 7 7 8 10 11 10 8 7 5 5 5 5 5 5 5 6 7 9 12 15 18 22 23 25 25 22 20 17 17 15 15 15 14 14 15 18 20 21 21 18 18 17 17 17 17 17 20 21 22 21 21 20 20 20 18 18 18 18 18 18 18 18 19 19 19 19 19 19 20 20 22 22 22 20 20 19 18 17 16 16 15 15 15 15 15 15 15 14 12 12 12 12 14 14 14 14 13 13 13 13 13 13 16 17 18 19 20 21 21 20 19 17 14 14 14 14 14 14 14 15 15 15 15 16 16 16 16 17 17 18 18 18 19 20 22 22 23 23 23 23 23 21 21 21 21 21 23 23 25 25 24 23 23 23 24 26 27 27 28 28 29 29 29 28 28 28 29 29 31 31 32 32 31 27 25 24 25 29 32 32 34 34 31 30 29 28 28 28 28 30 31 32 32 32 30 28 26 25 24 23 22 21 21 22 25 25 26 26 26 26 26 26 25 25 23 23 22 21 20 20 20 19 19 19 19 19 20 20 20 21 20 20 18 18 18 17 16 16 16 16 14 14 14 13 13 12 12 12 14 14 13 13 11 10 10 10 11 14 17 22 24 25 26 27 27 28 28 29 30 30 30 30 29 29 29 29 29 29 29 30 30 30 29 29 28 28 29 29 29 28 28 27 27 27 27 27 26 26 26 27 27 27 27 28 29 29 28 28 27 27 27 27 27 28 28 28 29 29 28 28 27 27 27 28 28 29 29 28 28 28 28 28 30 32 32 30 30 29 29 29 29 29 29 29 30 30 30 28 28 28 28 28 28 28 27 27 27 28 29 30 31 32 33 34 35 35 36 37 37 37 37 37 37 37 37 37 38 38 39 40 40 40 40 39 38 37 34 33 32 32 32 31 31 30 30 29 29 28 27 27 26 25 25 23 22 22 22 22 23 23 24 24 24 24 24 25 25 25 25 25 25 25 26 26 25 24 24 24 24 25 26 27 30 31 32 32 32 30 30 30 30 31 32 33 34 34 34 33 33 33 33 31 31 31 31 31 31 30 28 28 28 28 28 28 28 28 27 27 27 27 27 27 27 27 27 28 28 28 29 29 29 28 28 27 27 27 27 27 27 27 28 28 29 28 27 27 28 28 28 28 28 28 28 28 27 27 27 25 25 25 26 27 28 28 28 28 29 28 28 27 27 27 27 27 26 26 26 25 25 24 24 24 25 25 26 26 26 26 26 25 25 26 26 25 25 25 26 26 26 26 26 27 27 27 27 27 27 27 27 27 27 27 27 27 27 27 27 27 27 27 26 25 25 25 25 25 25 27 27 28 28 28 28 27 27 27 27 27 27 27 27 27 29 29 29 29 29 28 28 28 28 28 28 28 28 28 28 28 28 28 28 28 28 28 28 28 29 29 29 28 28 27 27 26 26 26 26 26 26 26 26 26 26 25 25 24 24 24 25 25 26 27 27 28 28 27 27 26 24 24 24 24 23 24 24 26 27 26 25 24 25 25 26 26 27 27 27 27 27 27 27 27 27 27 27 27 27 27 27 27 27 27 27 27 27 27 27 27 27 32 33 33 33 33 32 32 32 32 31 31 31 30 30 29 28 28 26 26 26 26 26 28 28 29 29 29 30 30 31 31 30 29 29 29 29 28 28 28 28 28 28 28 28 28 28 29 29 28 28 28 27 27 27 27 27 27 27 27 27 27 27 27 27 27 27 27 27 27 27 27 27 27 28 30 32 32 30 29 29 30 30 31 32 34 36 36 37 38 40 41 41 40 39 36 33 31 32 34 36 36 35 34 33 32 32 33 37 39 38 38 37 36 36 36 35 35 37 37 37 37 38 36 34 34 37 37 34 30 27 27 27 27 27 27 27 27 27 27 27 27 27 27 27 27 27 27 27 31 34 37 37 38 39 39 41 42 44 45 49 51 52 53 54 57 58 59 60 60 60 58 56 54 51 49
6 6 6 6 6 6 6 6 6 6 6 6 6 6 6 6 6 6 6 6 6 6 5 5 5 5 5 5 5 6 7 7 8 8 8 8 8 7 7 7 7 7 7 7 8 8 8 9 9 10 11 13 16 17 18 18 17 17 18 17 16 13 14 16 16 16 16 16 16 15 15 14 14 13 13 13 13 13 11 11 10 11 13 14 11 8 8 8 9 10 10 7 6 5 5 5 5 5 5 5 6 7 9 10 13 16 20 22 24 23 21 19 17 17 16 15 15 14 14 16 20 21 21 21 19 18 18 17 17 17 17 19 20 21 20 20 19 20 20 19 18 18 18 18 18 18 19 19 19 19 19 19 19 20 20 21 23 22 21 20 19 19 18 17 17 16 15 15 15 15 15 15 14 12 12 12 12 14 14 14 14 14 13 13 13 13 13 14 15 16 17 19 20 21 20 19 17 14 14 14 14 14 14 15 15 15 15 16 17 17 17 17 17 17 18 18 19 19 21 22 22 22 22 22 23 23 22 22 22 22 22 23 23 24 24 23 23 23 23 25 27 28 28 29 29 29 29 29 28 28 29 30 30 31 31 32 32 31 28 25 25 26 29 31 32 33 33 31 31 30 28 28 29 29 30 31 31 32 31 29 27 26 25 25 23 22 21 22 22 24 25 26 26 26 26 26 25 25 25 23 23 22 22 20 20 20 19 19 19 19 19 19 19 19 19 19 18 17 18 17 17 16 15 15 15 14 14 14 14 13 13 13 13 13 13 13 12 11 9 9 10 12 14 19 25 27 27 27 28 28 28 28 29 30 29 29 29 28 28 28 28 28 29 29 29 29 29 29 28 28 28 29 28 28 28 27 26 26 26 26 26 26 26 26 27 27 27 27 28 29 29 28 27 27 27 27 27 27 27 27 27 29 29 28 28 27 27 27 28 28 28 28 27 27 27 28 28 30 31 31 30 30 29 29 29 29 29 29 29 29 29 29 28 28 28 28 28 27 27 27 27 27 27 28 29 30 31 33 34 34 35 36 36 36 36 36 36 36 36 36 37 37 37 38 40 40 39 39 38 38 36 34 33 32 32 31 30 30 29 29 28 28 28 27 27 26 25 25 23 22 22 22 22 23 24 25 24 24 24 24 24 24 24 24 24 24 25 25 25 24 23 23 24 24 25 26 27 30 31 32 32 32 31 31 30 30 31 32 32 34 34 34 33 33 32 32 31 31 31 31 31 31 30 28 27 27 28 28 28 28 28 28 28 28 27 27 27 27 27 27 28 28 28 29 29 28 27 27 27 27 27 27 27 27 27 28 28 28 28 27 27 27 27 27 27 27 27 27 27 26 26 26 26 26 26 27 28 28 28 27 27 28 28 27 27 27 27 27 27 26 26 26 25 25 24 24 24 25 25 27 27 26 26 26 25 25 25 25 24 25 25 26 26 26 26 26 27 27 26 26 26 26 26 27 27 27 27 27 26 26 26 26 26 27 27 25 24 24 24 24 25 25 27 27 27 27 27 27 27 27 27 27 27 27 27 26 26 28 28 28 28 28 28 28 28 28 28 28 28 27 27 27 27 27 27 27 27 27 27 27 27 28 28 28 27 27 26 26 26 25 25 25 25 25 25 25 26 26 26 25 24 24 24 25 25 26 27 27 28 28 27 26 25 24 24 23 23 23 24 24 26 27 27 26 24 24 25 27 27 27 27 27 27 27 27 27 27 27 27 27 27 27 27 27 27 27 27 27 27 27 27 27 27 28 32 33 33 33 33 32 32 31 31 31 31 31 30 30 30 29 28 27 27 26 27 27 28 28 29 29 30 31 31 31 31 30 29 29 29 29 28 28 28 28 28 28 28 28 28 28 29 29 28 28 28 27 27 27 27 27 27 27 27 27 27 27 27 27 27 27 27 27 27 27 27 27 27 28 30 32 32 30 29 29 30 31 31 32 33 35 36 36 37 40 41 41 40 39 36 32 30 30 32 34 36 34 33 33 32 32 33 38 39 39 39 38 37 37 37 36 36 38 38 37 37 37 36 34 34 37 37 33 28 27 27 27 27 27 27 27 27 27 27 27 27 27 27 27 27 27 27 27 31 34 36 37 37 38 39 41 42 45 47 50 53 54 54 56 58 60 60 60 60 58 56 54 52 50 49
6 6 6 6 6 6 6 6 6 6 6 6 6 6 6 6 6 6 6 6 6 6 5 5 5 6 6 6 6 6 7 7 7 7 7 7 7 7 7 7 7 7 8 8 8 8 8 8 8 10 11 15 17 17 18 18 17 17 17 17 17 16 17 17 17 17 16 16 15 15 15 14 14 14 14 13 13 13 12 11 10 11 13 14 13 10 8 8 8 8 8 6 6 5 5 5 5 5 7 8 8 9 9 10 12 15 18 21 21 20 18 17 17 17 16 15 15 15 16 18 21 21 21 21 19 19 18 18 18 17 17 19 19 19 18 18 18 19 21 19 19 19 19 20 20 20 19 19 19 19 19 19 19 20 20 21 23 23 22 21 20 19 19 18 18 16 16 16 16 16 15 14 13 12 12 12 12 13 14 14 14 14 14 13 13 13 13 14 14 15 16 18 19 19 19 18 17 15 15 15 15 15 16 16 16 16 17 18 18 18 18 18 18 18 19 19 20 20 21 22 22 22 22 22 22 22 22 22 22 22 22 24 24 24 24 23 23 23 24 26 28 30 30 29 29 29 29 29 29 29 31 31 31 32 32 33 33 31 29 26 26 26 28 30 31 32 32 31 31 31 30 29 30 30 31 30 30 30 29 29 26 25 25 25 23 23 22 22 22 24 24 26 26 26 26 26 25 24 24 23 22 22 22 21 21 21 19 19 19 19 19 19 19 18 18 17 17 17 17 17 16 15 15 15 15 14 15 15 15 15 14 14 14 13 13 12 11 11 9 9 10 13 16 20 26 29 29 28 28 28 28 28 28 28 29 28 28 27 27 27 28 28 29 29 29 29 29 27 27 28 28 28 28 27 27 26 25 25 25 25 25 25 25 26 27 27 27 27 28 29 29 28 27 27 27 27 27 27 27 27 27 28 28 27 27 27 27 27 27 27 28 28 27 27 27 28 28 30 31 31 30 30 29 29 29 28 28 28 28 28 29 29 28 28 28 27 27 27 27 27 27 27 26 26 27 28 30 32 32 34 34 36 36 36 36 36 36 36 36 36 36 36 37 38 39 39 39 38 38 37 36 33 33 32 32 31 30 30 29 29 28 27 27 27 27 26 25 25 23 23 23 23 23 23 24 25 24 24 25 25 24 24 24 24 24 24 24 24 24 23 23 23 24 24 25 26 27 30 30 32 33 33 31 31 31 31 31 32 32 34 34 34 34 34 33 32 31 31 31 31 31 30 29 27 27 27 27 27 28 28 28 28 28 28 28 28 28 28 28 28 28 28 28 29 29 27 26 26 27 27 27 27 28 28 28 28 28 28 27 27 27 27 27 27 27 27 27 26 26 26 26 26 27 27 27 28 28 28 28 27 27 27 27 27 27 27 27 27 27 25 25 25 25 25 24 24 24 25 25 27 27 26 26 26 25 25 24 24 24 25 25 26 26 26 26 26 27 27 26 26 26 26 26 27 27 28 27 27 26 26 26 26 26 27 27 25 24 24 24 24 25 25 27 27 27 27 27 27 27 27 27 27 27 27 27 26 26 28 28 28 28 28 28 28 28 28 28 28 28 27 27 27 26 26 26 26 26 26 26 26 26 27 27 27 27 27 26 26 25 25 25 25 25 25 25 25 26 27 27 27 25 24 24 25 25 26 27 27 27 28 26 26 25 24 24 23 23 23 24 25 27 27 27 27 25 24 25 27 27 27 27 27 27 27 27 27 27 27 27 27 27 27 27 27 27 27 27 27 27 27 27 27 27 29 31 32 32 32 32 32 32 31 31 31 31 31 31 31 30 30 29 28 28 28 29 29 29 29 29 29 30 32 32 32 32 30 29 29 29 29 28 28 28 28 28 29 29 29 29 29 29 29 29 29 29 28 28 27 27 27 27 27 27 27 27 27 27 27 27 27 27 27 27 27 27 27 27 28 30 32 32 30 29 29 30 31 32 33 33 35 35 35 37 40 43 43 40 38 34 31 29 29 31 33 34 34 34 34 33 32 34 38 40 40 40 40 39 39 39 38 37 38 38 38 38 37 36 34 34 36 36 32 27 27 27 27 27 27 27 27 28 29 30 28 27 27 27 27 27 27 27 29 33 34 35 35 36 38 39 41 43 46 48 51 54 56 56 57 59 61 62 60 58 56 54 53 50 49 48
6 6 6 6 6 6 6 6 6 6 6 6 6 6 6 6 6 6 6 6 6 6 5 5 5 6 6 6 6 6 7 7 7 7 7 6 6 7 7 7 7 7 8 8 8 8 8 8 8 10 11 15 17 17 17 17 17 17 17 17 17 17 17 17 16 16 16 16 15 14 14 13 13 13 13 13 14 14 14 12 11 12 13 13 13 12 9 7 7 8 7 6 6 5 5 4 4 4 7 10 10 10 10 11 11 13 16 19 18 17 16 16 16 17 16 15 14 15 17 19 21 22 21 20 19 19 19 19 18 18 18 18 18 18 16 16 16 19 22 20 19 19 19 22 22 21 18 18 19 19 19 19 19 20 20 21 23 23 22 21 20 20 20 19 19 17 16 16 16 16 14 13 12 12 12 13 13 13 13 13 14 14 14 14 13 13 13 14 14 15 15 16 17 18 19 17 17 16 16 16 17 16 16 17 18 18 18 18 19 19 19 19 19 19 19 19 20 20 21 22 22 22 22 22 22 22 22 22 23 23 23 24 24 23 23 23 23 23 24 27 30 31 30 29 29 29 29 29 29 30 32 32 32 33 33 33 33 31 29 28 26 26 27 28 29 30 31 31 31 32 32 31 30 30 30 30 29 28 28 28 26 25 24 24 23 23 22 22 22 24 25 26 27 27 27 26 24 24 23 22 21 21 21 22 22 22 21 19 19 19 19 19 19 18 18 17 17 17 17 17 16 15 15 15 15 14 14 14 16 16 16 15 14 13 13 12 11 11 10 9 10 14 18 23 26 28 28 27 27 27 27 27 27 28 28 28 27 27 26 26 27 27 28 29 29 29 28 27 27 27 27 27 27 26 26 25 24 24 24 24 24 24 25 26 27 27 28 28 29 29 29 28 27 26 26 27 27 27 26 26 26 27 27 26 26 26 27 27 27 27 28 28 27 27 27 28 28 29 30 30 30 29 28 28 28 28 28 28 28 28 28 28 28 28 28 27 27 26 26 27 27 27 26 26 27 28 30 31 32 33 34 36 36 35 35 35 35 35 35 35 35 35 36 37 38 38 38 37 37 36 35 33 33 31 31 30 29 29 28 28 27 27 27 27 27 26 25 25 23 23 23 23 23 23 24 24 23 24 25 25 25 24 24 24 24 24 24 24 24 23 23 23 24 25 26 26 28 30 31 32 33 33 32 31 31 31 31 32 32 34 34 35 35 35 33 32 31 31 31 30 30 30 28 27 27 27 27 27 27 27 27 27 27 27 27 27 27 27 28 28 28 28 28 28 28 27 25 25 27 27 27 28 28 28 28 28 28 28 27 27 27 27 27 27 27 26 26 25 25 25 25 26 26 26 27 28 28 28 28 27 27 27 27 27 27 27 27 26 26 25 25 25 25 25 24 24 24 25 25 27 27 27 27 25 25 25 24 24 25 25 25 26 26 26 26 26 26 26 26 26 26 25 25 26 26 27 27 26 26 25 25 26 26 26 26 25 24 24 24 24 25 25 27 27 27 27 27 27 27 27 27 27 27 27 27 26 26 27 27 27 27 27 28 28 28 28 28 27 27 27 27 26 26 26 26 26 26 26 26 26 26 27 27 27 27 27 26 26 25 25 25 25 25 25 25 26 27 27 27 27 26 24 24 25 25 26 27 27 27 27 26 26 25 24 24 24 24 24 24 25 27 28 28 28 26 25 25 27 27 27 27 27 27 27 27 27 27 27 27 27 27 27 27 27 27 27 27 27 27 27 27 27 29 29 31 32 32 31 31 31 31 31 31 31 31 31 31 31 31 30 29 28 28 29 29 30 30 29 29 29 31 32 32 32 32 31 30 29 29 29 29 28 28 28 28 29 29 29 29 29 29 29 29 29 29 29 29 28 27 27 27 27 27 27 27 27 27 27 27 27 27 27 27 27 27 27 27 28 29 31 31 29 29 29 31 32 33 34 34 35 35 35 37 41 44 44 40 36 34 30 29 29 29 30 32 33 35 35 34 33 34 38 40 41 41 41 41 41 40 40 39 39 39 38 38 37 35 34 34 36 36 29 26 27 27 27 27 27 27 28 30 31 31 30 28 27 27 27 27 27 28 31 34 35 35 35 35 38 39 41 43 46 49 51 55 56 57 58 59 61 62 60 56 53 52 51 49 48 48
6 6 6 6 6 6 6 6 6 6 6 6 6 6 6 6 6 6 6 6 6 6 5 5 5 5 5 6 6 6 6 6 6 6 7 6 6 7 7 7 7 7 8 8 8 8 8 8 9 10 11 15 17 17 17 17 17 16 16 17 16 16 16 16 16 16 15 15 14 14 13 13 13 13 13 13 14 14 15 14 12 12 13 13 13 13 11 8 7 8 7 6 6 6 6 5 4 4 8 10 12 12 10 10 11 12 15 17 15 13 13 14 15 16 16 14 14 15 18 20 22 22 20 19 19 19 20 20 20 20 19 17 16 16 14 14 16 20 22 21 20 20 20 22 23 21 18 18 19 19 19 19 19 20 20 21 23 23 23 22 20 21 21 20 20 18 17 17 16 16 13 13 12 12 12 13 13 13 13 13 14 14 15 15 15 14 14 14 14 15 15 15 16 17 17 17 17 16 16 17 18 18 18 18 19 20 20 20 20 20 20 19 19 19 19 19 21 21 21 22 22 22 22 22 22 22 23 23 23 24 24 24 24 23 23 23 23 23 25 27 30 31 31 29 29 29 29 29 30 30 33 33 33 34 34 33 33 31 29 29 27 27 27 27 27 29 29 31 32 33 34 32 31 31 30 29 28 26 26 26 26 26 24 24 23 23 22 22 22 23 25 27 27 28 27 26 24 23 23 21 21 21 22 23 24 23 22 21 20 20 19 19 19 18 18 17 17 17 16 16 15 15 15 15 15 14 14 14 16 16 16 15 14 13 13 11 11 11 11 11 12 15 19 24 26 28 28 27 27 27 27 27 27 27 27 27 27 26 26 25 25 26 27 28 29 29 27 27 27 27 27 27 26 25 25 25 23 22 21 21 22 24 25 26 27 27 28 28 29 29 29 27 26 26 26 26 26 26 26 26 26 26 26 26 26 26 27 27 27 27 28 28 27 27 27 28 28 28 29 29 29 28 27 27 27 27 27 28 28 28 28 28 29 29 28 27 27 26 26 27 27 27 27 27 28 28 29 31 31 33 34 35 35 34 35 35 34 34 34 34 34 34 35 36 37 37 36 36 35 35 34 33 33 31 31 30 29 29 28 28 27 27 27 27 27 26 26 26 24 24 24 24 24 24 24 23 23 23 25 26 25 24 24 24 24 24 24 24 24 23 23 23 25 25 26 27 28 31 31 32 33 33 33 33 33 32 32 33 33 34 34 35 35 35 33 33 31 31 31 30 30 29 27 27 27 27 26 26 26 26 26 26 26 26 26 26 27 27 28 28 28 27 27 26 26 25 24 24 26 27 28 28 29 29 29 28 28 28 27 27 27 27 27 27 27 25 25 24 24 24 24 24 25 26 26 28 28 28 28 27 27 27 27 27 27 27 26 26 25 25 25 25 25 25 25 25 25 26 26 27 27 27 27 25 25 25 24 24 24 25 26 26 26 26 26 26 26 26 26 26 26 25 25 26 26 27 26 25 25 25 25 25 26 26 26 24 24 24 24 24 25 25 27 27 27 27 27 27 27 27 27 27 27 27 27 26 26 27 27 26 26 26 27 27 28 28 28 27 27 27 27 26 26 26 26 26 26 26 26 26 26 27 27 27 27 27 26 26 26 25 25 25 25 26 27 28 28 28 27 27 26 24 24 25 25 26 26 26 27 27 25 25 25 24 24 25 25 25 25 26 28 28 29 29 27 27 26 27 27 27 27 27 27 27 27 27 27 27 27 27 27 27 27 27 27 27 27 27 27 27 28 29 29 30 30 30 30 30 30 30 30 31 31 31 31 31 31 31 31 30 30 29 29 30 31 31 30 30 29 29 31 32 32 32 32 31 31 30 29 29 29 29 29 29 29 29 29 29 30 30 30 30 30 30 30 30 30 28 28 27 27 27 27 27 27 27 27 27 27 27 27 27 28 28 28 28 28 28 29 31 31 29 29 30 32 34 35 35 35 35 35 35 36 41 44 44 40 35 31 29 29 29 29 29 31 33 36 37 36 34 35 38 39 41 41 42 43 43 42 41 41 40 40 39 39 36 34 34 34 35 34 29 26 27 27 27 27 27 27 29 32 32 31 30 29 27 27 27 27 27 30 32 35 36 35 35 36 38 39 40 41 45 49 51 55 56 58 59 59 60 60 58 54 51 50 49 47 47 48
