ncols         862
nrows         31
xllcorner     -77.5
yllcorner     38.75718
cellsize      1.0E-5
NODATA_value  -9999
94 94 94 95 95 94 94 94 94 94 93 93 93 92 92 92 91 91 91 91 91 90 90 90 89 89 89 89 88 88 88 88 88 88 88 87 87 87 87 87 87 87 87 87 87 87 87 87 86 86 86 86 85 85 85 85 85 85 87 89 88 88 88 88 88 88 89 89 89 89 88 88 88 87 87 87 87 87 86 86 86 85 85 84 84 84 84 84 84 84 83 83 82 82 82 82 80 79 82 83 83 83 84 84 84 85 85 86 86 86 86 86 83 82 82 83 83 84 84 85 85 85 85 85 85 86 86 86 86 86 86 87 87 87 87 87 87 87 87 87 86 86 87 88 88 88 88 88 88 88 88 88 88 88 88 88 88 87 86 86 86 86 86 87 87 87 87 87 88 88 88 88 88 89 88 88 88 89 89 89 89 89 90 90 90 89 89 89 89 88 88 87 86 85 85 85 87 89 89 90 91 92 93 94 94 95 95 95 95 94 94 94 95 95 95 95 96 96 97 97 97 97 97 98 98 98 98 98 97 97 99 100 100 100 98 98 97 97 98 98 98 99 99 99 100 101 102 103 104 104 105 105 105 104 102 102 102 102 102 102 103 104 105 107 109 110 111 111 112 114 115 115 114 113 113 114 115 115 114 114 114 114 114 114 115 116 116 117 118 118 119 119 120 120 120 121 121 121 121 121 122 123 124 126 126 125 125 125 125 125 126 126 126 126 125 125 124 124 123 123 123 121 119 117 116 115 115 115 115 114 114 114 114 113 112 112 112 111 111 111 111 110 110 110 110 109 109 108 108 108 109 110 110 110 110 110 110 109 108 107 105 105 105 106 106 108 110 112 112 113 113 113 113 113 114 114 114 114 114 114 115 114 112 112 113 114 115 116 118 120 121 123 122 120 119 118 117 117 117 118 119 121 123 124 125 127 127 128 129 130 130 130 131 132 133 133 133 133 133 133 133 133 133 133 132 131 129 126 124 122 122 122 122 122 122 121 121 121 122 122 120 118 117 118 118 118 117 116 115 115 113 112 111 111 110 108 106 104 103 105 108 112 114 115 115 115 115 115 115 115 115 115 115 116 116 116 116 115 113 111 106 103 105 110 115 117 116 113 110 109 109 109 111 112 110 108 107 106 107 106 105 102 98 97 99 101 103 104 105 107 108 109 109 109 110 111 112 113 111 109 107 106 107 108 109 110 109 108 107 105 101 98 96 97 96 95 97 99 98 97 99 102 101 100 98 98 99 100 100 100 100 100 100 101 102 103 103 103 104 105 106 107 107 106 104 104 103 103 102 101 101 99 97 94 94 95 94 90 87 87 87 87 85 84 82 81 81 80 77 72 67 63 61 60 60 59 58 58 58 58 58 59 59 60 62 65 68 73 76 76 73 67 63 62 62 61 61 61 63 64 66 69 72 75 77 79 81 83 84 82 81 81 81 81 84 87 87 86 85 88 90 92 94 94 95 96 96 97 96 94 93 91 88 86 87 89 90 89 88 89 91 94 96 98 100 100 100 99 99 101 103 105 107 108 109 110 111 113 113 111 110 110 112 114 115 115 113 110 108 107 105 103 102 102 102 102 103 105 106 106 104 101 101 100 101 103 105 109 111 114 117 122 124 118 112 106 101 96 93 92 93 98 101 103 103 103 102 100 96 94 93 90 84 79 76 77 79 81 84 85 88 90 91 94 95 96 96 95 94 95 98 101 103 104 105 106 108 108 109 108 108 107 106 103 101 100 99 99 99 98 96 94 90 88 87 87 88 89 92 94 93 88 87 89 91 92 94 95 96 96 97 97 97 96 91 88 86 86 87 89 88 82 76 73 79 84 84 81 80 80 82 83 85 88 90 92 95 98 99 99 98 97 95 94 92 91 90 88 87 86 84 83 82 81 81 79 78 78 77 79 83 86 87 85 79 74 73 77 75 73 69 63 62 68 78 75 71 69 71 76 78 80
94 94 94 95 95 94 94 94 94 94 94 94 93 93 92 92 92 91 91 91 91 91 90 90 90 89 89 88 88 88 88 88 88 88 88 87 87 87 87 87 87 87 87 87 87 87 87 87 86 86 87 86 86 86 85 85 85 85 87 89 88 88 88 88 88 88 89 89 89 88 88 88 88 87 87 87 87 87 86 86 85 85 85 84 84 84 84 84 84 84 84 83 83 82 82 82 80 79 82 83 83 83 84 84 84 85 85 86 86 86 86 86 83 82 82 83 84 84 84 85 85 85 85 85 86 86 86 86 86 86 86 87 87 87 87 87 87 87 86 86 86 86 87 87 87 87 87 87 87 87 87 87 87 87 87 88 88 87 86 86 86 86 86 87 87 87 87 87 88 88 88 88 88 89 88 88 88 89 89 89 89 89 89 90 90 89 89 89 89 88 88 88 87 86 85 85 87 89 89 90 91 92 93 94 94 94 94 94 94 94 95 95 95 95 95 95 96 96 96 96 97 97 97 98 98 99 99 98 98 99 101 102 102 101 99 98 98 98 98 98 98 99 99 99 100 101 102 103 103 104 104 104 104 103 102 101 102 102 102 103 104 105 106 108 110 110 111 112 113 114 115 115 114 114 114 114 115 115 114 114 114 114 114 115 116 116 117 117 118 119 119 120 120 120 121 121 121 121 121 121 122 123 125 126 126 125 125 125 125 125 126 126 126 126 125 124 124 123 123 122 121 120 118 117 117 116 115 115 115 114 113 113 112 112 112 112 112 111 111 111 110 110 110 110 109 109 108 108 108 109 110 111 111 110 110 110 110 109 108 106 105 105 106 106 106 108 110 111 112 112 112 112 113 114 114 114 114 114 114 116 116 115 113 112 113 114 115 116 118 120 122 124 123 121 119 118 118 118 118 118 120 121 123 124 126 127 127 129 130 131 132 133 133 133 133 133 133 133 133 133 133 132 132 132 132 131 130 128 126 125 124 123 123 123 122 122 122 122 121 121 120 119 119 119 118 118 117 115 115 115 113 111 110 110 108 106 105 104 105 107 110 113 115 116 115 115 115 115 115 115 115 115 115 116 116 117 116 115 114 113 110 106 105 110 115 118 117 115 112 110 109 109 110 112 111 109 109 109 109 108 106 103 99 98 100 103 105 106 107 108 110 111 112 111 111 111 112 113 112 111 109 107 106 108 109 110 110 109 108 106 104 101 101 103 101 98 98 101 101 99 99 102 102 101 100 99 99 100 101 101 101 101 101 101 102 103 103 103 102 102 103 105 107 107 105 105 106 105 102 101 100 99 96 94 93 95 95 92 89 88 88 88 87 86 85 84 84 84 82 78 74 69 64 61 60 58 58 58 58 58 59 59 59 60 62 65 69 74 76 75 72 68 64 63 62 61 61 61 61 62 64 66 68 71 74 76 80 84 84 82 79 78 77 81 84 83 82 82 85 88 90 92 93 94 95 95 96 96 97 96 93 91 88 85 85 87 88 87 87 90 93 96 97 97 97 96 96 96 98 100 102 104 107 109 109 109 110 111 113 113 112 112 112 114 115 114 112 110 108 108 107 105 103 102 102 102 103 105 106 107 105 103 103 102 102 102 105 109 113 116 119 125 125 118 111 104 99 96 95 94 95 98 101 103 103 102 100 97 94 91 90 87 83 80 77 77 79 80 81 83 87 90 92 93 93 94 95 95 95 96 98 101 102 104 105 107 109 110 110 109 108 108 106 104 103 101 100 100 100 98 95 93 90 88 87 90 91 92 94 95 94 88 90 90 92 93 94 95 96 97 97 97 97 97 93 89 87 88 87 86 83 78 75 73 80 88 89 86 84 85 87 89 90 92 92 92 94 96 98 99 99 97 96 94 92 91 90 88 88 87 86 85 84 82 81 79 79 79 79 80 83 86 87 84 77 74 75 78 76 75 68 63 63 72 78 76 72 69 69 74 77 80
93 94 94 95 95 95 95 95 94 94 94 94 94 93 93 93 92 92 92 91 91 91 90 90 89 89 89 88 88 88 88 88 88 88 88 88 87 87 88 88 88 88 88 88 88 88 87 87 87 87 88 87 87 86 85 85 85 86 87 89 88 88 88 88 88 89 90 89 88 88 88 88 88 88 87 87 87 87 87 86 85 85 85 85 85 85 84 84 84 84 84 84 83 82 82 81 80 80 82 83 83 83 84 84 84 85 85 86 86 86 86 86 83 82 83 83 84 84 84 85 85 85 85 85 86 86 86 86 86 86 87 87 87 87 87 87 87 87 86 86 86 86 87 87 87 87 87 87 87 87 87 87 87 87 87 87 87 87 87 87 87 87 87 87 88 88 88 88 88 88 88 88 89 89 88 88 88 89 89 89 89 89 89 90 90 89 89 89 89 89 89 89 88 87 85 85 88 89 89 90 91 92 93 94 94 94 93 93 93 93 94 94 95 95 95 95 95 95 96 96 96 97 97 98 98 99 99 99 99 100 102 103 103 102 100 99 99 98 98 98 98 99 99 99 100 100 101 102 103 103 104 104 104 102 101 101 102 102 102 103 104 105 107 108 110 110 111 113 114 115 116 115 114 114 114 115 116 115 114 114 114 115 115 115 116 117 118 119 119 119 120 120 120 121 121 122 122 122 121 121 121 122 124 125 125 125 125 125 125 125 126 126 126 126 126 125 124 123 123 122 120 119 117 117 117 116 116 115 115 114 114 114 113 113 112 112 112 111 111 110 110 110 109 109 109 108 108 108 109 110 111 112 112 111 111 111 110 109 107 106 106 106 106 106 107 108 109 111 112 112 112 112 113 114 115 115 115 115 116 117 118 116 113 112 113 114 115 116 118 120 122 124 124 122 120 120 120 120 121 120 120 121 124 126 127 127 127 129 130 132 133 135 136 135 134 134 134 134 133 133 133 132 131 130 129 129 129 128 127 127 126 125 124 124 123 123 123 122 121 120 120 119 118 118 118 116 114 113 113 112 111 110 110 109 107 106 105 105 105 107 110 113 115 116 117 117 116 115 115 115 115 115 115 116 117 118 117 116 115 113 111 107 106 110 115 118 118 116 113 111 111 111 111 112 112 111 111 112 110 109 106 103 101 99 100 103 106 107 108 110 111 112 113 113 112 112 113 114 114 112 110 108 108 108 109 110 110 109 108 107 105 103 104 106 104 100 99 101 103 101 100 101 103 103 101 100 100 101 102 103 102 102 102 102 102 103 103 103 101 100 102 104 105 106 106 106 106 106 103 101 100 98 95 93 93 94 96 94 91 90 89 88 88 86 84 83 82 82 82 80 78 73 67 63 60 58 58 58 59 59 59 59 60 60 62 65 69 73 76 75 71 68 66 65 63 62 62 61 61 61 63 65 67 69 74 78 82 84 84 82 78 75 76 80 81 80 79 81 85 88 91 92 93 94 94 94 94 96 97 96 93 90 88 86 85 86 85 85 88 91 94 95 95 95 94 95 97 98 99 101 103 105 107 108 107 108 109 110 111 111 112 112 113 114 114 114 113 111 110 110 109 107 104 103 103 103 103 106 107 107 106 105 105 104 103 103 104 108 112 118 120 126 126 120 113 105 100 99 97 95 96 96 100 102 102 101 97 94 91 88 87 84 84 83 79 78 78 79 79 81 84 86 87 88 90 90 93 95 97 97 98 100 102 103 105 107 109 110 110 110 109 108 107 105 104 102 101 100 99 97 94 92 89 87 90 94 96 96 96 96 94 90 91 93 93 94 94 95 96 97 97 98 100 99 95 92 90 90 87 86 82 77 74 74 79 86 89 89 88 88 91 94 94 96 97 96 95 97 99 100 100 98 97 95 93 92 92 91 90 90 88 86 84 83 81 81 81 81 81 81 84 86 87 83 75 74 78 80 79 76 66 63 66 75 78 76 76 71 70 74 77 81
93 94 94 95 95 95 95 95 94 94 94 94 94 93 93 93 93 92 92 92 91 91 90 90 89 89 89 88 88 88 88 88 88 88 88 88 88 88 88 88 88 88 88 88 88 88 87 87 87 87 88 88 87 86 85 85 85 86 86 88 89 88 88 88 88 89 90 89 88 88 88 88 88 88 88 87 87 87 87 86 85 85 85 85 85 85 85 85 85 85 84 84 84 83 82 82 81 80 82 83 83 83 84 84 84 85 85 86 86 86 86 86 83 82 83 83 84 84 85 85 85 85 85 85 86 86 86 86 86 86 87 87 87 87 87 87 87 86 86 86 86 86 87 87 87 87 87 87 87 87 87 87 87 87 87 87 87 88 87 87 87 87 87 87 88 88 88 88 88 88 88 89 89 89 88 88 88 89 89 89 89 89 89 90 90 89 88 88 88 88 88 89 88 87 85 85 88 88 88 89 90 91 92 93 93 93 93 92 92 93 93 94 94 94 94 94 94 95 95 95 96 96 97 98 98 99 99 99 99 100 102 103 103 102 101 101 100 99 98 98 98 99 99 99 99 100 101 102 102 103 103 103 102 101 101 101 102 102 102 103 104 105 107 108 109 110 111 112 114 115 116 115 114 114 114 115 116 116 115 115 115 115 116 115 116 117 118 119 119 120 120 120 120 121 121 122 122 122 121 121 121 122 123 124 125 125 124 124 124 125 126 126 126 126 126 125 125 124 123 122 120 118 117 116 116 116 116 116 115 114 114 114 113 112 112 112 112 111 111 110 109 109 109 108 108 108 108 109 111 112 112 112 112 111 111 110 110 108 107 106 106 106 106 106 108 109 110 111 111 112 112 112 113 114 115 115 116 117 117 117 117 116 113 112 113 114 115 116 118 120 122 123 124 123 121 120 120 121 122 122 121 122 124 127 128 128 129 129 130 131 133 136 137 137 137 137 137 136 134 134 133 132 131 130 129 128 128 127 127 126 125 124 124 124 123 122 122 122 121 120 118 117 116 116 115 113 112 112 111 110 110 109 109 108 107 106 105 105 106 108 110 112 114 115 116 116 116 115 115 115 116 115 115 116 117 118 117 116 114 112 109 106 106 110 115 117 118 117 115 113 112 111 111 112 112 112 112 112 111 109 106 104 101 99 100 103 105 107 108 110 111 112 113 113 113 113 114 115 114 113 111 109 108 109 109 110 110 110 109 108 107 104 105 108 106 102 100 102 103 101 100 102 103 103 102 101 100 101 102 103 103 102 101 101 102 103 103 102 100 99 100 102 102 103 104 105 106 105 103 101 100 97 94 93 92 93 95 95 92 90 89 88 86 83 81 80 78 76 76 77 76 73 68 64 60 58 58 59 59 59 59 60 60 61 63 67 71 76 78 78 73 69 67 66 64 63 62 61 61 61 62 63 65 69 75 79 82 83 83 81 76 72 74 77 77 77 78 81 85 88 90 92 93 94 94 93 94 96 97 95 93 90 88 85 84 84 84 84 87 89 91 92 93 93 94 96 99 99 101 102 105 106 107 107 105 106 108 109 110 110 111 111 112 113 114 114 115 113 111 111 109 108 105 104 103 103 103 106 107 107 106 106 106 106 104 103 104 107 112 118 122 127 124 118 111 105 104 103 100 98 97 97 99 101 102 100 96 92 89 88 87 85 87 86 79 78 79 79 79 80 80 81 82 84 86 89 93 96 98 99 100 101 101 102 103 105 108 109 109 109 109 108 107 106 104 102 100 99 97 95 92 90 89 89 92 96 98 100 98 96 94 91 92 94 94 95 95 96 97 97 98 98 100 102 96 93 92 92 88 86 84 81 74 74 79 84 88 91 91 92 93 96 98 100 100 98 96 98 100 101 100 99 97 95 93 93 92 93 92 92 91 88 85 84 83 82 82 84 84 83 84 85 83 79 75 75 82 82 81 75 64 63 71 78 79 78 78 74 71 73 76 80
93 93 94 95 95 95 95 95 94 94 94 94 94 93 93 93 93 92 92 91 91 91 90 90 89 89 89 88 88 88 88 89 89 89 89 89 89 89 88 88 88 88 89 88 88 88 87 87 87 88 88 88 87 86 85 85 85 86 86 87 88 88 88 88 88 89 90 89 88 88 88 88 88 88 88 88 87 87 87 86 86 85 85 85 85 85 85 85 85 85 85 85 84 83 83 82 81 80 82 83 83 83 84 84 84 85 85 86 86 86 86 86 83 82 83 83 84 84 85 85 85 85 85 85 86 86 86 86 86 87 87 87 87 87 87 87 87 86 86 86 86 87 87 87 87 87 87 87 87 87 87 87 87 87 87 87 87 87 88 87 87 87 87 87 88 88 88 88 88 88 88 88 89 89 88 88 88 89 89 89 90 90 90 90 90 89 88 87 86 85 87 89 88 87 85 85 87 87 87 88 90 91 92 92 93 92 91 91 91 92 92 93 93 93 93 93 93 94 94 95 95 96 97 97 98 98 99 99 100 100 102 103 104 103 103 102 101 100 99 99 99 99 99 99 99 100 100 101 101 102 102 102 101 101 101 102 102 103 103 105 106 106 106 107 109 110 111 112 113 115 115 115 115 115 115 116 116 116 115 115 116 117 118 117 117 117 118 119 120 120 120 121 121 121 122 122 123 123 122 122 122 122 123 124 124 124 124 124 124 125 126 126 125 125 125 125 125 125 124 122 120 118 117 116 115 115 115 115 116 115 115 114 113 112 112 112 112 111 111 110 109 109 108 108 108 108 110 111 112 113 113 113 112 112 111 110 109 107 106 106 106 106 106 107 109 109 110 111 111 112 112 112 112 114 115 117 118 118 118 118 118 117 115 113 113 114 115 116 118 120 121 122 123 123 122 121 121 122 124 124 123 124 126 129 131 131 132 132 132 133 135 137 138 138 140 140 139 138 137 136 135 134 133 131 129 127 127 126 126 125 124 124 122 122 121 121 121 121 121 120 118 115 114 113 112 111 110 109 109 108 108 107 106 106 105 105 105 105 107 109 111 113 115 117 116 115 115 115 115 115 115 115 116 117 118 117 117 116 114 110 107 107 109 112 115 117 118 118 117 115 115 114 113 112 112 112 112 112 111 109 107 105 103 100 100 101 103 105 107 108 110 111 113 114 114 115 115 116 115 114 113 111 109 109 109 110 111 111 110 110 108 107 107 109 107 103 102 102 103 102 102 102 103 103 102 102 102 103 103 104 103 102 101 100 102 102 103 102 100 99 99 100 99 99 100 103 106 106 104 103 101 99 96 93 92 91 94 95 93 91 89 87 84 82 81 81 79 76 73 70 70 69 67 63 59 58 58 59 59 59 60 61 62 63 65 69 73 78 81 80 75 70 68 67 66 66 65 63 61 61 62 62 65 70 75 78 79 78 78 77 73 71 72 73 75 77 79 82 85 88 90 91 92 92 92 92 94 97 97 96 92 89 87 85 84 83 84 84 86 88 90 92 93 95 97 99 101 103 103 104 105 106 106 105 103 103 106 107 108 108 109 109 109 110 112 114 115 115 113 112 111 109 107 105 104 104 105 106 107 108 108 108 108 107 105 104 105 107 112 118 122 126 121 115 109 108 109 106 102 101 100 99 100 101 103 100 95 91 91 90 88 88 89 84 79 79 80 80 79 79 80 80 80 82 84 88 93 97 99 101 101 102 102 103 104 105 106 107 108 108 108 107 106 105 104 103 99 97 96 93 90 90 90 91 94 97 99 103 102 98 95 92 93 95 97 97 97 97 98 98 99 99 99 102 98 96 93 92 90 88 88 85 77 75 80 86 91 93 95 97 98 99 102 104 104 100 101 100 102 103 101 99 97 96 96 95 95 96 95 95 93 91 89 88 86 85 85 86 87 85 82 82 79 76 76 80 85 86 82 73 64 65 74 78 79 78 78 78 73 72 73 76
93 93 94 95 95 95 95 95 95 94 94 94 94 93 93 93 93 92 92 91 91 91 90 90 89 89 89 89 89 89 89 90 90 90 90 89 89 89 88 88 88 89 89 89 88 88 88 88 88 88 88 88 87 86 86 86 86 86 86 87 88 89 88 88 88 89 90 89 88 88 88 88 88 88 88 88 88 87 87 87 86 86 86 86 86 86 86 86 86 86 85 85 84 83 83 82 81 81 82 83 83 83 84 84 84 85 85 86 86 86 86 86 83 82 83 84 84 84 85 85 85 85 85 86 86 86 86 86 86 87 87 87 87 87 87 87 87 87 86 86 87 87 87 87 87 87 87 87 87 87 87 87 87 87 87 87 87 87 88 88 87 87 87 88 88 88 88 88 88 88 88 88 89 89 89 89 89 89 89 89 90 90 90 90 90 89 89 86 84 84 87 88 88 86 84 85 86 87 87 88 90 90 91 91 91 91 90 90 90 91 91 91 91 91 91 91 92 92 93 94 94 95 96 97 97 98 98 99 100 100 102 103 103 104 104 103 102 101 100 100 99 99 99 99 99 100 100 100 100 100 100 100 101 102 102 102 103 103 105 107 108 107 107 107 108 110 111 112 113 114 115 115 115 115 116 116 117 117 117 117 117 118 119 119 118 118 118 119 120 121 121 121 121 122 122 123 123 123 123 123 123 123 123 124 124 124 124 124 124 125 125 126 125 124 124 123 123 123 122 121 119 118 117 116 115 115 115 115 115 115 114 114 113 112 112 112 112 111 111 110 109 109 109 109 109 110 112 113 113 113 113 113 113 112 111 110 108 107 106 106 107 108 107 107 108 109 110 111 111 112 112 112 113 114 116 118 118 118 118 118 117 117 115 114 114 114 114 116 118 119 120 121 122 122 122 121 121 122 124 125 125 126 128 130 132 133 133 134 135 135 136 138 139 141 142 142 140 140 139 138 137 136 134 133 131 129 127 126 124 124 123 123 122 121 121 119 119 119 119 118 116 114 112 111 110 109 108 107 107 106 106 105 105 105 105 105 105 106 108 110 112 114 116 117 118 118 117 116 115 115 115 115 115 116 117 117 116 114 112 109 108 110 113 115 117 119 120 119 118 117 116 115 113 111 111 111 111 110 108 107 106 105 103 100 100 100 101 103 104 105 107 110 112 114 115 116 116 116 116 115 114 113 111 111 111 111 111 112 112 111 109 109 109 108 106 104 103 103 103 103 103 103 103 104 104 104 104 104 104 103 103 101 100 100 101 102 103 102 100 98 98 98 98 97 97 100 104 105 105 104 102 100 97 94 91 90 92 94 94 93 91 89 87 85 84 83 82 79 74 69 67 66 64 61 58 58 59 59 59 60 62 66 68 67 67 70 75 80 82 81 76 72 70 70 70 70 69 66 62 62 62 62 63 67 71 73 72 71 72 71 68 68 70 73 76 79 82 85 87 89 90 91 92 91 90 90 93 96 97 95 91 87 85 83 83 84 84 86 88 90 92 94 96 97 100 101 103 104 104 105 106 106 106 104 102 102 104 104 104 105 108 109 109 110 112 114 115 116 114 113 112 110 107 105 105 105 106 106 107 108 109 110 109 108 106 106 106 108 113 118 122 124 120 114 113 112 111 107 106 106 103 101 101 102 104 101 96 93 91 89 88 87 85 81 81 83 85 85 84 83 81 80 80 81 84 88 94 98 100 102 103 104 104 105 106 106 106 106 107 108 107 106 104 103 103 102 99 96 94 91 90 91 94 94 95 98 100 104 105 101 97 93 94 96 98 99 100 100 100 99 99 100 100 102 100 96 93 90 88 87 88 83 79 75 80 88 92 94 98 101 103 102 106 107 106 103 106 105 105 104 101 99 98 98 99 98 98 99 98 97 95 93 92 90 88 87 88 88 87 85 81 79 78 76 80 84 85 86 81 72 64 65 69 73 77 77 78 79 76 74 74 74
93 93 94 95 95 95 95 95 95 94 94 94 93 93 93 93 92 92 92 91 91 91 90 90 89 89 89 89 89 89 89 91 91 90 90 90 89 89 89 88 88 89 89 89 88 88 88 88 88 89 88 88 87 86 86 86 86 86 86 87 88 89 89 88 88 89 90 89 89 89 88 88 88 88 88 88 88 87 87 87 87 86 86 86 86 86 86 86 86 86 85 85 84 84 83 82 81 81 82 83 83 83 84 84 84 85 85 86 86 86 86 85 83 82 83 84 84 84 85 85 85 85 85 86 86 86 86 86 86 87 87 87 87 87 87 87 87 87 87 87 87 87 87 87 87 87 87 87 87 87 87 87 87 87 87 87 87 87 88 88 87 87 87 88 88 88 88 88 88 88 88 88 89 89 89 89 89 89 89 90 90 90 90 90 90 89 88 85 84 84 85 86 85 84 84 85 87 87 88 89 89 90 90 90 90 90 90 90 90 90 90 90 90 91 91 91 91 91 92 93 94 95 96 96 97 97 98 99 100 100 102 103 103 104 104 104 103 102 102 101 100 100 100 99 99 100 100 99 99 99 100 100 101 101 102 102 103 104 106 108 109 109 109 108 108 109 111 112 113 114 115 116 116 116 116 116 117 117 117 118 118 119 119 119 118 118 118 119 121 122 122 122 122 122 123 123 124 123 123 123 123 123 123 123 124 124 124 124 125 125 125 126 125 124 123 123 122 122 121 120 119 117 117 116 115 115 115 115 115 115 114 113 113 112 112 112 112 111 111 110 109 109 109 109 109 111 113 113 113 113 113 113 113 112 111 110 108 106 106 108 109 109 109 108 108 109 110 111 112 113 114 114 114 115 116 118 119 119 119 118 117 116 115 114 114 114 114 115 116 118 119 120 121 121 122 122 122 122 123 124 125 127 128 130 131 132 133 135 136 137 138 139 140 142 142 142 141 140 139 138 137 136 134 133 132 131 130 128 126 124 122 121 120 120 120 119 118 117 116 115 114 112 110 109 108 108 108 107 106 106 105 105 105 105 105 105 105 107 109 111 113 116 117 118 120 120 120 119 118 117 116 115 115 115 115 115 114 112 110 109 110 112 115 117 120 121 121 120 119 118 117 116 114 111 109 109 109 108 106 104 103 103 102 101 101 101 101 102 103 105 106 109 111 113 114 115 115 115 115 116 115 114 112 112 111 111 111 112 112 111 110 109 109 108 106 105 104 103 103 104 104 104 104 105 104 104 104 104 104 103 102 100 99 99 100 101 102 102 99 97 96 96 96 95 95 97 100 103 103 103 102 99 96 93 91 90 90 92 93 93 93 91 89 88 86 85 83 79 75 71 67 65 63 60 59 59 59 59 59 61 66 70 72 71 69 71 76 80 82 82 79 75 74 74 74 73 72 69 64 62 62 63 62 63 64 65 65 65 64 64 64 67 72 75 77 80 83 85 87 89 90 91 91 90 89 89 93 96 96 94 89 86 84 81 83 86 88 89 91 92 94 96 97 99 102 103 103 103 104 105 105 105 104 102 101 100 101 102 104 105 106 108 110 110 112 114 115 115 115 113 112 110 107 106 106 106 107 107 108 108 109 110 110 109 107 106 107 109 113 117 121 123 121 118 117 115 113 112 110 108 104 102 102 104 106 102 96 92 89 87 86 84 82 82 86 89 92 92 91 89 86 82 81 81 84 87 93 97 99 102 103 105 106 106 107 107 107 107 108 108 107 106 103 101 101 100 98 95 93 90 92 95 96 96 96 97 99 103 105 103 98 95 95 97 99 101 101 101 100 100 100 100 99 99 98 96 92 90 87 85 84 81 78 76 78 85 90 94 97 100 104 105 107 108 108 106 109 109 108 106 102 100 100 101 101 102 101 101 100 98 97 96 94 92 90 90 89 87 85 81 79 78 78 80 83 85 85 83 76 72 68 65 65 65 69 71 72 76 77 78 79 79
93 94 94 94 95 95 95 95 95 94 94 94 93 93 93 93 92 92 92 91 91 90 90 90 89 89 89 89 90 90 90 91 91 91 90 90 90 90 90 89 89 90 89 89 88 88 88 88 88 89 89 88 87 87 87 86 86 87 87 87 88 89 89 89 89 89 90 90 89 89 89 89 89 88 88 88 88 87 87 87 87 87 86 86 86 86 86 86 86 86 85 85 85 84 83 82 82 82 82 82 83 83 84 84 84 85 86 86 86 86 86 85 84 83 84 84 85 85 85 85 85 85 86 86 86 86 86 86 86 87 87 87 87 87 87 87 87 87 87 87 87 87 87 87 87 87 87 87 87 87 87 87 87 87 87 87 87 88 88 88 88 88 88 88 88 88 88 88 88 88 88 88 89 89 89 89 90 90 90 90 90 90 91 90 90 89 88 85 84 84 84 84 84 84 84 85 88 89 89 89 89 90 90 90 89 89 90 89 89 89 90 90 90 90 91 91 92 92 93 93 94 94 95 95 96 97 98 99 100 101 102 103 103 104 104 104 104 103 103 102 101 100 100 100 100 100 100 99 99 99 100 100 101 101 102 102 103 104 106 109 110 111 110 109 109 109 110 111 112 114 115 116 116 116 116 117 117 117 117 118 119 119 119 120 119 119 119 119 121 122 122 122 123 123 124 125 124 124 123 123 124 123 123 123 123 123 124 124 125 125 126 126 125 124 123 123 122 121 120 119 118 117 117 116 116 115 115 115 115 115 114 113 112 112 112 112 112 112 111 111 110 109 109 110 110 112 114 114 114 114 114 113 113 113 112 111 109 107 107 108 110 110 110 109 109 109 110 111 112 114 115 116 115 116 117 118 119 120 121 120 118 117 115 115 115 114 114 114 116 118 119 119 120 121 121 121 121 121 122 123 124 125 127 128 129 130 132 135 137 138 139 140 141 142 142 142 141 140 139 138 136 135 134 133 132 131 130 128 127 124 122 121 120 119 118 118 117 117 116 115 113 111 110 110 111 112 111 109 107 106 106 106 106 107 106 106 106 107 108 110 113 115 117 118 120 121 122 121 120 119 118 117 116 115 115 114 112 111 110 109 110 113 115 118 121 122 121 119 117 116 115 115 113 111 108 107 107 106 105 104 103 103 102 102 102 102 102 104 105 105 105 107 109 111 112 112 112 113 115 116 116 115 113 112 112 111 111 111 112 112 110 109 108 106 106 106 106 104 103 104 104 103 104 105 105 104 103 103 103 103 101 100 99 98 99 100 101 101 98 96 94 94 95 94 93 94 97 100 102 102 101 98 96 93 91 89 88 90 91 92 92 90 89 88 86 83 81 77 73 69 67 66 64 61 59 59 59 59 60 62 69 74 76 74 73 73 75 80 83 84 82 79 77 77 75 71 68 66 63 63 64 67 66 63 62 62 62 63 63 63 63 67 74 78 81 82 83 84 86 87 90 91 90 89 87 89 93 95 95 91 88 85 83 82 84 88 89 91 93 94 95 96 98 100 102 103 102 101 103 105 105 104 103 100 99 99 99 103 105 107 109 111 111 111 111 114 114 115 115 114 112 110 108 107 107 107 108 108 108 109 109 111 112 110 107 107 107 109 113 117 120 123 123 120 120 118 116 115 112 109 104 103 101 104 106 102 96 91 87 85 84 82 84 86 90 95 98 98 96 94 89 84 81 82 84 86 90 94 98 100 103 105 106 107 108 108 109 109 109 108 107 106 104 100 99 98 97 95 93 91 94 96 98 99 97 98 99 102 105 103 100 96 96 97 99 101 102 103 102 100 100 99 98 99 97 95 92 91 88 84 80 79 82 81 79 82 87 90 94 97 101 103 105 106 108 108 110 111 110 107 104 101 101 104 104 104 103 100 98 97 96 96 94 93 91 89 88 86 82 80 79 78 79 81 85 85 83 78 76 76 73 69 66 65 65 65 66 70 72 77 81 84
94 94 94 94 95 95 95 95 95 94 94 94 93 93 93 93 92 92 91 91 90 90 90 90 89 89 90 90 90 90 90 91 91 91 91 90 90 90 90 90 90 90 89 89 88 88 88 88 88 89 88 88 87 87 87 87 87 87 87 87 88 88 89 89 89 89 90 90 89 89 89 88 88 88 88 88 88 87 87 87 87 87 86 86 86 86 86 86 86 86 85 85 85 84 83 82 82 82 82 82 83 83 84 84 84 85 86 86 86 86 86 85 84 84 84 85 85 85 85 85 85 85 86 86 86 86 86 86 86 87 87 87 87 87 87 87 87 87 87 87 87 87 87 87 87 87 87 87 87 87 87 87 87 87 87 87 87 88 88 88 88 88 88 88 88 88 88 88 88 88 88 88 88 89 89 89 90 90 90 90 90 91 91 90 90 89 88 85 84 84 84 84 84 84 84 85 87 88 88 89 89 89 90 90 89 89 90 89 88 88 89 89 90 90 91 93 94 94 94 93 94 94 94 95 96 97 98 99 100 101 102 103 103 104 104 104 104 103 103 102 101 101 101 101 101 100 100 99 99 99 100 100 101 101 102 102 103 104 106 108 110 111 111 111 110 109 110 111 112 114 115 116 116 117 117 117 117 117 118 118 118 119 119 120 120 119 119 120 121 122 122 123 123 124 124 125 125 124 124 123 123 123 122 123 123 123 124 124 124 125 126 126 125 124 123 122 122 121 120 118 118 117 117 116 116 116 115 115 115 115 114 113 112 112 112 112 112 112 112 111 110 110 110 111 111 112 114 114 114 114 114 114 113 113 112 110 109 108 108 109 110 110 110 109 109 109 110 111 112 114 115 116 116 117 118 119 120 121 121 120 119 117 116 116 115 114 114 114 115 117 118 119 120 120 120 120 121 121 121 122 123 124 125 126 127 129 130 133 135 136 138 140 141 142 142 142 141 140 139 138 136 135 134 133 132 131 130 129 127 125 124 123 122 120 119 118 116 115 115 115 113 113 113 113 114 116 115 112 110 108 108 108 109 109 109 108 107 107 108 109 111 113 114 116 119 121 121 121 121 120 119 117 116 115 115 114 113 112 112 111 112 113 115 118 121 122 121 119 116 115 114 114 112 109 108 106 106 106 105 106 105 104 103 102 102 102 104 106 107 107 107 107 108 109 110 111 111 112 115 116 116 115 114 112 112 111 110 111 112 112 110 108 107 106 105 106 106 105 104 104 103 103 103 104 105 103 103 103 103 102 101 100 98 97 98 99 100 100 98 96 93 93 93 93 93 93 96 99 101 101 99 98 96 94 92 89 88 89 91 91 91 89 87 87 86 82 79 75 71 68 66 64 63 60 59 59 59 59 60 62 70 75 77 77 76 75 76 79 83 84 83 81 79 77 73 68 64 63 63 63 65 67 66 64 63 63 64 63 63 63 63 67 74 79 81 82 82 83 85 88 90 90 89 87 86 89 93 95 94 90 87 84 82 81 84 88 89 91 93 94 95 97 97 98 99 100 100 100 102 103 104 105 103 100 99 98 100 103 106 109 111 113 113 112 112 112 114 115 115 114 112 110 108 108 108 108 108 109 109 109 110 112 112 111 108 107 107 109 113 117 120 122 122 121 119 119 118 117 114 109 104 103 100 101 102 99 94 89 86 84 83 83 86 88 92 99 104 103 101 97 90 83 82 84 87 89 92 94 96 98 101 104 105 106 108 109 109 109 109 108 107 106 104 100 98 97 96 94 93 93 95 97 99 100 99 99 101 103 105 103 100 96 96 97 99 101 102 103 103 102 100 99 97 97 96 94 92 90 88 84 79 82 87 87 84 83 84 87 90 94 96 98 100 102 104 106 109 111 110 107 104 102 102 104 104 104 102 100 97 95 94 92 91 91 89 88 86 83 81 80 79 80 82 84 86 86 81 78 81 82 79 76 71 67 66 65 65 66 68 74 81 84
94 94 94 94 95 95 95 95 95 95 94 94 94 93 93 92 92 92 91 91 90 90 90 90 90 90 90 90 91 91 91 91 91 91 91 91 91 91 91 90 90 90 90 89 89 88 88 88 89 88 88 87 87 87 87 87 87 87 87 87 88 88 89 89 89 89 90 90 89 89 89 88 88 88 88 88 88 87 87 87 87 87 87 86 86 86 86 86 86 86 85 85 85 84 84 83 82 82 82 82 83 83 84 84 84 85 86 86 86 86 86 85 85 85 85 85 85 85 85 85 85 86 86 86 86 86 87 87 87 87 87 87 87 87 87 87 87 87 87 87 87 87 87 87 87 87 87 87 87 87 88 87 87 87 87 87 87 88 88 88 88 88 88 88 88 88 88 88 88 88 88 88 88 89 89 89 90 90 90 90 91 91 91 91 91 90 88 85 84 84 84 84 84 84 84 84 86 87 88 88 88 89 90 91 91 90 90 89 88 88 88 89 90 90 91 94 96 97 96 95 94 94 94 95 96 97 98 99 100 101 102 103 103 104 104 104 104 104 104 103 103 103 103 103 102 101 101 101 101 100 100 101 102 102 102 103 103 104 105 107 110 111 112 112 111 111 111 111 112 113 115 116 116 117 117 117 117 117 118 118 118 119 119 120 120 120 120 121 121 122 123 123 124 124 124 125 125 125 124 123 122 122 122 122 123 123 123 124 124 125 125 126 125 124 123 122 120 120 119 118 118 118 117 117 117 117 116 116 116 115 114 114 114 114 113 113 113 112 112 110 110 110 111 112 113 113 114 115 114 114 113 113 113 112 111 110 109 109 109 109 111 111 111 110 110 110 110 111 112 114 115 116 117 118 118 119 120 121 121 120 118 118 118 118 117 115 115 115 115 117 117 118 118 118 119 120 121 121 121 123 124 125 125 126 128 129 130 132 133 134 137 140 142 142 142 142 141 140 139 138 136 133 132 131 131 131 131 130 129 127 126 125 124 123 121 119 117 115 114 113 112 113 115 116 116 117 117 115 112 110 110 111 111 111 111 110 108 108 108 109 110 111 113 115 117 119 120 121 122 121 120 118 116 115 115 114 113 112 112 113 114 114 115 117 120 121 121 120 117 115 114 112 110 109 108 107 107 107 108 108 108 107 105 103 102 102 104 107 109 110 109 109 109 109 110 111 111 112 114 117 118 116 115 113 112 111 110 110 110 110 109 108 106 105 105 106 106 106 105 104 103 102 101 103 103 103 102 102 102 102 101 99 97 96 97 98 99 99 98 97 93 91 91 91 91 93 96 99 101 99 98 97 96 95 92 90 87 87 89 90 89 87 84 82 82 79 76 73 69 66 64 62 60 59 59 59 59 59 60 62 68 73 76 78 79 78 79 81 83 85 85 82 79 75 69 64 63 63 63 63 64 66 66 65 65 65 66 66 65 64 63 67 73 78 80 81 81 82 84 87 88 88 87 85 86 89 93 94 92 89 86 84 81 81 83 86 88 89 90 92 93 94 95 95 96 97 99 100 102 104 105 106 104 100 98 99 102 104 105 109 112 114 114 113 112 113 114 115 115 114 112 110 109 110 110 111 111 110 110 111 111 112 113 112 108 108 108 110 112 116 119 120 120 119 118 118 118 118 115 111 106 102 99 97 96 94 90 87 85 84 85 87 89 91 96 104 106 107 105 98 89 83 83 86 91 95 98 99 100 100 101 102 104 106 108 109 110 110 110 109 108 106 103 100 98 96 94 93 93 93 95 97 99 100 100 101 103 104 105 103 100 97 97 98 99 101 102 103 102 101 100 99 97 95 95 94 92 89 87 83 80 83 88 89 90 89 86 85 87 90 93 95 98 100 102 105 109 110 110 107 106 104 102 103 104 103 102 100 97 95 93 91 90 89 88 86 84 82 81 81 83 85 87 87 88 86 81 82 87 88 87 83 78 72 68 66 66 66 67 70 77 82
94 94 94 94 95 95 95 95 95 95 95 94 94 93 92 92 91 91 91 90 90 90 90 90 90 90 90 90 91 91 91 91 91 91 91 91 91 91 91 91 90 90 90 90 89 89 88 88 89 88 88 87 87 87 87 87 87 87 87 87 88 88 88 89 89 89 90 90 89 89 88 88 88 88 88 88 88 88 88 88 87 87 87 87 86 86 86 86 86 86 85 85 85 85 84 83 82 82 82 82 83 83 84 84 85 85 86 86 86 86 85 85 85 85 85 85 85 85 85 85 85 86 86 86 86 86 87 87 87 87 87 87 87 87 87 87 87 87 87 87 87 87 87 87 87 87 88 88 88 88 88 87 87 87 87 87 87 88 88 88 88 88 88 88 88 88 88 88 88 88 88 88 88 88 89 89 90 90 90 90 91 91 91 91 91 90 88 85 84 84 84 84 84 84 84 84 85 87 87 87 88 89 90 91 92 91 90 89 87 88 89 91 92 91 91 93 95 97 97 96 95 95 95 95 96 97 97 98 99 100 101 101 103 103 104 104 105 104 104 104 103 103 103 103 102 102 102 103 102 101 101 102 102 103 103 103 103 104 105 106 109 111 113 113 112 111 111 111 112 113 115 116 116 117 117 117 117 118 118 118 118 119 119 120 120 120 121 121 122 122 123 123 124 124 124 125 125 125 124 123 122 122 122 122 123 123 123 124 124 125 125 126 125 124 123 122 120 119 118 118 118 118 117 117 117 117 117 116 116 115 115 114 114 113 113 113 112 112 111 110 110 111 112 113 114 114 115 115 114 114 113 112 112 112 110 109 109 109 109 110 111 111 111 111 111 111 111 111 112 113 114 115 116 117 118 119 120 120 120 119 118 119 120 120 119 117 116 115 115 115 116 117 117 118 119 120 122 123 124 126 128 129 129 129 130 130 131 132 133 134 138 141 142 142 142 142 141 140 139 138 136 133 131 130 130 130 130 130 129 128 126 125 125 123 121 119 117 116 114 112 112 113 115 117 117 117 116 115 114 113 113 113 113 114 113 111 109 108 108 109 110 111 113 116 117 119 120 121 121 121 120 119 117 116 115 114 113 112 112 112 114 115 116 117 118 120 121 120 118 117 115 112 110 109 108 108 109 110 110 111 111 109 107 105 103 103 105 108 111 112 112 111 111 112 112 111 111 113 114 117 118 117 116 114 112 111 110 109 108 108 107 106 105 103 104 106 106 105 105 104 103 101 100 102 103 103 102 101 101 101 101 99 97 96 96 96 97 98 98 97 93 91 90 90 90 92 96 99 100 100 98 96 95 94 93 91 88 86 86 88 88 84 81 78 76 74 73 71 68 66 64 63 61 59 59 59 59 59 60 61 65 69 71 76 80 81 82 84 85 86 86 83 79 74 68 63 63 63 63 63 64 65 66 65 66 66 68 67 65 64 63 66 71 75 78 79 80 81 84 87 87 88 85 84 85 90 93 93 90 87 85 83 81 80 82 84 85 86 87 89 90 92 93 94 95 97 100 102 103 105 106 106 102 99 97 100 104 105 106 108 111 113 113 111 111 113 114 114 115 114 112 111 110 111 112 114 114 113 112 112 112 112 112 111 109 108 109 111 114 116 117 118 117 115 115 114 116 117 116 112 108 103 98 94 91 88 86 85 86 88 90 91 94 97 100 106 108 108 106 99 90 84 83 88 94 99 102 103 103 103 103 104 105 106 108 109 109 109 109 108 107 106 103 99 97 95 94 93 93 93 94 97 98 99 100 102 103 105 105 102 99 98 98 98 99 101 102 103 102 101 100 99 96 94 95 95 94 92 89 84 80 82 86 89 93 93 92 89 87 90 94 96 98 100 102 106 110 110 110 108 106 103 101 100 101 102 101 100 98 96 95 93 91 90 88 86 83 81 81 84 88 90 90 90 90 85 82 87 92 93 93 88 82 76 68 67 66 66 67 68 74 79
94 94 94 94 95 95 95 95 95 95 95 94 93 93 92 91 91 91 91 90 90 90 90 91 90 90 90 91 91 92 92 92 92 92 92 92 92 92 92 91 91 91 91 90 90 90 89 89 89 88 88 88 87 87 87 88 88 87 87 87 88 88 88 89 89 89 90 90 90 89 88 88 88 88 88 88 88 88 88 88 88 87 87 87 87 86 86 86 86 86 85 85 85 85 84 83 82 82 82 82 83 83 84 84 85 85 85 86 86 85 85 85 85 85 85 85 85 86 86 86 86 86 86 86 86 86 87 87 87 87 87 87 87 87 87 87 87 87 87 87 87 87 87 88 88 88 88 88 88 88 88 88 88 88 88 88 88 88 88 88 88 88 88 88 88 88 88 88 88 88 88 88 88 88 89 89 90 90 90 90 91 91 91 91 91 90 88 85 84 84 84 84 84 84 84 84 85 86 86 87 88 90 90 90 92 92 90 87 87 88 90 92 94 94 93 93 94 96 97 97 96 96 96 96 96 97 97 98 99 99 100 100 102 103 104 105 105 104 104 104 104 104 104 103 102 102 102 104 104 103 103 103 103 104 104 104 104 105 106 107 109 111 113 113 113 113 112 112 113 114 115 116 116 117 117 117 117 118 118 118 119 119 119 120 120 121 121 122 122 123 123 123 124 124 124 124 124 124 123 122 121 121 122 122 122 123 123 123 124 125 125 125 126 125 124 122 121 119 118 118 118 118 118 118 117 117 116 116 115 115 114 114 113 113 112 112 112 111 110 110 111 112 113 114 115 115 115 115 114 113 112 112 111 111 110 109 109 109 110 111 111 111 111 111 112 113 112 112 112 113 113 114 115 117 118 119 119 120 121 120 120 121 122 122 121 119 117 116 116 116 116 117 117 118 120 122 124 125 126 128 130 131 131 131 131 131 131 132 133 136 139 141 141 142 142 142 142 140 139 138 136 134 131 130 130 129 128 128 128 127 126 125 124 123 121 119 117 116 115 114 114 115 117 120 120 119 118 116 116 115 115 115 115 116 115 113 110 109 109 110 111 113 115 116 118 119 120 121 121 121 120 120 119 117 116 115 114 113 112 113 115 116 117 117 118 118 118 118 118 118 116 113 110 109 109 110 111 112 112 113 113 110 108 105 104 104 106 108 110 112 113 113 113 114 114 114 114 115 115 117 118 119 117 115 113 111 110 109 108 107 106 105 104 103 103 104 106 105 104 102 101 100 100 101 102 102 101 100 100 100 101 100 99 97 95 94 95 95 96 96 93 91 89 88 89 92 95 98 100 100 98 96 94 92 93 92 90 86 84 85 85 83 79 76 75 74 72 73 72 70 68 65 63 60 59 59 59 59 60 60 63 66 69 74 78 81 83 84 85 87 88 86 81 75 68 64 63 63 63 63 64 66 66 68 70 71 72 69 66 64 64 69 73 76 78 78 80 82 84 86 86 85 83 84 87 91 93 92 89 86 83 81 80 80 82 83 85 86 88 89 91 92 93 94 95 99 100 101 102 104 105 105 102 97 96 99 103 103 106 107 108 109 109 109 111 112 112 113 114 114 112 112 112 112 114 116 117 116 115 114 114 113 112 110 109 109 109 112 115 115 116 116 115 113 110 110 111 112 113 112 109 104 98 93 90 88 86 87 91 93 95 96 99 101 105 108 109 108 104 98 90 84 84 90 95 101 104 106 106 106 105 105 106 106 108 108 108 108 108 106 105 103 101 98 96 94 94 94 95 94 94 96 97 98 99 101 102 104 104 102 100 100 99 99 100 101 103 103 103 100 98 98 95 93 93 94 94 93 88 82 81 86 89 90 92 97 96 94 92 91 94 95 97 100 102 105 110 110 109 108 106 103 101 99 97 99 100 100 99 97 95 92 90 89 87 85 83 81 84 87 93 93 92 90 87 85 85 91 94 95 95 91 84 77 69 67 66 66 67 68 74 79
94 94 94 95 95 95 95 95 95 95 95 94 93 93 92 91 91 91 91 91 91 91 91 91 90 90 90 91 91 92 92 92 92 92 92 92 92 92 92 91 91 91 91 91 90 90 90 89 89 89 88 88 88 88 88 88 88 87 87 87 88 88 88 89 90 90 91 91 90 89 89 88 88 88 88 88 88 88 88 88 88 88 87 87 87 86 86 86 86 86 85 85 85 85 84 83 82 82 82 82 82 83 84 84 85 85 85 86 86 85 85 85 85 85 85 85 85 86 86 86 86 86 86 86 86 87 87 87 87 87 87 87 87 87 87 87 88 88 87 87 87 88 88 88 88 88 88 88 88 88 88 88 88 88 88 88 88 88 88 88 88 88 88 88 88 88 88 89 89 88 88 88 88 88 89 89 90 90 90 90 91 91 91 91 91 90 88 85 84 84 84 84 84 84 84 84 84 85 86 87 88 90 90 90 92 92 89 87 87 90 92 93 94 94 95 95 95 96 97 98 98 97 97 97 97 97 98 99 99 99 100 100 101 102 103 104 105 105 104 104 105 105 104 103 103 103 103 105 105 104 103 103 104 104 104 105 105 106 106 108 110 112 113 113 113 114 114 114 114 114 115 116 116 117 117 117 117 118 118 118 119 119 120 120 121 121 122 122 122 123 123 124 124 124 124 123 123 122 121 121 121 121 122 122 122 123 123 123 124 124 125 125 125 125 124 122 121 119 119 119 119 119 118 118 118 117 116 116 115 114 114 114 113 112 112 111 111 111 111 112 113 113 114 115 116 116 116 116 115 113 112 112 111 110 110 109 109 110 112 112 111 111 111 112 114 115 114 114 114 114 115 115 115 116 117 118 119 120 121 121 122 123 124 124 122 119 117 117 117 117 118 117 117 118 120 122 123 125 126 128 130 131 131 131 131 131 132 133 134 137 139 141 141 141 142 142 141 140 139 138 137 135 133 132 130 128 126 126 126 125 125 124 122 121 119 118 117 116 115 115 116 117 119 122 124 124 121 119 118 117 117 117 117 118 117 115 112 110 110 111 113 116 118 118 119 119 120 121 121 121 121 121 121 120 118 116 115 114 113 115 118 118 118 118 118 119 119 118 117 117 115 112 111 110 109 111 113 114 114 115 113 111 108 106 106 106 106 108 109 111 113 114 115 116 116 117 117 117 117 117 118 119 118 116 115 114 111 109 108 107 106 105 104 103 102 103 104 104 103 100 100 100 100 100 100 101 100 99 98 100 100 100 100 98 96 94 93 92 93 94 93 91 88 87 88 90 93 96 99 101 99 97 94 91 91 92 90 87 83 83 84 84 82 80 80 79 78 79 78 75 71 67 64 61 59 59 59 60 60 60 63 66 68 71 76 79 80 80 82 86 88 86 81 75 69 66 63 63 63 64 66 68 69 70 73 76 75 69 66 64 66 73 78 80 80 79 80 83 85 85 84 82 81 84 89 91 91 90 88 86 81 79 79 81 83 85 86 87 89 90 92 93 94 95 97 99 99 98 99 101 102 102 98 96 96 97 99 102 104 103 105 106 106 107 111 111 111 111 113 113 113 113 113 114 115 117 118 119 118 116 115 113 111 109 109 109 110 112 114 114 113 113 113 111 109 107 107 107 108 108 107 103 97 92 90 88 89 91 95 99 102 103 106 107 109 111 111 106 100 94 88 84 84 89 95 100 105 107 108 108 107 107 107 107 107 107 107 106 106 105 103 101 100 98 96 95 94 95 96 97 97 97 97 97 99 101 103 104 104 103 102 101 100 100 101 102 103 103 102 100 98 96 94 92 90 90 90 90 85 80 83 89 94 95 92 97 100 98 97 95 95 96 97 99 102 105 107 108 108 108 106 104 102 100 97 96 97 98 98 95 93 91 89 87 85 84 84 85 88 91 94 94 93 88 86 86 90 94 95 96 96 92 84 77 70 68 67 67 67 68 74 79
94 94 94 95 95 95 95 95 95 95 94 94 93 93 91 91 91 91 91 91 91 91 91 91 91 90 90 91 91 92 92 92 92 92 92 92 92 92 91 91 91 91 91 91 91 90 90 89 89 88 88 88 88 88 88 88 88 87 87 87 88 88 88 89 90 90 91 91 90 90 89 88 88 88 88 88 88 88 88 88 88 88 88 87 87 86 86 86 86 85 85 85 85 84 84 83 83 82 82 82 82 83 84 84 85 85 85 86 86 85 85 85 85 85 85 85 85 86 86 86 86 86 86 86 86 87 87 87 87 87 87 87 87 87 87 87 88 88 87 87 87 88 88 88 88 88 88 88 88 88 88 88 88 88 88 88 88 88 88 88 88 88 88 88 88 88 88 89 89 88 88 88 88 88 89 89 90 90 90 91 91 91 91 91 91 90 88 85 84 84 84 84 84 84 84 84 84 84 85 86 88 89 90 90 91 91 88 87 88 90 92 93 93 94 94 94 95 96 97 98 98 97 97 98 98 99 99 99 99 99 100 100 101 102 103 104 105 105 105 105 105 105 104 104 103 103 103 104 105 105 103 103 104 104 105 105 106 106 107 109 111 112 113 113 113 113 114 114 114 114 115 116 116 116 117 117 118 118 118 118 119 119 120 120 121 121 122 122 123 123 123 123 124 124 123 123 122 121 121 121 121 121 121 121 122 122 123 123 123 124 124 125 125 124 123 122 121 119 118 119 119 119 119 118 118 117 116 116 115 114 113 113 113 112 112 111 111 111 111 113 114 114 115 116 116 116 116 116 115 114 112 112 111 110 110 109 109 111 112 112 111 111 110 112 115 116 115 114 114 115 116 116 116 116 117 118 119 120 121 121 122 123 124 123 121 119 117 117 117 117 118 118 118 118 119 121 122 124 125 128 130 130 130 130 130 130 131 133 135 138 139 140 141 141 142 142 140 139 137 136 136 135 132 131 129 127 126 125 124 124 123 122 120 119 118 117 117 117 116 116 117 119 121 123 124 124 122 119 118 118 117 117 117 118 117 116 113 111 110 112 114 117 118 119 119 119 120 121 121 121 121 121 121 120 119 117 115 115 114 116 118 119 119 118 118 119 119 118 117 116 115 113 112 111 110 111 113 114 115 115 113 111 109 107 108 108 108 108 109 111 113 114 115 117 117 118 118 118 118 118 119 119 118 117 116 115 113 111 109 107 106 106 105 104 101 101 103 103 101 100 100 100 100 100 100 100 99 98 98 99 100 100 99 98 96 95 93 91 92 93 93 91 89 87 87 89 93 96 99 100 99 97 94 91 90 90 89 86 82 81 82 84 83 82 82 82 81 81 80 77 72 70 66 60 59 59 59 60 60 60 62 66 68 70 74 76 77 78 81 85 87 86 82 79 74 70 66 64 64 66 68 72 73 73 77 79 77 69 66 65 67 74 80 82 80 78 78 82 85 85 83 80 81 85 88 90 90 88 86 82 79 78 79 82 85 86 87 88 89 91 92 94 95 96 98 99 98 97 97 100 101 100 97 95 95 96 98 101 101 102 103 104 106 107 110 110 109 111 112 113 113 113 113 114 115 117 118 118 117 116 115 113 111 109 109 109 110 112 113 113 112 112 111 109 108 107 105 104 104 104 103 100 96 92 90 90 91 94 98 102 107 108 108 109 111 112 109 102 95 90 85 84 84 88 93 99 104 107 108 108 108 106 106 106 106 106 106 106 105 104 102 100 99 98 97 96 94 96 96 97 97 97 97 97 99 101 104 106 105 103 102 101 101 101 102 103 103 103 102 99 98 96 95 93 92 90 88 86 83 80 85 91 96 97 94 96 100 101 101 99 98 98 98 99 102 105 106 107 107 106 106 104 102 99 96 95 96 97 96 93 91 89 87 85 84 84 84 87 90 93 95 94 92 88 87 89 91 95 96 96 95 91 83 76 70 68 67 67 67 68 72 77
94 94 94 95 95 96 95 95 95 95 94 94 93 92 91 91 91 91 91 91 92 92 92 91 91 91 91 91 91 92 92 92 92 92 92 92 92 92 91 91 92 92 91 91 91 90 90 89 88 88 88 88 88 88 88 89 88 88 88 88 88 88 88 89 90 90 91 91 91 90 89 89 89 89 89 89 89 89 89 89 88 88 88 88 87 87 86 86 86 85 85 84 84 84 84 84 83 82 82 82 82 83 84 84 85 86 86 86 86 86 86 85 85 85 85 85 85 86 86 86 86 86 86 86 86 87 87 87 87 87 87 87 87 88 88 88 88 88 88 88 88 88 88 88 88 88 88 88 88 88 88 88 88 88 88 88 88 88 88 88 88 88 88 88 88 89 89 89 89 89 88 88 88 88 89 89 90 90 91 91 91 91 91 91 91 90 88 85 85 86 85 84 84 84 84 84 84 84 84 86 87 87 88 89 90 89 87 87 88 91 92 93 93 93 94 94 95 96 97 98 98 98 99 100 100 101 100 100 100 101 101 102 102 103 104 104 105 105 105 105 105 105 105 105 105 104 104 104 104 105 105 105 105 105 105 106 106 107 108 110 112 113 113 113 113 113 114 114 114 114 115 116 116 116 117 117 118 118 118 118 119 120 120 120 121 121 122 122 123 123 123 123 124 123 123 122 121 120 120 120 120 120 120 121 122 122 123 123 123 123 124 124 123 123 122 121 121 119 118 118 118 118 118 119 118 117 116 116 115 114 113 113 112 112 112 111 111 111 113 114 115 116 116 116 116 116 116 116 115 114 113 112 111 110 110 110 110 111 113 113 112 111 110 113 116 118 117 115 115 117 118 117 117 118 118 118 119 121 121 122 122 123 123 122 121 119 118 118 118 118 118 119 119 119 119 120 121 122 124 126 127 128 128 129 129 129 132 134 136 138 139 140 140 140 140 140 140 138 135 134 134 133 131 129 126 125 124 123 123 122 121 119 118 117 117 117 117 117 117 117 118 121 123 124 125 125 123 121 120 119 119 119 118 118 118 118 116 114 113 112 114 117 119 119 120 120 120 121 121 121 121 121 121 121 119 118 118 117 117 118 120 121 121 120 120 121 120 119 118 117 116 115 113 112 112 112 114 115 116 115 114 112 110 109 110 111 110 109 109 110 113 115 117 118 119 118 119 119 120 120 120 120 119 119 119 117 116 113 111 109 108 107 107 105 102 101 102 102 100 99 99 100 100 100 100 100 99 98 97 99 100 100 99 98 97 96 95 94 94 94 93 92 91 90 89 90 91 93 95 96 96 95 94 92 89 88 87 85 82 80 81 83 85 85 85 85 85 84 82 77 73 72 66 60 59 59 59 60 60 60 62 65 68 70 71 72 73 77 81 84 87 87 85 84 81 77 71 67 67 71 75 77 78 77 80 82 78 70 67 65 67 75 80 80 77 73 74 78 82 83 80 78 80 86 87 87 86 83 81 78 78 79 81 84 86 87 88 89 90 91 93 94 95 97 99 99 97 97 96 98 99 97 95 95 96 96 99 100 102 103 103 105 106 108 109 109 107 109 111 112 112 112 113 114 115 116 116 116 115 115 115 113 111 110 110 110 111 112 113 111 110 109 109 107 106 106 105 103 101 100 99 98 94 92 90 91 93 98 102 105 108 111 112 112 112 110 105 97 91 86 84 84 84 87 92 98 102 104 106 107 107 106 105 105 105 105 106 105 105 103 102 100 99 98 98 97 96 97 97 98 98 98 98 98 99 102 105 109 107 105 103 102 102 103 103 104 104 103 102 100 99 99 97 95 93 92 86 83 82 82 88 93 99 101 97 96 99 102 105 104 102 102 100 100 103 105 106 106 105 104 104 103 101 98 96 93 93 93 92 90 89 87 87 85 85 85 87 91 94 95 95 95 92 89 91 93 94 96 96 96 94 89 81 74 70 69 67 67 67 68 70 75
95 94 95 95 95 95 95 95 95 94 94 93 93 92 91 91 91 91 91 92 93 93 93 92 91 91 90 90 91 92 92 92 92 92 92 92 92 92 92 92 92 92 91 91 91 91 90 89 88 88 88 88 88 88 88 89 88 88 88 88 88 88 88 89 89 90 91 91 91 90 90 89 89 89 89 88 88 88 88 88 88 88 88 87 87 86 86 86 85 85 85 84 84 84 84 84 83 82 82 82 82 83 84 84 85 86 86 86 86 86 86 85 85 85 85 85 85 86 86 86 86 86 86 86 87 87 87 87 87 87 87 87 88 88 88 88 88 88 88 88 88 88 88 88 88 88 88 88 88 88 88 88 88 88 88 88 88 88 88 88 88 88 88 88 88 89 89 89 89 89 88 88 88 89 89 90 90 91 91 91 91 91 91 91 91 91 88 85 87 88 86 84 84 84 84 84 84 84 84 85 85 86 87 88 87 87 86 87 89 91 92 92 92 93 93 94 95 96 97 97 97 98 99 99 100 100 101 101 101 101 102 102 103 103 104 104 105 105 105 105 106 106 105 105 105 105 104 104 104 105 105 105 105 105 105 106 106 108 109 111 112 113 112 112 112 113 113 113 113 114 115 115 115 116 116 117 118 118 119 119 119 120 120 120 121 121 122 122 123 123 123 123 123 123 122 121 120 120 120 119 120 120 120 121 121 122 122 122 123 123 124 123 123 122 122 121 120 119 118 118 118 118 118 118 118 117 116 115 115 114 113 112 112 112 112 112 112 113 114 115 116 116 116 117 117 117 116 115 114 113 113 112 111 110 110 110 110 111 113 113 112 111 111 113 116 118 118 116 116 118 119 118 118 118 119 119 120 121 122 122 123 123 122 121 121 120 120 120 120 119 120 121 120 120 120 120 121 122 123 123 124 124 126 127 127 129 132 134 136 138 139 139 139 139 139 140 140 137 134 132 131 130 128 126 124 122 121 121 121 121 121 119 118 117 117 117 118 119 119 118 119 122 124 125 126 126 125 123 122 121 121 121 121 119 118 117 118 118 118 116 116 117 118 119 120 120 121 121 122 121 121 121 121 120 119 119 119 119 119 120 121 122 122 121 121 122 121 120 119 118 118 116 114 113 112 112 114 115 116 116 115 114 112 111 113 113 112 110 110 112 114 116 118 118 118 118 118 119 120 120 120 120 119 119 119 118 117 115 112 110 109 109 108 106 105 104 103 102 100 100 100 100 101 101 101 100 100 99 100 99 99 99 99 98 98 97 96 96 95 94 94 94 93 92 92 91 91 91 90 91 90 90 90 89 89 88 87 85 83 81 80 82 85 86 87 87 87 86 83 78 76 74 67 60 59 59 60 60 60 60 62 64 67 68 69 70 73 78 81 85 87 88 87 87 84 80 74 70 72 76 80 82 82 79 82 85 80 72 69 66 67 72 75 74 72 69 71 76 80 80 78 77 80 84 84 82 80 78 77 78 79 80 82 85 87 88 89 90 91 92 93 94 96 97 98 98 97 96 95 96 96 95 94 95 97 100 102 105 106 108 107 107 109 110 110 109 106 106 108 110 111 111 112 114 114 114 114 114 114 114 115 114 112 111 111 111 112 112 113 111 109 108 107 106 105 106 106 104 101 99 97 95 93 91 91 92 97 105 109 108 108 111 112 111 109 104 98 92 89 86 85 84 84 87 91 96 99 99 101 103 104 104 104 104 104 105 105 104 104 103 103 102 100 99 98 98 98 99 99 99 99 99 99 99 100 102 106 111 110 106 104 103 103 104 105 105 104 103 102 101 101 100 97 94 92 88 84 83 84 87 91 95 101 103 100 98 98 101 105 106 105 106 104 104 106 108 108 107 105 103 101 100 99 97 95 93 92 91 90 90 88 87 88 88 87 87 89 93 96 97 96 95 92 92 95 96 97 97 95 93 90 84 77 72 70 69 67 67 67 68 70 76
95 95 95 95 96 95 95 95 95 94 94 93 93 92 92 92 92 92 92 92 93 94 93 92 91 91 90 90 91 91 92 92 92 93 92 92 92 92 92 92 92 92 92 91 91 91 90 89 88 88 88 88 88 89 89 89 88 88 88 88 88 88 88 89 89 90 91 91 91 90 90 89 89 89 89 88 88 88 88 88 87 87 87 87 86 86 86 86 85 85 85 84 84 84 84 84 83 83 81 81 81 82 84 85 85 86 86 86 86 86 86 85 85 85 85 85 86 86 86 86 86 86 87 87 87 87 87 87 87 87 88 88 88 88 88 88 88 88 88 88 88 88 88 88 88 88 88 88 88 88 88 88 88 88 88 88 88 88 88 88 88 88 88 88 89 89 89 89 89 89 89 89 89 89 89 90 90 91 91 91 91 91 92 91 91 91 89 86 89 89 88 85 84 84 84 84 84 84 84 84 84 84 86 87 85 85 85 88 89 90 91 91 92 92 93 94 95 96 97 97 97 97 98 99 99 100 102 103 103 103 103 103 104 104 105 105 105 105 105 106 106 106 106 106 106 106 106 105 105 105 105 105 105 106 106 106 107 108 110 111 112 112 112 112 112 112 113 113 113 113 113 114 115 115 115 116 117 118 118 119 119 120 120 120 121 121 122 122 122 123 123 123 122 122 121 121 120 120 119 119 119 119 120 120 121 122 122 122 123 123 123 123 122 122 121 120 120 119 119 118 118 117 117 117 117 116 116 115 114 114 113 112 112 112 112 112 113 114 114 115 116 117 117 118 118 117 116 115 114 113 112 111 111 111 110 110 110 111 113 113 113 113 113 114 115 117 117 117 117 119 120 120 120 120 120 120 121 121 122 122 123 123 122 122 122 122 122 122 121 121 121 122 122 121 121 121 122 123 123 123 124 124 125 126 127 129 131 133 135 136 138 139 139 138 139 140 140 138 136 134 132 130 127 124 124 124 124 123 122 121 121 120 119 118 117 118 120 121 121 120 121 123 124 125 127 127 126 125 123 122 121 121 120 119 117 115 114 116 118 118 118 118 118 119 120 121 122 123 124 122 121 121 121 120 120 120 120 120 120 121 123 124 124 123 123 122 121 121 120 120 119 118 116 114 114 114 114 115 116 117 116 115 113 113 115 115 114 113 112 113 115 117 117 117 116 116 116 117 117 117 117 118 118 118 119 119 118 116 113 111 111 110 109 107 106 105 104 103 103 103 103 100 100 101 100 99 99 99 98 96 95 96 99 100 98 96 94 92 91 90 91 92 92 91 89 88 89 89 90 91 90 89 89 88 88 88 87 85 85 82 80 81 84 87 89 89 89 86 83 80 79 76 68 60 59 59 60 60 60 61 62 64 66 67 69 72 74 78 81 84 87 88 89 87 84 79 74 72 77 82 85 87 84 82 85 87 85 79 73 69 67 68 69 69 68 67 69 74 78 78 76 77 80 82 80 77 75 75 77 80 82 83 83 84 87 89 90 91 92 93 93 94 95 97 98 97 97 95 94 94 94 94 95 97 100 102 105 108 110 110 109 110 112 112 111 109 106 104 105 107 109 110 111 112 113 113 112 112 113 114 115 115 114 113 112 112 113 113 113 111 109 108 107 106 105 105 106 105 102 100 97 95 93 92 92 92 97 108 112 111 108 108 108 106 102 97 93 92 91 88 86 85 84 88 91 92 93 95 97 99 101 102 101 102 103 104 104 104 103 103 103 102 100 100 100 100 100 100 100 100 100 100 100 100 100 102 106 112 112 108 105 104 104 104 105 104 103 102 101 100 100 100 98 95 93 89 86 87 87 89 92 96 102 105 103 101 101 102 104 107 109 108 107 106 107 109 110 109 107 104 101 100 100 97 95 94 92 91 90 90 89 90 92 93 91 89 90 93 96 97 97 95 93 94 97 97 98 97 92 88 84 79 74 72 71 69 68 67 67 68 72 77
96 96 96 96 96 96 95 95 95 94 94 93 93 92 92 92 92 92 92 92 93 94 93 92 91 91 90 90 91 91 92 92 92 92 92 92 92 92 92 92 92 92 92 91 91 91 90 89 89 88 88 89 89 89 89 89 88 88 88 88 88 88 88 88 89 90 91 91 91 90 90 89 89 89 89 88 88 88 88 88 87 87 87 87 86 86 86 86 85 85 85 85 85 85 85 84 84 83 81 81 81 82 83 85 85 86 86 86 86 86 86 85 85 85 85 85 86 86 86 86 86 86 87 87 87 87 87 87 87 88 88 88 88 88 88 88 88 88 88 88 88 88 88 88 88 88 88 88 88 88 88 88 88 88 88 88 88 88 88 88 88 88 88 88 89 89 89 89 89 89 89 89 89 89 89 90 90 91 91 91 91 91 92 91 91 91 90 87 89 91 90 87 85 84 84 84 84 84 84 84 84 84 86 86 84 84 85 87 88 89 90 91 91 91 92 93 94 95 96 96 96 97 98 98 99 100 101 103 103 104 104 104 104 105 105 105 105 106 106 106 106 106 106 106 106 106 106 106 105 105 105 105 105 106 106 107 108 109 109 110 111 111 111 111 111 112 112 112 112 112 113 114 114 114 114 115 116 117 118 118 119 119 120 120 121 122 122 122 122 122 122 122 122 121 121 120 120 120 119 118 118 119 119 120 121 121 121 122 123 123 123 122 122 121 121 120 120 119 118 118 118 117 117 117 116 116 115 115 114 113 113 112 112 112 112 113 114 115 115 115 116 117 118 118 118 117 116 115 114 113 112 111 111 111 110 110 110 111 112 113 113 113 114 115 116 117 117 118 118 120 121 121 121 121 121 121 121 121 122 122 123 123 123 123 123 123 123 123 122 122 122 124 124 122 121 121 122 123 124 124 124 125 126 126 126 128 130 132 133 135 137 137 137 136 138 140 140 139 138 137 136 133 130 128 128 129 128 127 126 123 122 121 120 119 118 119 121 122 122 122 122 123 124 125 126 127 127 125 123 122 121 120 119 117 115 113 112 113 114 116 118 118 118 119 120 121 123 125 124 124 122 121 121 121 120 120 120 120 121 122 123 124 124 124 123 122 121 121 121 121 121 120 118 116 114 113 114 115 116 117 117 116 115 114 115 116 116 115 114 115 116 117 117 116 115 115 114 114 115 115 115 116 117 118 118 118 118 116 114 111 110 110 109 107 106 106 106 105 105 104 103 101 97 94 92 94 97 98 97 92 91 94 98 100 99 97 95 91 89 88 90 91 90 88 86 84 85 86 88 91 92 91 90 88 88 88 87 85 84 83 81 81 83 86 89 90 89 87 85 83 80 76 68 61 59 59 60 60 61 61 63 65 67 69 72 74 76 79 83 85 87 88 88 87 84 82 78 76 80 86 88 89 84 85 89 91 90 85 81 75 72 71 69 67 67 67 68 73 78 78 75 77 80 79 77 75 74 76 80 83 85 85 84 84 86 87 89 91 93 94 94 94 95 97 98 97 96 95 93 92 93 94 96 99 102 104 107 110 111 111 111 111 112 112 110 108 104 103 103 105 107 109 111 111 112 112 112 112 112 114 115 116 116 115 114 113 112 112 112 112 109 108 107 106 104 103 104 104 103 100 97 94 92 92 92 92 96 107 112 110 107 103 100 98 96 94 95 95 94 90 87 86 86 91 94 94 94 94 95 96 97 98 100 101 102 103 103 103 103 103 103 102 101 101 101 101 101 101 101 101 100 100 100 100 101 101 104 111 113 109 106 105 105 105 105 104 102 100 99 98 99 99 98 96 92 88 89 92 89 90 92 96 102 105 107 104 105 107 106 108 110 110 109 110 111 111 111 111 108 106 103 101 100 98 97 96 95 93 91 91 92 93 94 97 94 92 91 93 96 98 98 97 96 97 98 98 98 96 92 87 82 79 74 72 71 70 69 67 67 69 77 77
96 96 96 96 96 96 96 95 95 94 94 93 93 93 93 93 93 92 92 92 93 93 93 92 91 91 90 90 91 91 92 92 92 92 92 92 92 92 92 92 92 92 92 91 91 91 90 90 89 89 89 90 90 89 89 89 88 88 88 88 88 88 88 88 89 90 91 91 91 91 90 90 89 89 89 88 88 88 88 88 87 87 87 87 87 86 86 86 86 85 85 85 85 85 85 85 84 83 82 81 81 82 83 84 85 85 85 85 85 85 85 85 84 85 85 86 86 86 86 86 86 86 87 87 87 87 87 87 88 88 88 88 88 88 88 88 88 88 88 88 88 88 88 88 88 88 88 88 88 89 89 89 89 89 89 89 89 89 88 88 88 88 88 88 89 89 89 89 90 90 90 90 90 90 90 90 90 91 91 91 91 91 92 91 91 91 90 88 90 91 90 88 87 86 85 84 84 84 84 84 84 84 85 85 84 84 85 86 87 88 89 90 90 90 91 92 93 94 94 95 96 96 97 98 98 99 101 102 103 104 105 105 105 105 105 106 106 106 106 106 106 106 106 106 106 106 106 106 106 105 105 105 106 106 106 107 108 108 109 109 110 110 110 110 110 111 111 111 112 112 113 113 113 113 114 115 116 117 117 118 119 119 120 120 121 122 122 122 122 122 122 122 121 121 120 120 120 119 119 118 118 118 119 120 121 121 121 122 123 123 123 122 121 121 120 120 120 119 118 118 118 117 117 117 116 115 115 115 114 113 113 112 112 112 112 113 114 115 116 116 116 117 119 119 118 117 116 115 114 113 112 111 111 111 111 111 111 112 112 113 113 114 116 117 117 117 117 118 118 120 122 122 122 122 122 121 121 121 122 122 123 123 123 124 124 124 124 124 124 123 123 124 124 123 121 121 122 123 124 124 125 127 128 128 127 128 129 131 132 134 135 135 135 136 138 141 140 140 140 139 137 135 133 132 131 131 130 129 128 125 123 122 121 120 120 121 123 123 123 123 123 123 124 125 126 126 126 124 123 122 121 119 117 116 115 113 113 113 114 115 116 117 118 119 120 121 121 123 123 123 123 122 121 121 121 121 121 121 121 122 123 124 124 124 123 122 121 121 121 121 122 120 118 116 114 113 113 114 115 116 117 116 116 116 116 117 118 117 116 116 116 117 116 115 114 113 112 112 113 113 113 115 116 117 117 117 117 116 114 112 110 109 109 108 107 107 107 106 105 103 102 100 96 90 89 91 94 96 96 92 90 92 96 98 98 97 94 91 88 87 89 91 91 89 85 84 84 86 88 92 94 94 92 89 89 89 88 86 84 82 82 82 81 82 84 85 86 85 85 83 81 76 68 61 59 59 60 61 61 62 63 65 67 69 71 74 76 79 82 84 86 87 88 88 88 85 82 79 82 87 90 89 85 87 91 93 92 88 84 79 79 79 75 71 68 68 68 72 76 76 75 76 79 77 75 74 75 79 83 85 86 86 85 86 87 88 89 90 93 94 95 95 96 97 98 97 95 94 93 91 92 94 96 99 101 103 106 109 111 111 111 111 112 112 110 107 104 102 103 104 107 109 110 111 112 112 112 112 112 114 116 118 117 115 114 113 112 111 111 111 110 109 107 107 105 102 102 102 101 99 96 94 92 95 96 93 95 105 109 108 105 101 99 97 96 95 97 97 96 92 89 86 86 92 97 98 99 98 96 96 96 97 99 100 101 101 101 102 102 102 102 103 102 102 102 102 102 102 102 102 102 101 101 101 102 102 103 109 113 110 106 105 105 105 104 104 102 99 98 97 97 97 97 93 90 88 93 94 90 92 93 95 99 105 108 107 108 110 109 110 112 112 112 112 112 112 112 111 109 107 104 101 100 100 99 98 97 94 92 92 92 95 96 98 97 94 93 94 97 98 99 98 97 97 98 98 97 95 91 87 82 79 75 72 71 70 69 68 68 72 77 76
96 96 96 96 96 96 96 95 95 94 94 94 93 93 93 93 93 93 92 92 93 93 93 92 91 91 91 91 91 91 92 92 92 92 92 92 92 92 92 92 92 92 92 92 91 90 90 90 90 90 90 90 90 89 89 89 89 88 88 88 88 88 88 88 89 90 90 91 91 91 90 90 89 89 88 88 88 88 88 88 88 87 87 87 87 87 86 86 86 86 86 86 86 86 86 85 85 84 83 82 82 82 82 82 83 83 83 83 82 83 82 83 84 85 85 86 86 86 86 86 86 87 87 87 87 87 88 88 88 88 88 88 88 88 88 88 88 88 88 88 88 88 88 88 88 88 88 88 88 89 89 89 89 89 89 89 89 89 88 88 88 89 89 89 89 89 89 89 90 90 90 90 90 90 90 90 90 91 91 91 91 91 92 91 91 91 90 88 90 91 90 89 88 87 86 85 84 84 84 84 84 84 85 84 84 84 84 85 86 87 88 89 89 90 90 91 92 93 94 94 95 96 97 97 97 98 100 102 103 104 105 106 106 106 106 106 106 106 106 106 106 105 105 105 105 105 105 106 106 105 105 105 105 105 106 107 107 108 108 109 109 109 109 109 110 110 110 111 111 112 112 112 112 113 114 114 115 116 117 118 118 119 119 120 121 121 121 122 122 122 121 121 121 120 120 120 119 119 118 118 118 118 119 120 121 121 121 122 122 122 122 122 121 120 119 119 119 119 118 118 118 117 117 116 116 115 115 114 114 113 113 113 113 113 113 114 114 115 116 116 117 118 119 119 118 116 116 115 114 113 112 111 111 111 111 111 111 112 112 112 113 115 117 117 117 117 118 118 119 120 122 122 122 122 122 122 122 122 122 123 123 124 124 124 124 124 126 128 126 124 124 124 125 124 123 122 122 123 124 125 127 130 132 132 130 129 130 131 132 133 134 134 135 135 138 141 140 140 139 138 137 136 135 134 133 132 132 131 129 126 123 122 121 121 121 122 124 125 125 124 124 124 125 126 127 126 124 123 122 121 120 118 116 115 114 114 114 114 116 117 117 118 118 119 120 121 121 121 121 121 122 122 121 121 121 121 121 121 121 122 123 123 124 124 124 123 122 121 121 122 121 121 119 116 114 112 112 112 113 115 117 117 117 117 117 117 118 119 118 117 117 116 116 115 113 111 110 110 110 111 113 114 116 117 117 116 115 113 112 110 109 109 109 108 108 107 107 106 104 103 102 101 96 91 89 89 92 94 95 93 90 90 93 96 96 96 94 91 88 87 88 91 91 89 85 83 82 84 88 91 94 94 93 91 90 90 90 87 84 80 79 80 81 80 79 78 78 79 81 81 79 76 68 61 60 60 60 60 61 62 63 66 67 68 70 73 75 78 80 81 83 85 87 89 90 89 87 83 84 88 91 90 87 89 94 95 94 90 85 83 85 83 80 74 70 68 68 70 73 74 73 74 75 73 72 73 76 81 85 87 87 87 87 87 89 90 90 91 93 94 94 96 96 97 98 96 94 93 92 91 92 94 96 98 99 101 104 106 109 110 110 111 111 111 110 107 103 101 102 105 107 109 110 111 112 112 112 112 113 116 118 118 117 115 114 112 111 110 110 110 109 107 106 106 104 102 100 99 99 97 95 93 93 102 102 95 94 102 106 106 104 103 103 101 98 99 100 100 99 95 92 89 87 89 95 100 102 101 100 99 97 96 98 99 100 100 100 100 101 101 102 102 103 103 103 103 103 102 102 102 102 103 103 103 103 103 104 106 111 111 107 106 105 105 103 103 102 99 97 96 94 93 92 88 89 93 98 97 92 94 96 96 98 102 107 109 111 112 111 112 115 115 115 113 112 112 111 111 109 108 105 102 102 102 101 99 97 94 93 93 93 96 97 99 100 98 97 97 98 98 99 98 97 97 97 96 93 93 89 87 82 78 75 72 71 71 70 69 68 75 76 73
97 97 97 97 96 96 96 96 95 95 95 94 94 94 94 93 93 93 93 93 93 92 92 92 92 91 91 91 91 91 91 92 92 92 92 93 92 92 92 92 92 92 92 91 91 90 90 90 91 91 91 91 90 90 90 89 89 88 88 88 88 88 88 88 89 90 90 91 91 91 90 89 89 89 88 88 88 88 88 88 88 87 87 87 87 87 86 86 86 86 86 86 86 87 86 86 85 85 84 82 83 84 84 82 82 82 82 82 82 82 82 83 84 85 86 86 86 86 86 86 86 87 87 87 87 88 88 88 88 88 88 88 88 88 88 88 88 88 88 88 88 88 88 88 88 88 89 89 89 89 89 89 89 89 89 89 89 89 89 89 89 89 89 89 89 89 89 89 90 90 90 90 90 90 91 91 91 91 91 91 91 91 92 92 92 91 90 89 90 91 91 90 90 89 88 86 85 84 84 84 84 84 84 84 84 84 84 84 84 85 86 87 88 88 89 90 91 92 93 94 95 96 96 96 96 97 99 101 102 103 105 106 106 106 106 106 106 107 107 107 106 105 104 104 104 104 104 104 104 105 105 105 105 105 106 106 107 107 107 107 107 108 108 109 109 109 109 110 110 110 111 111 111 112 113 114 114 115 116 117 118 118 119 119 119 119 120 121 121 122 121 120 120 120 119 119 119 118 118 118 118 119 119 121 121 121 122 122 122 122 122 121 120 119 118 118 119 119 118 118 118 117 117 116 116 115 114 114 114 113 113 113 113 114 115 115 115 115 116 118 118 118 119 119 117 116 115 115 114 112 112 112 112 112 112 111 111 112 112 112 113 114 116 117 117 118 118 118 120 121 122 123 124 123 123 123 123 123 123 123 124 124 124 125 126 127 129 130 129 126 125 125 126 126 125 123 123 123 124 125 127 129 131 132 132 131 131 131 132 133 133 134 135 136 138 140 140 139 138 137 137 136 135 134 134 133 132 131 129 125 122 121 121 121 122 124 125 126 127 126 126 126 126 127 128 127 125 123 122 120 119 117 115 115 115 115 115 115 117 118 119 120 120 121 122 121 121 121 121 121 120 120 121 121 121 121 121 121 121 121 121 122 123 124 124 124 123 123 122 122 121 120 118 116 114 112 110 110 111 112 115 117 117 116 117 117 119 120 119 118 117 115 114 113 111 109 108 108 110 112 114 115 116 117 117 115 113 111 110 109 109 108 108 109 108 106 105 104 104 104 103 102 98 93 89 88 90 93 94 94 91 88 89 93 95 95 94 91 87 86 87 90 91 89 85 82 81 83 87 91 93 93 92 91 90 89 89 88 85 80 76 77 81 82 81 79 77 76 76 76 75 72 66 61 60 60 60 60 61 62 63 65 67 68 70 72 74 75 77 78 80 82 85 88 90 90 89 86 86 89 92 91 89 90 95 96 95 91 87 87 87 85 81 75 70 68 68 69 70 72 71 72 71 71 72 73 76 82 86 88 87 86 86 88 89 91 91 91 92 93 94 95 96 97 97 96 94 92 90 90 92 93 95 97 100 102 104 106 107 108 109 110 110 109 108 107 103 100 102 107 109 110 110 111 112 111 111 112 115 117 118 117 116 115 113 112 111 109 109 108 106 105 104 103 102 101 99 98 97 96 94 94 98 105 105 98 95 99 102 103 104 107 108 105 102 102 103 103 101 99 98 96 92 89 90 95 101 103 105 103 99 97 97 97 98 99 99 100 100 101 101 102 102 102 103 103 104 103 103 104 105 105 105 105 105 105 105 105 108 110 109 108 106 105 103 102 101 100 100 98 94 91 89 92 94 98 100 99 93 95 100 101 100 100 104 108 111 113 113 114 116 115 114 112 111 109 108 108 108 108 106 104 104 104 102 99 97 94 94 94 95 96 97 99 100 100 99 99 98 98 97 96 94 92 93 92 89 89 88 87 83 80 75 72 72 71 70 69 68 73 74 72
98 97 97 97 97 96 96 96 96 96 95 95 95 94 94 94 93 93 93 93 93 92 92 92 92 92 91 91 91 91 91 92 92 93 93 93 93 92 92 92 92 92 92 91 91 91 91 91 92 92 91 91 91 90 90 89 89 89 88 88 88 88 88 89 90 90 90 91 90 90 90 89 89 89 89 88 88 88 88 88 88 87 87 87 87 87 87 87 87 87 87 87 88 88 87 86 86 85 84 83 82 84 85 85 85 85 85 85 85 85 85 86 86 86 86 86 86 86 86 87 87 87 87 87 87 88 88 88 88 88 88 88 88 88 88 88 88 88 88 88 89 89 89 89 89 89 89 89 89 89 89 89 89 89 89 89 89 89 89 89 89 89 89 89 89 89 89 90 90 90 90 90 90 90 91 91 91 91 91 91 91 91 92 92 92 91 90 89 90 91 91 91 91 90 89 87 86 86 85 84 84 84 84 84 84 84 84 84 84 84 85 86 87 87 88 89 90 92 93 94 95 96 95 95 95 97 99 101 102 104 105 105 106 107 107 107 107 107 108 107 106 104 103 103 103 103 104 104 104 104 104 104 105 105 106 106 107 107 106 106 106 107 108 108 109 109 109 109 109 109 110 110 111 112 113 113 114 115 115 116 117 117 118 118 118 118 119 120 121 121 121 120 120 119 119 119 119 118 118 118 118 119 120 121 122 122 122 122 122 122 121 120 119 118 118 118 118 119 119 118 118 117 117 116 116 115 114 114 114 114 114 114 115 116 116 116 116 116 117 119 119 119 118 118 117 116 115 115 114 114 113 113 112 112 112 112 112 112 112 112 112 113 114 116 117 118 119 120 120 122 123 124 124 124 123 123 123 123 124 124 124 125 125 126 127 129 131 132 130 128 127 127 128 128 127 125 124 124 124 125 127 128 129 130 132 133 133 133 133 133 133 134 135 136 139 140 139 137 136 135 135 135 133 132 132 132 131 129 126 123 121 121 121 121 122 125 127 128 128 128 128 128 128 128 128 127 126 124 122 119 118 116 115 115 115 116 116 116 117 118 120 121 122 122 122 122 122 122 121 121 120 120 120 120 121 121 120 120 120 120 120 120 121 123 124 124 124 123 122 122 120 119 118 117 115 112 109 109 110 111 113 114 115 115 115 116 118 120 119 118 115 113 111 110 109 107 107 108 110 112 114 116 118 117 116 114 111 111 111 109 108 108 108 108 108 107 106 104 103 105 105 104 101 96 91 87 88 91 93 93 92 89 87 89 93 94 94 91 87 84 85 89 90 89 87 84 81 81 85 89 91 91 91 90 89 87 87 87 85 80 76 77 82 85 86 83 80 78 76 74 73 72 68 64 62 60 60 60 61 61 63 65 66 68 70 71 71 72 74 77 78 80 83 85 87 89 90 89 88 90 93 92 90 91 95 97 96 93 91 89 87 83 79 74 70 69 69 69 69 69 70 70 71 71 72 73 76 81 85 85 83 81 82 85 87 88 88 88 89 91 92 94 96 96 96 95 93 91 88 88 92 94 96 99 102 104 106 108 108 108 108 108 107 107 107 105 101 98 102 107 109 109 110 111 112 111 110 112 114 115 115 115 114 114 113 112 111 110 109 107 106 104 103 103 102 100 99 98 97 96 94 95 101 105 105 102 97 97 100 102 105 110 112 109 106 105 107 106 103 103 103 101 99 94 89 91 99 104 106 106 101 99 98 98 98 99 99 100 100 101 101 101 102 102 103 103 104 104 105 105 106 107 107 107 107 107 107 106 107 109 111 108 106 105 103 102 99 99 99 98 94 90 92 97 97 99 100 99 94 95 101 105 105 103 105 108 112 114 115 116 116 115 113 111 110 108 105 105 106 107 105 104 103 103 102 99 97 95 95 95 97 97 97 98 99 99 99 98 97 96 95 93 90 88 87 87 84 85 85 84 83 81 76 74 72 71 71 70 69 70 70 71
97 97 97 97 97 96 96 96 96 96 96 95 95 94 94 94 93 93 93 93 93 93 92 92 92 92 91 91 91 91 91 92 93 93 93 92 92 92 92 92 92 92 91 91 91 91 91 91 92 92 92 91 91 91 90 90 89 89 88 88 88 88 88 88 89 90 90 90 90 90 90 89 89 89 89 88 88 88 88 88 88 87 87 87 87 87 87 87 87 87 87 87 88 88 87 87 86 85 85 83 82 83 85 85 85 85 85 85 85 85 85 86 86 86 86 86 86 86 86 87 87 87 87 87 87 88 88 88 88 88 88 88 88 88 88 88 88 88 88 88 89 89 89 89 89 89 89 89 89 89 89 89 89 89 89 89 89 89 89 89 89 89 89 89 89 89 90 90 90 90 90 90 90 90 91 91 91 91 91 91 91 91 92 92 91 91 90 89 90 91 91 91 91 91 90 88 88 87 86 85 85 84 84 84 84 84 84 84 84 84 85 86 86 87 88 89 90 92 93 94 95 95 95 94 95 96 99 101 102 104 104 105 106 106 106 107 107 108 108 108 107 105 103 102 102 103 103 103 104 103 103 104 104 105 106 106 107 107 106 105 106 107 107 108 108 108 108 108 108 109 109 110 111 112 112 113 114 114 115 115 116 117 117 117 117 117 118 119 120 121 121 120 119 119 118 118 118 118 117 117 118 119 120 121 121 121 121 122 122 121 121 120 119 118 117 117 118 118 118 118 118 117 116 116 115 115 114 114 114 114 114 115 115 116 117 117 117 117 118 119 119 118 118 117 117 115 115 115 114 114 113 112 112 112 112 112 112 112 112 112 112 112 113 114 116 118 119 120 121 122 123 123 123 124 123 123 124 124 124 124 124 125 126 127 128 129 131 133 131 128 127 128 129 130 128 126 125 126 127 127 127 129 130 130 131 132 133 133 133 133 133 134 135 137 139 140 139 137 135 133 133 133 131 131 131 130 128 126 124 123 121 122 122 122 123 125 127 128 129 129 128 128 128 129 128 127 126 124 122 119 118 116 115 116 116 117 117 117 118 119 120 121 122 122 122 121 121 121 121 120 120 119 119 120 120 120 120 119 119 119 119 119 120 122 124 124 124 123 122 122 120 119 118 117 115 113 110 108 109 110 112 114 114 114 114 115 117 119 119 117 114 111 109 108 107 107 107 109 111 113 114 115 116 114 111 111 111 111 111 110 108 107 106 107 107 106 106 104 101 102 104 104 103 98 93 89 87 89 91 91 91 89 86 88 92 94 93 90 87 84 84 88 90 89 86 83 80 79 82 87 90 90 90 88 88 86 86 87 85 80 76 77 81 83 85 87 87 84 79 75 74 72 70 69 66 63 60 60 60 61 62 64 66 68 69 68 69 71 73 75 77 79 82 85 87 89 91 91 90 90 93 93 91 91 95 97 97 94 90 87 84 81 78 74 70 69 69 69 70 71 71 71 72 71 71 72 75 79 80 80 79 78 79 82 84 84 84 85 87 89 92 94 95 95 95 93 91 88 87 89 92 94 96 99 102 105 108 109 108 107 106 106 105 105 106 105 100 98 102 107 108 107 109 111 111 110 110 111 113 114 113 113 113 113 112 112 111 110 110 109 107 106 106 105 104 103 103 101 100 97 95 97 101 105 105 103 98 97 100 102 105 109 112 111 108 109 110 108 106 107 107 106 103 99 93 91 98 104 106 105 102 100 99 99 99 99 99 100 100 100 101 101 102 102 103 103 104 104 105 105 106 107 107 107 107 108 107 107 108 109 111 109 106 104 103 101 99 97 96 95 91 90 97 100 99 100 101 99 95 96 101 107 109 108 106 109 113 115 116 116 115 114 112 111 110 108 104 104 105 106 104 103 102 102 101 99 97 96 96 96 98 101 98 97 97 98 98 97 95 94 92 89 88 86 84 84 84 84 84 84 82 81 77 74 72 72 71 72 71 68 70 72
97 97 97 97 97 97 97 97 97 96 96 96 95 94 94 94 94 94 93 93 93 93 92 92 92 92 91 91 91 91 92 93 93 93 93 92 92 92 92 92 92 92 91 91 91 91 91 92 91 91 91 91 91 91 90 90 89 89 89 88 88 88 88 88 89 90 90 90 90 89 89 89 89 89 89 88 88 88 88 88 88 88 88 87 87 87 87 87 87 87 88 88 89 88 87 87 86 86 85 84 82 83 84 85 85 85 85 86 86 86 86 86 86 86 86 86 86 86 86 87 87 87 87 87 87 88 88 88 88 88 88 88 88 88 88 88 88 89 89 89 89 89 89 89 89 89 89 89 89 89 89 89 89 89 89 89 89 89 89 89 89 89 89 89 89 89 90 90 90 90 90 90 90 90 91 91 91 91 91 91 91 91 92 92 91 91 90 90 90 91 92 92 92 91 90 89 89 89 88 86 86 86 85 84 84 84 84 84 84 84 84 85 86 87 87 88 90 91 93 94 95 94 94 94 94 95 98 100 102 103 104 104 105 105 106 107 107 108 109 109 108 105 103 102 102 102 102 103 103 103 103 103 104 105 106 106 106 106 105 105 105 106 106 106 106 106 107 107 108 109 109 109 110 111 112 112 113 113 113 114 115 115 116 116 116 117 118 118 119 119 119 119 119 118 117 117 117 117 117 117 118 118 119 120 121 121 121 122 121 121 120 119 118 117 117 117 118 118 118 117 117 116 116 116 115 115 114 114 114 114 115 115 116 117 118 118 118 118 118 119 119 118 118 117 116 116 115 115 115 114 113 112 112 112 112 112 112 112 112 112 112 113 113 113 115 117 118 119 121 122 122 123 123 124 124 124 124 124 124 124 125 126 126 127 129 130 132 133 132 130 130 130 130 130 129 127 127 129 129 129 129 129 130 130 131 132 133 134 134 134 134 135 136 138 140 140 139 137 135 134 133 133 131 130 129 128 126 125 124 123 123 124 125 124 124 125 128 129 130 129 129 129 129 128 128 127 125 124 121 118 118 118 118 118 119 119 119 119 119 120 121 122 123 123 122 121 120 120 120 119 118 118 118 119 119 120 119 118 118 118 117 117 118 120 122 123 123 123 122 122 120 118 117 117 115 113 110 107 107 108 110 111 112 112 113 115 116 118 118 116 113 110 107 106 106 106 108 110 112 113 114 113 112 111 111 111 112 114 114 111 108 105 104 104 105 105 104 104 101 100 101 102 101 98 95 91 86 85 87 86 85 85 84 85 89 91 91 90 87 83 83 86 88 88 85 82 79 78 81 86 88 89 89 87 86 84 84 85 84 79 75 75 79 81 83 87 88 87 82 79 77 73 70 70 70 68 62 60 60 61 62 63 64 66 66 67 68 70 71 74 77 81 84 87 89 91 92 93 92 92 93 94 92 92 94 97 98 95 90 87 85 83 81 77 72 69 70 71 72 73 74 76 77 75 72 72 74 75 75 76 76 77 78 80 80 81 82 84 87 90 93 94 94 94 93 91 88 86 86 91 94 96 97 99 102 105 108 108 108 107 106 104 103 104 106 104 99 97 100 103 103 102 105 108 108 108 109 110 111 111 111 111 112 112 112 111 111 110 110 109 108 107 107 106 105 104 103 101 100 98 97 98 101 104 105 104 102 99 100 101 104 107 110 111 110 111 112 110 108 109 110 109 106 103 97 91 96 102 106 105 103 102 101 100 99 99 99 100 100 100 101 101 102 102 103 103 104 104 105 106 106 107 107 107 108 108 109 109 108 108 107 108 105 103 102 100 98 97 95 92 91 93 99 102 101 101 103 101 98 97 101 106 111 112 110 111 114 115 116 115 114 113 111 110 109 107 103 102 103 104 103 102 100 100 100 100 98 97 96 96 98 102 102 100 98 96 95 94 93 91 90 89 88 87 86 86 85 85 85 84 82 81 79 77 74 73 72 73 72 68 69 72
97 97 97 97 97 97 97 97 97 97 96 96 96 95 94 94 94 94 94 93 93 93 93 92 92 92 92 92 92 92 93 93 93 93 93 92 92 92 92 92 92 92 91 91 91 91 92 92 91 91 91 91 91 91 90 90 89 89 89 88 88 88 88 88 89 89 90 90 89 89 89 89 89 89 88 88 88 88 88 88 88 88 88 88 87 87 87 87 87 87 88 88 89 88 88 87 86 86 85 85 83 82 83 84 85 85 85 85 85 85 86 86 86 86 86 86 86 86 87 87 87 87 87 88 88 88 88 88 88 88 88 88 88 88 88 89 89 89 89 89 89 89 89 89 89 89 89 89 89 89 89 89 89 89 89 89 89 89 89 89 89 89 89 90 90 90 90 90 90 90 90 90 90 91 91 91 91 91 91 91 91 91 92 92 91 91 90 90 91 92 92 92 92 91 90 90 90 90 89 87 87 87 86 85 84 84 84 84 84 84 84 84 85 86 87 88 90 91 92 94 94 94 93 93 94 95 98 100 101 102 103 104 104 105 106 106 107 108 108 108 107 105 103 102 101 101 101 102 102 102 102 103 104 105 105 106 106 105 104 104 105 105 105 106 106 106 106 107 108 109 109 109 110 111 111 112 112 112 113 113 114 115 115 115 116 117 117 117 118 118 118 118 118 118 117 116 116 116 116 117 117 118 119 120 120 121 121 121 121 120 119 118 117 117 116 117 117 117 117 117 116 116 115 115 115 115 115 115 115 115 115 115 116 117 118 118 118 118 119 119 119 118 118 117 116 116 116 116 115 114 113 112 112 112 112 112 112 113 113 113 113 113 114 114 114 116 117 119 121 121 122 122 123 124 124 124 124 124 124 125 125 126 127 129 130 131 132 133 133 133 132 132 131 131 129 127 129 131 132 132 131 130 130 130 131 132 133 134 134 135 136 137 138 139 140 141 140 139 137 136 136 135 134 132 131 129 128 127 126 124 124 125 126 126 126 127 129 130 130 130 130 129 128 128 127 126 124 122 120 119 119 120 120 120 121 121 121 120 121 121 122 123 123 122 122 120 118 117 117 117 117 117 118 118 119 120 119 118 118 117 118 117 116 118 119 120 121 122 122 121 120 118 117 116 115 113 109 107 106 106 107 108 109 111 113 114 116 117 116 113 111 108 106 105 106 107 109 111 112 112 112 112 111 111 113 114 115 116 116 113 109 106 104 102 102 102 103 103 101 98 97 97 96 94 92 89 86 84 83 84 83 82 82 83 86 89 90 89 86 82 81 84 88 87 85 82 79 78 81 85 87 88 88 86 83 81 82 84 84 80 75 74 77 81 85 88 88 87 84 81 79 74 68 67 68 67 62 62 63 62 63 63 63 63 65 66 67 68 70 73 76 80 83 85 87 90 92 93 94 95 96 96 94 93 94 97 98 96 93 90 88 85 82 77 72 71 72 74 75 77 80 82 83 80 74 72 73 74 75 76 76 75 77 78 79 80 83 85 88 92 94 95 94 92 90 87 86 86 86 91 95 97 98 99 101 104 106 108 107 106 106 102 101 103 104 101 97 95 97 98 98 98 101 103 104 106 108 109 110 110 110 111 112 112 112 111 111 110 109 109 109 108 107 106 105 104 103 101 100 100 101 100 101 104 107 106 104 101 100 100 102 105 108 110 112 113 114 113 111 111 111 111 109 105 99 93 94 100 104 105 104 105 104 102 99 99 99 100 100 100 101 101 102 102 103 103 103 104 105 106 106 107 107 107 108 108 109 109 108 106 105 104 103 102 100 100 100 100 95 93 95 98 102 105 105 104 105 104 101 99 101 104 110 112 113 113 114 115 115 114 112 111 109 109 108 106 102 101 101 103 103 102 100 99 100 100 100 99 98 97 99 101 102 101 100 97 96 95 94 93 93 93 92 90 91 90 91 91 90 88 83 77 74 74 77 77 75 74 71 69 70 71
97 97 98 98 97 97 97 97 97 97 97 97 96 96 95 95 94 94 94 94 93 93 93 93 93 93 93 93 93 93 93 93 93 93 93 92 92 92 92 92 92 92 92 92 92 92 92 92 91 91 91 91 91 91 91 90 90 89 89 89 88 88 89 89 89 89 89 90 89 89 89 89 89 89 88 88 88 88 88 88 88 88 88 88 88 88 87 87 87 88 88 89 89 88 88 87 86 86 86 85 84 82 83 83 84 84 85 85 85 85 85 86 86 86 86 86 86 86 87 87 87 87 87 88 88 88 88 88 88 88 88 88 88 88 88 89 89 89 89 89 89 89 89 89 89 89 89 89 89 89 89 89 89 89 89 89 89 90 89 89 89 90 90 90 90 90 90 90 90 90 90 90 90 91 91 91 91 91 91 91 91 91 92 92 92 91 91 91 91 92 92 92 92 91 90 90 91 91 90 88 88 88 87 86 85 85 84 84 84 84 84 84 85 86 88 88 89 90 91 93 93 93 92 92 93 94 97 98 100 101 101 103 104 105 105 106 107 107 107 107 106 105 103 101 100 100 100 101 101 101 102 103 104 105 105 105 104 104 103 103 104 104 105 105 105 106 106 107 109 110 110 110 110 111 111 112 112 112 112 112 113 114 115 115 116 116 117 116 116 116 117 117 117 116 116 115 115 115 115 116 117 118 119 120 120 121 121 120 120 119 118 117 116 116 116 117 117 117 117 117 116 116 115 115 115 115 115 115 116 116 116 117 118 118 118 119 119 119 120 120 119 119 118 118 117 117 116 116 115 114 113 112 112 112 112 112 113 114 114 115 115 115 115 115 115 115 116 117 119 121 121 122 123 124 124 124 124 125 126 126 127 127 128 130 131 132 132 134 135 135 134 133 132 131 129 129 131 134 135 135 133 132 132 132 132 133 134 134 135 136 138 139 140 140 141 142 142 142 140 139 138 137 136 134 133 132 131 130 128 126 126 127 128 127 127 127 129 130 130 130 130 129 127 126 125 124 122 121 121 121 122 122 122 122 123 123 123 123 123 123 124 124 124 122 121 119 116 115 115 115 114 115 117 117 118 119 119 117 116 116 117 117 117 116 115 116 117 118 119 119 119 117 115 115 115 113 110 107 106 105 105 106 108 110 113 115 115 115 114 112 110 108 107 107 108 110 112 112 112 112 112 111 111 111 113 114 115 117 117 115 111 108 105 102 100 99 99 100 100 96 94 94 92 90 88 87 85 85 87 88 86 83 81 82 84 86 87 87 84 81 80 83 86 87 84 82 79 78 80 82 84 87 87 86 82 79 80 82 83 80 74 74 78 82 85 87 87 86 83 79 76 73 67 63 63 64 61 63 66 66 66 65 64 63 64 65 67 68 69 71 73 76 79 81 84 87 90 92 94 95 96 96 96 95 96 98 100 99 95 90 86 82 79 75 73 74 77 80 79 79 82 86 87 84 76 72 72 74 75 76 76 75 75 77 79 80 82 85 88 92 94 95 93 89 86 85 85 86 88 91 95 98 99 100 101 103 105 107 105 105 105 103 100 100 100 96 94 95 96 97 98 100 101 102 103 104 107 108 109 110 110 111 112 112 112 112 111 111 109 109 109 109 108 106 106 104 103 104 103 104 105 103 103 104 108 108 106 103 101 101 102 105 109 111 113 114 115 115 113 113 112 111 109 107 103 95 93 97 101 104 105 106 105 104 101 100 100 100 100 101 101 101 102 102 103 103 103 104 105 105 106 107 107 108 108 109 109 109 108 106 105 103 103 102 102 104 103 100 94 94 97 100 103 107 108 107 107 105 102 100 102 106 110 113 114 114 114 114 112 111 109 108 107 106 106 104 101 99 100 102 102 102 100 98 98 99 100 101 100 100 100 100 101 101 100 100 98 97 96 96 96 97 94 94 95 94 94 94 92 89 83 77 72 71 71 73 74 73 69 70 73 72
96 97 97 98 98 97 97 97 97 98 98 97 97 97 96 95 95 94 94 94 94 93 93 93 93 93 93 93 93 93 93 93 93 93 93 92 92 92 92 92 92 92 92 92 92 92 92 92 91 91 91 91 91 91 91 90 90 90 89 89 89 89 89 89 89 89 89 90 89 89 89 89 89 89 89 88 88 88 88 88 88 88 88 88 88 88 87 87 88 88 88 89 88 88 88 87 86 86 86 85 85 84 83 82 82 83 84 84 84 85 85 86 86 86 86 86 86 87 87 87 87 87 87 88 88 88 88 88 88 88 88 88 88 88 89 89 89 89 89 89 89 89 89 89 89 89 89 89 89 89 89 89 89 89 89 89 90 90 89 89 90 90 90 90 90 90 90 90 90 90 90 90 91 91 91 91 91 91 91 91 91 91 92 92 92 91 91 91 91 92 92 92 92 91 91 91 91 91 90 89 89 89 88 87 86 86 85 84 84 84 84 84 85 86 87 88 88 89 90 91 92 91 91 91 93 94 96 97 97 98 100 102 104 105 105 106 107 106 105 105 105 104 103 101 100 99 99 99 99 100 102 103 104 105 105 104 104 103 103 103 104 104 105 105 105 106 107 108 110 110 110 110 110 110 111 111 111 112 112 112 113 114 115 115 115 116 116 116 115 115 116 116 116 115 115 114 114 115 115 116 118 119 119 120 120 121 120 120 119 118 117 116 115 115 116 116 116 116 116 116 117 116 115 115 115 116 116 116 116 116 117 118 118 119 119 119 119 119 119 120 119 119 119 118 118 117 116 115 115 114 113 112 112 112 112 112 113 114 115 115 115 115 115 115 116 117 117 116 117 119 121 122 123 124 124 124 124 125 126 127 127 128 129 130 131 132 133 135 136 136 135 134 133 132 130 130 132 135 136 137 136 135 134 133 133 133 134 135 135 137 139 140 141 141 142 142 143 143 142 141 140 139 137 136 135 134 133 131 129 129 128 127 128 128 128 128 129 130 131 132 131 130 128 126 125 123 123 123 123 124 124 124 123 123 122 123 124 125 125 125 125 124 124 123 121 119 117 115 115 114 113 114 115 115 116 117 118 117 116 114 114 115 116 117 116 115 115 115 115 115 115 115 115 115 115 113 110 109 107 105 105 106 108 111 113 114 115 114 112 111 111 112 112 112 112 112 112 111 111 111 111 111 110 110 112 113 114 117 117 116 113 109 106 103 100 98 97 97 95 93 92 91 90 89 87 87 88 89 91 93 91 86 82 80 81 83 84 85 83 80 80 82 85 85 84 82 79 77 79 80 82 85 87 86 83 79 78 81 82 79 73 73 77 81 83 84 85 84 82 77 72 67 64 62 61 61 60 61 65 67 68 68 67 65 65 66 68 70 71 72 72 73 75 77 79 82 86 88 90 92 93 95 96 97 97 98 99 98 94 89 84 83 81 76 74 79 83 85 83 81 82 86 88 86 80 74 73 73 74 74 74 74 75 77 80 82 84 87 89 92 93 94 91 87 84 83 85 86 89 93 96 99 99 99 100 101 103 105 102 102 104 103 100 97 96 93 95 97 99 102 104 106 106 105 104 105 106 107 109 109 110 111 112 112 112 112 111 111 110 110 110 110 109 108 106 105 105 106 105 106 108 106 105 106 109 108 107 105 104 104 103 105 109 112 114 116 116 116 114 113 111 110 109 107 104 99 95 95 98 101 104 105 104 104 102 101 101 101 101 102 102 102 102 102 103 103 103 104 104 105 106 106 107 108 108 109 109 110 109 108 106 105 104 104 106 106 102 98 96 97 98 100 104 108 111 111 109 106 103 102 106 110 113 114 114 113 112 110 109 107 107 106 105 104 103 102 100 99 99 101 102 101 99 97 97 98 100 100 101 100 99 99 100 100 101 100 100 99 97 98 98 98 97 97 97 96 95 93 91 87 82 76 72 71 71 72 72 71 69 73 77 75
96 97 97 98 98 98 97 97 98 98 98 98 98 97 96 96 95 94 94 94 93 93 93 93 93 93 93 94 94 93 93 93 93 93 93 93 93 93 93 92 92 92 92 92 92 92 92 92 91 91 91 91 91 91 91 90 90 90 89 89 89 89 89 90 90 89 89 90 90 90 89 89 89 89 89 89 89 88 88 88 88 88 88 88 88 88 88 88 88 88 89 89 88 88 88 87 87 86 86 86 86 85 84 82 82 82 82 83 84 84 85 85 85 86 86 86 87 87 87 87 87 87 87 88 88 88 88 88 88 88 88 88 88 89 89 89 89 89 89 89 89 89 89 89 89 89 89 89 89 89 89 89 89 89 90 90 90 90 90 90 90 90 90 90 90 90 90 90 90 90 90 90 91 91 91 91 91 91 91 91 91 91 92 92 92 91 91 91 91 92 92 92 92 91 91 92 92 92 91 90 90 89 89 88 87 87 86 85 84 84 84 84 84 86 86 87 88 89 90 90 90 90 91 91 92 94 94 95 96 97 99 102 104 104 105 106 107 106 105 104 104 103 102 100 99 99 99 99 99 100 102 103 105 105 105 104 103 103 103 103 104 105 105 105 106 107 107 109 109 110 110 110 110 109 110 110 111 112 112 113 113 114 115 115 115 115 116 115 114 114 115 115 115 114 114 114 114 115 116 117 119 120 120 120 120 120 120 119 119 117 116 115 115 115 115 116 116 116 116 116 117 117 117 116 116 116 116 117 117 117 117 118 119 118 118 118 119 119 119 120 120 119 119 118 118 117 115 115 114 113 113 112 112 112 112 112 113 115 116 116 116 116 115 115 117 118 119 118 118 118 120 121 123 124 124 125 125 127 127 128 128 129 130 131 132 133 134 136 137 138 137 136 134 132 130 131 133 136 138 139 138 137 136 135 134 134 134 135 136 137 139 141 142 143 143 142 142 143 142 141 140 140 139 137 136 135 133 132 131 131 130 129 129 129 130 130 130 131 132 133 132 130 129 127 125 124 124 124 125 126 127 128 127 125 122 122 123 124 124 124 124 124 124 123 122 120 118 116 115 114 113 112 113 113 114 115 117 117 116 114 113 114 116 117 117 116 115 115 115 115 115 115 115 115 115 114 113 112 112 112 112 110 110 112 114 115 115 114 113 113 113 113 112 111 110 109 108 108 109 110 110 110 109 109 111 112 113 115 117 116 114 111 108 104 101 99 98 98 96 93 92 92 92 91 90 90 92 94 95 96 93 88 82 80 80 81 82 82 81 79 78 81 84 85 84 81 78 76 77 79 80 83 85 84 82 78 77 79 80 78 73 72 74 78 80 81 82 81 78 74 69 64 62 62 61 60 60 61 65 68 69 70 70 69 67 68 70 73 76 76 76 75 75 75 77 79 81 83 85 88 90 91 95 96 97 98 98 95 91 88 87 87 83 77 77 82 86 88 85 83 84 87 89 88 83 76 74 74 74 74 74 74 74 77 81 83 85 87 90 91 91 90 87 83 81 83 85 87 90 94 96 98 99 99 98 98 100 102 100 100 103 103 99 95 93 93 97 102 104 106 109 110 110 107 106 107 108 108 108 109 110 111 112 113 113 112 112 111 111 111 111 111 110 109 108 107 107 107 106 106 108 108 108 109 110 110 109 107 106 106 104 105 109 112 115 117 117 116 115 113 111 109 108 106 104 99 95 95 96 99 103 104 103 103 103 104 103 103 103 103 103 103 103 103 103 103 103 103 104 105 106 106 107 108 108 109 109 111 110 109 108 107 106 106 106 105 100 97 100 99 99 99 103 109 113 114 112 108 103 103 106 111 114 115 115 113 112 110 109 107 106 105 103 101 100 100 99 98 97 99 100 100 98 96 95 97 99 100 100 100 98 98 99 100 100 99 99 99 99 100 100 100 99 99 99 97 94 91 88 84 79 74 71 71 71 72 72 70 69 71 74 76
96 96 96 97 99 99 98 98 98 98 98 98 98 98 97 96 95 94 94 94 93 93 93 93 93 93 94 94 94 93 93 92 92 92 92 93 93 93 93 93 92 92 92 92 92 92 92 92 91 91 91 91 91 91 91 90 90 90 90 90 89 89 89 90 90 90 90 90 90 90 89 89 89 89 89 89 89 88 88 88 88 88 88 88 88 88 88 88 88 88 89 88 88 88 88 87 87 86 86 86 86 85 85 85 84 83 82 82 83 83 84 84 84 86 86 86 86 86 87 87 87 87 87 88 88 88 88 88 88 88 88 88 88 89 89 89 89 89 89 89 89 89 89 89 89 89 89 89 89 89 89 89 89 90 90 90 90 90 90 90 90 90 90 90 90 90 90 90 90 90 90 90 91 91 91 91 91 91 91 91 91 91 92 92 92 91 91 91 92 92 92 92 92 92 92 92 92 92 91 90 90 89 89 88 87 87 87 86 84 84 84 84 84 85 85 86 87 88 88 89 89 90 90 91 92 93 93 93 94 96 99 101 102 104 105 106 107 106 105 104 103 102 100 99 98 97 97 97 98 101 103 104 104 104 104 104 103 102 102 103 104 105 105 106 106 107 108 109 109 109 110 110 110 109 109 110 111 112 112 113 114 114 114 114 114 115 115 114 113 113 113 114 114 113 113 114 114 115 117 118 119 120 120 120 120 120 119 119 118 117 116 115 115 115 115 116 115 115 115 116 116 116 116 116 116 116 116 116 117 117 117 118 118 118 118 118 119 119 119 119 119 119 118 118 117 116 115 114 114 113 112 112 112 111 111 112 113 115 116 116 117 116 116 116 117 118 119 120 120 119 119 120 122 123 124 125 126 126 127 127 128 129 130 131 132 133 135 137 138 139 139 137 134 132 130 131 133 136 138 139 138 137 136 136 136 136 135 135 136 138 139 141 142 142 142 142 142 142 142 141 140 139 139 137 136 135 134 133 132 131 130 129 129 130 130 130 130 131 132 133 132 131 129 128 126 124 124 124 126 127 128 128 127 125 122 121 120 121 122 123 124 124 124 123 122 121 118 117 117 115 114 112 111 111 112 113 115 116 116 114 112 113 115 117 117 115 115 115 116 116 115 115 115 114 114 114 115 115 115 115 115 113 111 113 115 115 115 114 112 112 111 109 107 104 103 104 106 107 109 110 110 109 108 108 109 110 111 112 114 115 114 112 108 105 103 101 101 100 97 95 94 95 96 94 91 92 95 97 97 95 92 87 83 80 79 80 80 80 79 77 77 79 82 83 82 80 77 75 75 76 78 81 82 82 80 77 75 76 77 75 72 70 71 74 77 79 80 79 76 71 66 63 62 61 61 60 60 61 65 68 69 70 70 71 71 70 72 75 79 80 81 79 78 78 79 81 81 81 83 85 88 90 93 96 97 98 96 93 89 88 89 87 82 76 78 85 89 90 88 87 86 87 89 90 88 81 75 74 74 74 74 74 74 76 80 83 85 87 89 90 88 84 81 81 81 85 87 89 91 94 96 98 98 97 96 96 99 100 98 99 101 102 98 94 92 93 97 103 107 110 112 112 111 109 109 110 111 111 110 109 110 111 112 112 113 112 112 112 112 112 112 112 112 110 109 108 108 109 108 107 108 109 109 111 111 112 110 108 107 107 105 106 109 112 115 117 117 116 115 112 109 108 106 105 102 99 95 95 95 98 101 102 102 102 103 105 105 105 104 104 103 103 103 103 103 103 103 103 104 105 105 106 107 108 108 109 110 111 112 111 110 108 106 105 105 103 98 97 102 101 99 99 103 108 113 114 112 108 106 106 106 109 112 114 115 114 113 112 110 108 106 105 103 101 100 100 98 97 96 96 98 99 97 95 93 97 99 99 99 99 97 96 98 99 99 98 98 98 99 100 101 102 101 100 100 97 94 90 85 81 75 71 71 71 72 73 71 69 69 71 75 79
96 96 96 97 98 99 99 98 99 99 99 99 99 98 97 96 95 95 94 94 94 93 93 93 93 93 94 94 94 94 93 92 91 91 91 92 92 92 92 92 92 92 92 92 92 92 92 92 91 91 91 91 91 91 91 90 90 90 90 90 90 90 90 90 90 90 90 90 90 90 89 89 89 89 89 89 89 89 89 89 88 88 88 88 88 88 88 88 88 89 88 88 88 88 87 87 87 86 86 86 86 86 86 85 85 85 85 84 83 82 82 83 84 86 86 86 86 86 87 87 87 87 87 88 88 88 88 88 88 88 88 88 88 89 89 89 89 89 89 89 89 89 89 89 89 89 89 89 89 89 89 90 90 90 90 90 90 90 90 90 90 90 90 90 90 90 90 90 90 90 90 91 91 91 91 91 91 91 91 91 91 91 92 92 92 91 91 91 92 92 93 93 93 93 93 93 92 92 91 91 90 90 89 89 88 88 89 87 84 84 84 84 84 84 84 85 86 86 87 87 88 89 90 91 92 92 91 92 93 96 98 100 101 103 105 106 106 106 105 104 102 101 99 98 96 95 96 96 98 101 103 104 104 104 103 102 102 102 102 103 105 106 107 107 107 108 108 109 109 109 109 109 109 109 109 110 111 111 112 113 113 114 114 113 113 113 113 113 112 112 112 113 112 113 113 114 115 116 118 119 119 119 119 119 119 119 118 118 117 116 115 114 114 115 115 115 115 115 115 115 116 116 116 116 116 116 116 116 117 117 117 117 117 117 118 118 118 118 118 119 118 118 117 117 116 115 114 114 113 112 112 112 111 111 111 112 113 115 116 116 117 117 118 118 118 118 119 121 121 121 120 120 121 122 123 124 125 126 127 127 129 130 131 132 132 134 136 138 140 141 140 137 134 132 132 132 134 136 138 139 140 139 137 137 137 137 137 137 137 138 139 141 142 142 141 140 140 141 141 140 139 138 137 136 135 135 135 134 133 132 131 130 130 131 131 131 131 132 133 132 132 131 130 129 128 126 126 126 127 128 129 129 127 125 122 119 117 117 118 120 122 123 124 124 123 121 120 120 119 117 115 113 111 110 111 112 113 114 114 113 112 111 112 115 115 114 115 116 118 120 119 118 116 113 112 111 111 111 111 111 111 110 108 108 110 112 113 112 110 108 106 104 103 102 102 104 106 108 109 110 109 108 106 106 106 108 108 109 112 114 115 113 111 107 105 103 103 101 99 97 96 97 98 97 95 95 98 98 95 92 88 85 83 81 79 78 78 77 77 76 75 76 78 78 78 76 75 74 74 75 76 77 78 77 76 74 72 71 71 71 69 68 68 71 74 77 77 76 74 69 65 62 62 61 61 61 60 61 64 67 70 71 71 72 72 73 73 75 78 82 84 84 84 84 86 88 87 86 86 87 89 92 94 96 98 98 96 93 91 91 90 86 80 76 79 86 90 91 91 90 89 90 91 91 91 87 80 76 75 74 74 74 74 74 76 80 83 87 89 87 83 80 81 83 86 90 93 95 97 97 98 98 98 96 95 95 97 99 96 96 98 98 94 91 91 92 97 102 107 111 113 114 113 112 113 113 115 115 114 111 111 111 112 112 112 112 113 113 114 115 115 114 112 112 110 110 110 110 111 110 109 110 110 111 112 113 112 110 109 107 106 107 111 114 116 118 117 115 114 111 107 105 103 102 101 98 96 95 95 96 99 100 99 101 103 105 106 107 106 106 105 104 104 103 103 103 103 103 104 105 105 106 107 108 108 109 110 111 112 113 112 109 106 105 103 100 98 101 104 104 101 100 102 107 111 113 114 111 109 110 109 109 112 114 115 115 114 114 112 110 108 107 106 105 103 101 98 97 96 94 94 95 94 92 92 95 96 97 97 96 95 95 97 97 95 94 96 96 97 99 101 102 102 102 101 99 95 91 86 82 74 71 71 71 74 73 71 69 69 71 76 81
96 96 97 97 97 97 97 97 99 99 100 100 100 99 97 97 96 95 94 94 94 94 94 93 93 93 94 95 94 94 93 92 91 91 91 91 91 91 91 91 91 91 91 92 92 92 92 92 92 92 92 91 91 91 91 91 91 91 91 91 90 90 90 90 90 90 90 90 90 90 89 89 89 89 89 89 89 89 89 89 89 88 88 88 88 88 88 88 88 89 88 88 88 88 87 87 87 87 87 86 86 86 86 86 86 86 85 85 85 84 83 83 85 86 86 86 87 87 87 87 87 87 87 88 88 88 88 88 88 88 88 88 88 89 89 89 89 89 89 89 89 89 89 89 89 89 89 89 89 90 90 90 90 90 90 90 90 90 90 90 90 90 90 90 90 90 90 90 90 90 91 91 91 91 91 91 91 91 91 91 91 91 92 92 92 91 91 91 92 93 93 93 93 93 93 93 93 92 91 91 90 90 90 90 90 90 90 88 85 84 84 84 84 84 84 84 85 85 86 87 87 89 90 92 91 90 90 91 92 95 97 99 101 103 104 105 105 105 105 104 102 100 99 98 96 95 95 96 99 102 104 103 103 103 103 102 100 101 102 104 106 107 107 107 107 108 108 108 109 109 109 109 109 109 109 109 110 111 112 112 112 112 112 112 112 112 112 112 112 112 112 112 112 113 114 115 116 117 118 119 119 119 119 119 119 118 118 117 117 116 115 114 114 115 115 115 115 115 115 115 116 116 116 117 116 116 117 117 117 117 117 117 117 117 117 117 117 117 118 118 118 117 117 116 115 115 114 113 113 112 112 112 111 111 111 112 113 115 116 117 118 118 119 119 119 120 120 121 122 122 122 122 122 122 123 123 124 126 127 128 129 130 131 132 133 135 136 138 140 140 140 137 134 133 133 134 135 137 138 139 139 139 139 140 139 139 138 138 138 139 140 141 141 141 139 138 138 139 140 140 139 138 136 135 134 134 134 134 133 132 131 131 131 131 132 132 133 133 133 132 132 131 131 130 129 128 128 127 128 130 130 129 127 125 122 119 117 115 116 117 120 122 122 123 122 121 120 120 120 119 117 115 113 111 110 111 112 113 113 112 111 111 112 114 114 113 114 115 117 120 121 121 118 114 111 108 106 105 106 106 104 102 102 104 107 110 112 112 111 109 107 104 102 101 102 105 107 109 110 110 109 107 106 106 106 105 105 107 110 112 113 113 112 109 106 104 103 101 101 99 98 98 99 99 97 98 98 97 94 89 86 85 85 84 81 79 78 77 77 76 75 75 75 74 74 74 74 73 73 73 74 75 75 74 73 71 69 68 68 68 67 67 66 67 71 75 76 72 70 67 63 62 62 61 61 61 61 61 63 65 68 71 74 74 73 73 74 75 76 77 82 85 87 88 90 91 92 91 91 92 92 93 95 97 99 99 97 94 93 93 90 84 79 77 79 84 88 90 92 92 92 92 92 92 92 91 87 82 78 76 75 74 74 74 74 77 81 86 88 84 80 80 85 88 91 94 97 100 101 100 99 99 98 96 93 93 95 96 93 92 93 93 90 90 92 95 100 104 108 112 114 116 115 116 116 116 118 117 116 113 112 112 111 111 112 112 112 113 114 115 115 114 112 112 112 112 112 112 113 112 111 111 112 112 112 113 112 111 109 108 106 108 113 115 117 118 117 115 113 109 106 103 102 101 100 98 97 96 96 96 97 98 98 100 103 105 106 106 106 106 107 106 105 104 104 104 104 104 104 105 106 106 107 108 109 109 110 111 112 113 112 110 108 105 103 100 99 102 105 105 102 102 102 105 109 112 115 114 112 114 112 110 113 115 115 115 113 114 113 112 111 109 108 107 106 103 100 98 96 93 91 91 91 90 91 94 95 95 95 94 93 94 96 96 94 93 96 95 95 97 100 101 101 101 101 100 97 93 87 82 73 71 71 72 75 72 71 69 69 71 76 81
