ncols         753
nrows         31
xllcorner     -72.4094711111
yllcorner     41.76189
cellsize      1.0E-5
NODATA_value  -9999
149 150 151 152 152 154 156 158 160 163 165 169 171 172 173 174 173 174 175 176 177 179 180 181 183 185 187 189 191 194 194 192 192 193 193 193 194 194 194 194 194 196 197 198 198 198 198 197 196 195 194 191 188 185 183 181 179 177 176 176 175 173 170 168 168 167 167 167 165 163 158 155 152 150 147 144 142 139 135 132 129 125 121 116 111 109 108 108 109 110 111 111 110 108 105 102 99 96 93 91 91 93 96 99 102 105 107 109 112 115 119 123 126 130 132 134 135 135 137 140 142 144 146 149 151 154 156 158 161 162 164 165 166 166 165 165 166 168 168 168 167 166 164 163 163 162 161 159 157 153 151 149 146 144 141 140 139 139 139 139 139 140 139 138 137 137 138 138 140 142 143 146 147 148 150 154 159 161 163 163 163 165 166 168 167 165 163 163 163 163 161 161 161 161 163 162 161 161 161 161 160 160 161 163 165 163 163 163 164 164 164 163 162 163 164 166 168 170 171 173 175 176 179 180 183 186 190 193 196 198 198 200 201 202 202 202 204 207 207 207 207 205 205 205 207 207 208 207 208 208 207 207 209 210 211 210 211 211 213 214 214 214 214 215 215 214 212 211 211 211 211 210 210 209 207 204 202 200 199 198 196 195 193 190 188 185 182 180 178 177 176 175 174 173 172 171 170 170 170 169 168 165 162 159 156 153 153 152 153 152 150 149 146 142 138 132 126 123 119 117 115 112 110 108 105 102 99 98 95 91 89 86 86 86 88 88 87 86 84 83 84 87 90 89 89 91 93 95 95 95 95 95 95 96 98 102 108 113 117 121 124 125 126 126 128 132 135 140 144 148 151 152 152 152 152 152 154 157 157 157 158 158 160 161 161 161 161 163 165 166 166 166 166 163 161 159 158 156 155 155 154 155 156 159 162 165 168 171 173 176 178 180 181 182 185 185 186 186 185 185 186 185 185 186 188 191 195 198 202 206 208 210 210 210 210 209 207 205 201 197 193 188 183 178 175 171 170 170 170 171 174 177 180 183 185 186 185 186 187 189 189 188 186 184 182 179 176 173 169 164 160 155 152 150 146 143 140 138 136 134 132 129 125 121 117 113 109 107 104 102 100 97 95 92 89 89 89 89 89 90 91 91 91 91 91 91 91 91 90 90 92 94 98 103 108 112 116 118 122 124 127 130 133 136 139 142 145 148 150 152 154 155 156 157 158 160 163 165 167 168 170 171 173 173 175 176 176 177 177 177 176 176 175 175 175 175 176 176 175 175 175 173 169 164 159 156 151 149 147 145 143 140 139 138 138 140 138 138 139 139 139 139 139 140 140 141 144 146 149 152 155 157 158 158 157 156 153 153 153 154 154 155 157 158 156 154 153 153 150 150 150 150 152 151 153 156 157 159 160 161 162 164 165 168 171 172 175 178 181 184 186 186 185 185 187 189 190 192 192 192 192 189 189 189 190 190 188 187 187 185 184 182 180 177 174 171 167 164 159 153 148 144 139 136 135 134 134 133 131 127 124 120 120 118 118 116 115 114 113 113 113 113 115 119 123 128 130 132 133 135 138 140 142 143 146 148 151 153 156 159 161 162 164 166 169 171 170 167 166 165 167 170 174 178 181 184 187 191 195 199 200 200 200 201 200 201 200 199 199 200 201 204 204 202 203 203 202 202 203 203 205 205 205 205 207 209 210 211 213 213 214 213 211
148 149 149 150 150 152 155 157 160 163 165 168 171 173 174 176 176 177 178 178 178 179 180 181 182 184 187 187 189 192 193 193 194 194 195 194 195 194 193 192 194 196 197 198 198 198 198 197 196 196 194 192 188 185 183 180 179 177 176 176 175 174 171 170 170 170 170 170 168 166 161 157 155 153 150 147 145 142 138 134 131 127 122 116 112 109 106 104 104 104 105 106 105 104 102 99 96 93 91 91 92 94 98 102 105 106 108 110 113 116 120 123 126 130 132 135 135 136 138 140 142 144 147 149 153 155 156 158 161 162 163 165 166 166 165 165 166 168 168 168 167 165 162 162 162 162 160 159 157 153 152 150 147 144 141 140 139 137 137 137 137 138 138 138 138 138 139 139 141 143 144 144 145 147 149 152 157 160 162 163 163 164 165 166 165 163 163 164 162 162 161 160 160 160 161 160 160 160 160 160 160 159 161 162 163 163 163 163 163 162 162 162 162 163 163 166 166 167 169 171 173 176 177 179 182 185 189 192 195 197 197 199 200 201 202 203 205 208 208 208 208 207 207 207 206 208 208 207 208 209 207 207 209 210 211 210 211 211 213 214 214 214 215 215 217 217 214 212 210 209 209 209 208 208 206 204 202 200 198 198 197 196 195 193 190 187 184 182 180 179 177 176 174 172 170 171 171 170 169 170 170 167 163 160 157 155 154 154 155 154 153 151 148 145 141 135 130 126 123 121 119 116 114 111 106 103 100 98 95 91 89 86 86 87 88 90 89 87 85 85 86 88 90 89 89 89 91 92 93 93 93 94 94 96 97 102 106 111 115 118 121 123 124 126 127 132 135 141 145 149 152 153 152 151 152 153 154 156 157 157 159 159 160 161 161 161 161 163 164 166 166 166 166 164 163 161 158 156 155 154 152 153 155 157 160 163 166 170 173 176 178 180 181 182 184 185 185 185 184 183 184 184 184 184 187 190 193 196 200 204 208 210 210 211 211 210 209 206 203 199 194 189 184 178 174 170 169 169 169 170 173 176 178 181 185 187 187 188 189 190 190 189 186 184 181 178 174 171 167 162 158 154 151 150 145 142 139 137 135 133 130 127 123 119 115 111 107 105 103 101 99 96 94 92 90 90 90 90 89 90 91 92 92 91 91 91 91 91 90 90 91 94 97 102 107 111 115 118 122 124 127 131 135 137 139 143 145 147 149 152 154 156 158 158 159 161 163 166 168 170 171 172 173 174 175 177 177 178 178 178 177 176 177 177 176 177 178 178 178 177 177 176 172 167 161 157 153 150 148 145 143 140 139 136 136 137 137 137 137 137 137 138 138 139 139 139 141 143 145 148 151 153 154 153 153 152 150 150 151 151 152 153 154 155 154 153 152 153 151 149 150 151 154 153 155 156 158 160 161 161 162 164 165 167 170 172 174 178 180 183 185 185 183 183 185 188 189 191 191 192 192 190 190 190 190 190 188 187 186 184 183 180 177 174 171 168 165 162 158 152 147 142 138 135 133 132 131 130 128 124 121 118 118 118 117 115 113 114 115 115 115 116 116 120 124 128 130 132 133 136 139 142 144 146 148 150 154 156 158 161 163 165 165 167 170 173 173 171 169 168 169 170 174 177 181 185 187 191 194 198 200 200 200 200 200 200 199 198 198 198 200 202 203 202 203 205 204 203 203 203 203 203 203 204 206 209 210 211 212 213 214 212 211
146 147 148 148 148 151 154 156 159 163 165 168 169 171 175 177 178 179 180 180 180 181 182 182 183 186 187 187 189 190 192 193 194 195 195 195 195 193 191 190 192 194 197 198 198 197 197 197 196 196 194 192 190 186 184 182 181 179 178 178 177 175 173 173 173 173 172 172 171 169 164 160 158 156 152 150 147 145 141 137 133 129 124 118 114 110 106 102 100 100 100 101 100 100 98 96 93 92 91 92 95 98 101 103 105 106 107 109 112 116 119 123 126 130 132 135 136 137 139 140 142 145 148 150 154 156 156 158 161 161 163 164 165 165 165 166 167 168 168 167 165 163 162 162 162 161 160 158 157 153 151 150 147 146 143 141 139 136 136 136 136 135 136 137 137 137 138 139 141 144 144 144 144 145 148 151 155 158 160 161 161 162 163 165 164 163 163 163 162 162 161 160 160 159 159 159 159 159 159 158 158 158 159 161 162 162 162 162 162 162 162 162 162 163 164 164 164 165 167 169 171 174 175 178 180 184 187 190 193 195 196 197 199 200 203 205 207 208 210 211 211 210 208 208 206 206 208 208 208 209 207 208 208 209 210 209 210 211 212 213 214 215 215 216 218 218 214 212 209 207 207 207 207 206 205 203 200 199 198 198 197 197 197 195 193 191 188 185 182 181 178 176 174 171 170 172 172 171 169 169 170 168 164 160 158 156 156 156 157 156 155 153 151 147 143 137 133 130 127 125 123 121 118 115 109 104 101 98 95 91 89 85 85 86 89 90 89 87 85 85 85 87 89 89 89 89 90 90 90 91 92 93 94 96 97 102 105 109 112 114 117 120 122 125 128 132 135 142 146 149 151 153 151 151 151 152 154 155 156 157 159 159 160 161 161 161 162 164 166 166 166 164 164 164 163 162 159 156 155 152 151 151 153 155 158 161 164 168 171 174 176 179 181 182 182 183 184 184 183 180 181 183 183 183 185 188 191 195 199 203 207 209 210 211 211 210 209 207 204 200 195 190 184 177 173 169 168 168 168 168 171 174 177 181 184 188 188 190 191 191 190 189 186 183 180 177 173 169 165 160 156 152 151 149 145 141 137 135 133 131 128 124 120 117 113 108 105 103 101 99 97 94 92 92 91 91 90 90 89 90 90 91 91 90 90 90 91 91 90 90 91 94 97 102 106 111 114 118 122 124 128 131 135 137 139 143 144 147 149 151 155 158 159 160 160 162 164 167 170 171 172 173 174 175 176 177 177 177 178 177 177 177 178 178 177 179 180 181 181 180 180 179 175 170 165 160 156 152 150 147 144 142 140 137 136 136 137 137 136 136 136 137 138 139 139 138 138 140 142 145 148 150 150 150 150 149 147 148 148 149 150 151 152 152 152 150 149 151 150 149 151 153 155 156 157 158 159 161 162 162 163 164 166 167 170 172 174 178 180 183 184 185 183 183 184 186 188 190 191 191 190 190 190 190 189 188 186 185 184 183 181 178 174 171 169 167 163 160 156 150 145 141 137 133 131 130 129 128 125 121 118 118 118 118 117 114 113 113 115 116 117 118 118 122 126 129 130 131 133 136 140 144 147 149 150 153 157 158 161 164 166 167 167 169 172 175 177 176 173 170 171 171 174 177 182 185 188 192 195 198 200 201 201 200 200 200 199 199 199 199 199 200 202 202 204 206 206 205 203 202 202 202 202 204 205 208 210 210 212 215 216 214 213
145 146 148 148 148 150 154 156 160 163 164 167 168 171 175 177 178 179 180 181 182 184 185 185 186 188 188 188 189 190 190 192 193 194 194 194 194 192 189 189 190 193 196 197 197 197 197 197 196 196 194 192 191 188 186 184 183 181 180 180 178 177 176 175 175 175 174 175 174 171 167 163 160 158 155 152 150 147 143 139 135 131 125 120 115 112 107 102 99 97 97 97 97 96 95 93 92 92 91 94 98 102 102 103 104 105 105 107 110 114 118 122 125 130 132 135 137 138 140 141 143 147 150 152 154 157 157 157 160 161 163 164 165 165 165 167 169 167 167 166 164 162 162 162 162 161 160 158 156 153 150 150 148 147 144 142 139 136 136 135 134 134 135 136 136 136 137 139 141 142 143 143 143 144 147 150 154 156 159 160 160 161 162 163 162 161 161 162 162 162 160 160 159 157 157 157 158 158 158 158 157 157 158 159 160 160 160 161 161 161 162 163 163 164 164 164 164 164 165 167 170 171 173 176 178 182 185 188 191 193 194 196 198 201 204 207 207 209 210 212 212 211 209 208 205 205 206 206 206 206 207 208 208 207 207 207 209 209 210 212 213 213 213 215 217 218 214 211 208 206 205 205 205 205 204 201 199 197 197 197 198 198 199 198 197 195 192 189 186 183 180 178 175 172 170 172 173 173 172 171 170 168 165 162 159 158 158 159 159 158 157 155 152 149 145 140 137 134 131 129 127 126 124 120 113 108 103 100 96 92 89 85 85 85 89 90 88 87 85 84 84 87 89 90 90 90 89 89 89 90 90 92 94 97 98 101 103 107 109 111 114 119 121 126 130 133 137 141 145 148 149 151 151 151 151 151 153 155 155 156 158 159 160 161 161 163 164 166 167 168 167 164 164 164 163 161 159 156 155 152 151 151 153 154 157 159 162 166 170 174 175 179 180 181 182 182 183 183 182 180 180 181 181 182 183 186 189 193 198 202 206 209 210 211 211 210 209 207 204 201 195 190 184 178 173 169 168 167 166 166 168 171 175 179 184 188 189 191 192 192 191 189 185 182 179 176 171 167 162 158 154 151 149 148 144 140 136 134 131 128 125 121 117 114 110 107 104 103 101 98 96 93 92 92 92 92 91 91 90 90 90 90 89 89 89 89 91 91 90 90 91 94 98 103 106 111 114 118 122 124 128 131 134 136 139 143 145 147 150 153 156 159 161 162 161 162 164 167 170 171 173 173 175 175 177 177 177 177 177 177 178 178 179 179 179 180 182 183 183 183 183 182 178 173 168 163 159 155 152 149 145 143 142 140 139 138 139 138 136 135 135 136 137 138 138 138 137 138 140 143 146 147 147 147 147 146 145 145 146 147 148 148 149 150 149 148 148 150 151 151 153 155 157 158 158 159 160 162 163 164 165 166 166 167 170 171 174 178 180 183 185 186 185 184 183 184 187 189 190 190 188 188 188 188 188 186 184 183 182 181 179 176 173 171 169 165 161 157 153 148 144 139 135 132 130 129 128 127 124 120 118 118 118 118 118 115 112 112 113 114 116 118 121 124 128 130 131 132 134 138 142 146 149 151 153 156 160 161 163 165 167 169 170 172 175 178 180 180 176 173 173 173 174 176 180 184 188 192 196 199 201 202 202 201 201 202 201 201 201 201 200 200 200 202 205 206 206 206 204 203 202 202 202 203 205 207 210 210 213 215 216 215 214
146 146 148 148 148 150 154 157 160 163 164 167 168 171 175 177 177 177 178 181 183 185 186 187 188 190 191 190 190 190 190 190 192 193 192 192 192 191 189 189 190 192 194 195 196 196 197 198 198 197 194 193 193 191 189 187 186 184 183 182 180 179 178 178 178 177 177 177 175 172 169 165 162 159 157 154 151 148 144 139 136 132 126 121 117 113 108 103 99 96 96 94 94 93 93 91 91 92 93 97 100 102 101 101 102 102 103 106 109 113 118 122 125 130 132 135 138 140 142 143 145 148 150 153 154 156 157 157 160 161 164 166 166 166 166 169 169 168 167 165 163 162 162 163 163 161 159 157 155 152 150 150 148 146 144 141 139 137 136 134 132 132 133 135 136 136 136 137 139 142 142 143 143 144 147 150 152 154 157 158 159 161 162 162 162 161 161 161 161 161 160 159 157 155 155 157 157 157 158 158 157 157 157 158 159 159 159 159 160 161 163 163 164 165 165 164 164 164 164 165 168 169 171 173 176 180 183 186 188 190 192 194 197 201 205 207 207 208 209 211 211 211 210 209 208 207 206 205 205 205 206 208 208 207 207 205 207 208 210 211 211 211 211 213 215 216 212 209 206 205 204 203 203 203 202 199 197 195 195 196 198 198 200 201 200 199 196 193 189 186 183 180 176 174 171 172 173 174 174 173 172 169 166 163 161 159 159 160 160 159 158 156 154 151 148 144 141 138 137 135 133 132 130 127 119 113 107 103 98 94 91 87 86 86 89 89 88 88 85 84 85 88 91 92 92 91 90 89 88 88 88 91 93 96 98 99 101 104 106 109 114 119 123 127 131 135 137 141 144 147 149 150 152 152 152 152 153 155 155 156 158 159 160 162 162 163 164 166 167 168 168 166 165 165 163 161 159 156 155 153 152 152 154 155 157 158 161 165 169 174 176 179 180 182 182 183 183 183 182 182 182 180 179 180 181 184 187 191 196 200 205 207 209 210 210 210 209 207 204 202 197 192 185 180 174 169 167 165 164 165 166 169 173 178 183 187 189 192 193 193 191 187 184 181 178 175 171 166 161 157 153 149 148 147 143 140 136 132 129 126 122 118 114 111 108 107 105 104 102 100 97 95 94 94 93 92 92 92 91 90 90 89 89 89 89 90 90 90 89 89 91 95 98 103 106 111 115 118 122 124 127 130 133 136 139 142 145 149 151 154 157 159 162 163 162 163 164 167 169 171 172 173 173 175 177 177 177 177 178 179 179 179 180 180 181 182 184 186 185 185 186 184 181 176 171 166 162 158 154 151 147 145 144 143 141 140 139 139 136 135 135 136 136 137 137 138 137 137 138 141 144 145 146 145 144 143 142 142 143 144 145 146 147 148 148 148 150 153 154 155 156 157 158 159 160 161 162 164 165 166 167 168 167 168 170 171 173 178 180 184 186 187 186 184 182 183 185 187 188 188 186 185 186 187 187 186 184 182 181 179 177 175 172 170 167 164 160 156 151 147 143 138 135 132 130 129 127 126 123 119 116 117 117 117 117 115 113 112 112 113 116 118 122 126 130 132 133 134 136 140 144 148 151 153 156 159 162 163 164 166 169 171 173 175 177 180 183 183 179 176 175 175 174 175 178 182 186 191 196 200 201 203 203 204 204 204 203 202 203 202 201 200 200 201 204 205 206 206 204 203 203 203 203 203 205 208 210 211 212 214 215 214 212
146 146 148 149 149 150 154 157 160 162 164 166 168 172 175 178 178 177 178 179 183 185 186 187 188 190 190 190 190 191 191 191 192 192 191 191 191 190 190 191 192 193 193 193 195 196 197 199 198 197 194 194 195 193 191 190 188 187 186 185 183 182 181 181 181 180 180 178 176 174 171 167 164 161 158 156 152 148 145 140 136 132 127 122 119 115 110 105 101 97 96 93 93 92 91 90 91 92 94 98 99 100 99 99 101 101 103 105 109 112 117 121 125 129 133 136 139 142 143 144 146 149 151 153 154 155 157 158 160 161 165 166 166 166 168 170 170 168 166 165 162 162 162 163 163 161 159 157 155 151 150 149 147 144 142 141 139 138 136 133 132 130 132 134 135 135 135 136 138 141 142 143 144 144 147 149 152 153 155 158 159 162 162 161 161 160 159 159 160 160 159 157 155 154 154 156 156 156 157 157 157 157 158 158 158 159 159 159 160 161 162 163 165 166 166 165 164 163 163 164 165 167 169 171 174 177 180 183 185 187 189 192 195 199 203 206 206 206 207 208 209 210 211 211 211 209 208 206 205 205 207 206 206 209 207 205 206 208 209 209 209 209 209 211 213 213 210 207 205 204 203 201 201 200 199 196 194 193 193 194 197 198 200 202 203 202 199 196 192 189 186 182 178 175 172 171 172 174 174 174 172 170 167 164 162 160 160 160 160 159 159 158 156 154 151 147 146 143 142 142 140 138 136 131 124 118 112 106 101 97 93 89 88 87 87 87 89 90 87 85 86 89 91 93 93 93 92 91 90 88 88 90 93 95 97 97 99 101 104 108 114 120 125 129 133 136 137 140 142 145 148 150 151 152 153 154 154 154 154 156 158 159 161 162 163 162 162 165 166 169 168 168 167 166 163 161 159 157 155 154 153 153 155 155 156 157 160 164 169 173 176 178 180 182 183 183 183 183 183 183 182 179 177 177 179 182 185 188 193 198 203 205 208 209 210 210 209 208 206 202 199 194 188 181 175 170 167 164 163 164 165 167 171 176 181 185 188 191 192 191 189 185 182 180 177 174 170 165 160 155 152 149 148 147 143 140 136 132 128 124 120 116 113 110 108 108 107 106 105 103 101 99 97 96 95 94 93 92 91 91 90 90 89 89 89 90 90 90 89 89 91 95 98 102 106 110 115 118 121 123 127 129 133 136 139 142 146 151 153 155 158 160 163 164 163 163 164 166 168 169 170 171 173 174 176 177 178 179 180 181 181 181 182 182 183 184 186 188 188 188 188 187 184 178 173 168 164 160 156 152 149 146 145 144 142 141 140 139 136 134 134 135 135 135 136 137 137 137 137 140 142 144 145 144 142 141 142 142 142 142 143 145 146 148 148 150 154 156 157 158 159 159 160 161 162 163 165 168 169 170 170 170 169 170 170 172 173 176 179 183 186 187 185 182 181 181 184 185 185 185 184 183 185 186 186 185 184 182 181 178 176 173 171 169 166 162 159 155 151 147 142 138 135 133 131 130 127 124 121 117 114 115 115 116 115 115 114 112 112 112 116 118 122 127 130 133 135 137 138 142 147 152 154 156 159 162 164 165 165 168 170 172 174 176 178 180 183 184 181 178 177 177 175 175 176 179 184 190 196 201 201 203 203 206 207 206 204 203 203 203 202 201 201 201 202 203 204 205 204 204 204 205 203 203 204 208 210 210 211 212 212 211 210
147 148 149 150 149 150 153 156 158 160 163 165 168 172 176 178 178 177 178 178 182 184 185 187 188 190 190 190 191 193 194 194 193 191 191 190 190 190 191 192 194 195 193 193 195 197 198 198 198 197 195 196 197 195 193 192 190 189 188 187 186 184 184 184 184 183 182 180 177 175 173 169 166 163 160 157 153 148 145 140 137 132 128 123 120 117 113 108 104 100 97 93 93 92 90 90 91 92 94 96 97 96 96 98 100 101 103 105 109 112 117 121 124 129 133 137 140 142 144 146 148 150 151 153 154 155 157 159 160 161 164 166 166 166 168 169 169 167 166 164 163 162 161 162 162 160 159 157 155 152 150 148 146 143 141 141 140 138 136 134 132 130 131 132 134 135 135 135 137 140 141 143 144 144 147 149 151 152 153 156 158 160 161 161 159 159 158 158 159 160 158 156 155 154 154 154 155 155 155 156 156 157 157 158 158 159 159 160 161 161 160 161 163 164 165 165 163 163 163 163 164 166 167 169 172 175 178 179 181 183 186 189 194 198 202 204 205 203 205 207 208 211 213 213 212 210 208 208 205 205 208 206 206 209 207 205 206 207 208 207 207 207 207 208 210 210 208 205 203 202 201 199 198 197 195 193 191 190 191 192 195 197 200 203 204 203 201 198 195 191 188 184 180 176 172 171 171 174 174 174 172 171 168 166 164 162 161 160 160 160 159 159 158 156 153 150 149 147 146 146 144 142 139 134 128 121 115 109 104 100 95 92 90 88 87 88 90 90 89 87 87 89 92 94 94 95 94 93 92 90 88 90 92 95 95 95 96 99 103 108 115 121 127 131 133 137 137 139 140 143 147 149 151 152 153 154 154 154 154 155 158 159 161 162 163 162 162 164 166 168 168 168 167 165 162 160 159 157 156 155 155 154 154 154 156 156 159 163 168 171 174 177 180 182 183 183 184 184 183 182 181 179 177 176 178 181 184 187 192 197 200 203 206 207 208 209 209 208 206 203 199 195 189 183 176 170 167 163 162 162 163 166 169 173 179 183 186 189 190 189 187 184 180 178 175 172 168 163 158 154 151 150 148 147 143 140 137 132 127 122 118 115 112 110 109 109 110 109 108 107 104 102 100 98 97 97 95 94 93 92 91 91 90 89 89 90 91 91 91 90 91 94 97 101 105 109 113 117 121 123 127 129 133 136 139 143 147 152 154 156 159 160 163 164 163 163 164 166 167 168 169 170 172 173 176 178 180 181 183 183 183 183 184 185 186 187 189 190 190 190 191 189 185 179 174 169 165 160 157 153 150 147 146 144 142 142 140 139 137 135 134 135 135 135 135 136 137 137 137 139 143 144 144 142 141 141 141 141 142 142 143 144 145 149 150 153 156 158 159 160 160 160 162 163 164 166 169 171 172 173 174 173 173 172 172 172 173 174 178 181 184 185 183 181 180 180 183 184 184 184 183 182 183 184 184 184 183 182 180 177 174 172 170 169 165 161 158 154 150 146 141 137 136 134 132 128 125 122 118 114 113 114 114 114 114 115 115 114 114 114 116 118 122 127 130 133 135 137 140 145 151 156 158 160 163 165 166 167 167 170 171 173 175 176 177 179 182 183 181 178 178 178 176 175 176 178 183 190 196 199 201 204 205 208 209 208 206 205 205 204 204 202 202 202 201 201 202 204 204 204 204 205 204 204 204 206 208 209 209 210 209 208 207
146 148 149 149 147 148 151 154 156 159 162 165 168 172 176 178 180 179 178 178 181 184 186 187 188 189 190 191 193 194 196 196 194 192 191 189 189 189 191 192 195 195 195 195 196 198 199 199 198 197 196 198 200 198 196 194 193 191 191 190 188 187 186 186 185 184 183 180 178 176 174 171 168 165 162 158 153 150 146 141 137 133 129 124 121 119 115 112 108 104 99 95 94 92 90 90 90 92 92 94 93 93 94 96 99 101 103 105 109 112 117 121 125 130 134 138 141 143 145 148 150 151 153 153 155 156 157 159 160 161 164 165 167 167 167 167 167 166 164 162 162 162 160 160 160 159 159 157 156 152 150 148 145 144 142 142 141 139 137 136 134 131 131 131 133 134 135 135 136 139 141 142 143 144 146 148 149 150 151 153 156 158 159 159 157 158 157 156 157 159 158 156 155 154 154 154 154 154 154 154 156 156 157 157 158 160 161 161 162 162 160 160 162 163 164 164 163 163 163 163 163 165 166 167 169 172 175 176 178 180 184 188 192 196 200 202 204 203 206 208 210 213 216 215 213 211 209 208 206 207 210 208 208 209 207 206 206 206 207 207 207 207 207 207 208 208 207 204 201 200 198 197 195 194 192 190 189 189 189 191 193 196 200 203 204 205 203 200 197 194 190 186 182 177 174 172 172 172 172 172 172 171 168 167 165 163 162 160 160 160 160 160 160 158 155 152 150 149 148 148 147 144 141 137 130 124 118 112 106 102 97 93 91 89 88 89 90 89 88 88 88 90 92 94 94 95 96 95 94 91 90 91 94 95 95 95 96 98 103 108 116 122 127 132 133 137 137 139 139 141 145 148 150 151 152 154 154 154 154 155 158 159 161 162 162 162 162 164 165 168 168 168 165 163 161 160 159 158 158 157 157 156 155 155 155 155 158 162 166 170 173 176 179 180 182 183 183 183 183 182 181 178 177 177 178 180 183 186 190 195 198 201 203 206 207 207 207 206 204 202 199 195 190 184 177 171 167 163 162 161 162 164 167 171 176 181 184 186 188 188 185 182 178 176 173 169 165 161 157 153 150 149 147 145 142 139 135 130 125 120 116 113 111 111 111 111 112 112 111 110 108 105 103 101 99 99 98 97 95 93 92 91 90 89 90 90 90 90 91 91 91 93 95 99 103 108 112 116 120 123 126 129 132 135 139 143 147 152 155 156 159 161 162 163 163 163 165 167 167 168 168 169 172 174 177 179 180 182 184 185 185 185 186 187 189 191 192 193 194 194 193 191 187 181 175 171 166 161 157 154 151 147 147 145 144 142 141 140 138 136 135 135 135 136 135 135 136 136 138 139 142 143 142 140 139 139 140 140 143 143 144 144 145 149 151 155 157 159 160 161 161 162 163 165 167 170 172 174 175 176 177 176 176 175 174 174 174 174 177 180 182 183 182 181 179 179 181 183 183 183 183 181 181 182 182 182 180 180 178 176 174 171 170 168 164 159 156 152 148 144 141 138 136 134 132 128 124 121 117 114 113 114 114 114 113 115 116 116 116 116 116 119 123 128 130 132 134 138 142 148 154 160 162 164 166 168 169 169 170 171 173 174 175 175 177 179 181 182 181 178 178 178 177 177 177 178 182 188 194 198 201 205 206 209 211 209 208 207 207 206 205 204 203 202 200 200 201 203 204 204 204 205 205 205 205 204 206 207 208 208 208 207 207
144 145 147 146 147 147 150 152 155 159 162 165 168 172 176 179 181 181 180 180 183 186 188 189 189 189 191 193 194 196 198 198 196 194 192 190 190 191 192 194 195 196 196 197 198 200 201 201 200 199 198 200 203 202 200 198 196 194 194 193 191 189 187 187 185 185 184 181 179 176 175 172 169 166 162 159 154 151 147 143 138 134 129 126 124 122 119 116 112 108 103 98 97 95 92 91 90 91 91 91 90 91 92 95 98 100 103 105 109 113 119 123 127 131 135 139 142 144 147 149 152 153 154 154 155 157 158 160 161 161 162 164 166 167 167 165 164 163 162 162 162 162 160 158 159 159 158 156 154 152 151 149 147 146 145 144 142 141 139 138 136 134 133 133 134 134 135 135 135 138 140 142 142 143 145 146 147 148 149 151 153 154 156 156 156 157 156 155 155 156 157 156 156 156 156 156 155 154 154 154 156 156 157 157 158 160 161 162 163 163 162 162 163 163 164 164 163 163 163 162 163 164 166 166 168 170 172 174 176 180 183 188 191 195 198 201 203 205 208 211 213 216 219 217 215 212 211 210 210 211 212 213 212 211 209 209 209 209 209 208 208 208 208 208 208 208 208 204 201 198 195 194 193 192 191 189 189 189 190 191 192 195 199 202 204 205 205 202 200 197 193 189 183 179 175 173 172 171 170 171 171 170 168 168 166 164 163 160 159 159 160 160 161 159 156 154 152 150 150 150 149 146 142 139 132 126 121 116 110 104 100 95 91 90 88 88 89 88 87 88 88 91 92 93 94 95 97 97 94 92 92 93 96 97 96 96 96 98 103 108 116 122 127 131 133 135 137 137 138 140 143 146 149 151 153 154 154 154 155 156 158 159 161 161 162 162 162 164 165 166 167 166 163 161 160 160 160 160 160 159 159 157 156 156 155 155 158 161 165 169 172 174 177 178 180 181 182 183 183 182 181 178 178 177 178 180 183 185 190 194 197 200 202 205 206 206 205 204 202 200 197 194 190 184 178 173 167 163 161 160 161 162 165 169 174 178 182 184 186 186 182 179 176 173 171 168 165 160 157 153 150 147 146 144 140 137 133 127 122 118 115 112 111 111 112 113 114 115 115 113 111 109 107 104 102 102 100 98 97 95 93 91 90 90 91 90 89 90 90 90 90 92 94 98 102 106 111 115 120 122 125 128 131 135 138 143 147 152 155 156 160 162 162 164 164 165 166 168 168 168 168 169 172 174 177 179 180 182 184 186 187 187 188 190 192 194 195 196 197 197 196 193 189 183 177 172 167 162 158 154 151 147 146 145 145 143 142 141 139 138 136 137 137 138 137 135 136 137 138 140 141 140 139 138 138 137 138 140 142 143 145 145 146 149 152 155 158 160 161 161 162 164 165 168 170 173 175 176 176 177 178 177 177 176 176 176 176 177 178 180 181 181 181 180 178 178 179 181 181 182 182 180 179 179 179 178 177 177 176 175 173 172 171 167 162 157 153 150 147 143 141 139 137 135 132 128 124 121 116 114 113 113 113 114 112 113 114 115 117 117 117 120 124 127 128 131 134 139 145 151 157 162 165 167 169 170 170 171 172 174 175 176 176 177 178 180 182 183 182 179 178 178 178 178 178 178 180 185 191 197 201 205 207 209 211 210 210 209 208 207 206 204 204 202 200 200 202 204 204 204 204 205 205 205 205 204 206 206 208 208 208 208 209
142 143 145 145 148 148 150 153 156 160 163 165 169 173 177 179 181 181 182 182 183 186 188 190 190 190 191 192 195 197 199 199 197 195 193 191 191 192 194 194 196 197 198 199 201 203 203 202 202 201 201 202 204 204 201 198 196 195 194 193 192 191 188 187 185 184 184 181 179 176 175 172 169 166 162 159 155 152 148 144 140 134 130 128 126 124 122 118 115 112 107 103 100 98 95 93 90 90 89 89 89 89 90 93 97 100 103 105 109 114 120 124 128 133 137 141 144 146 148 149 152 154 155 155 155 156 158 160 161 161 162 163 165 167 167 165 164 162 162 162 161 161 159 158 159 159 158 155 153 151 151 150 147 147 146 146 143 142 141 140 139 137 135 135 135 135 135 135 135 137 139 141 142 143 143 144 145 146 147 148 150 151 153 153 154 155 155 154 154 154 154 156 156 157 158 158 157 156 155 155 156 156 157 157 158 160 160 162 163 164 165 165 164 164 164 164 164 162 162 161 161 163 164 166 166 168 169 171 174 178 182 186 189 193 196 199 202 206 209 213 216 218 219 217 216 215 214 214 213 214 214 215 215 212 210 210 213 213 210 209 209 210 210 210 210 210 209 205 201 197 194 192 191 191 190 188 188 188 191 191 192 194 198 201 203 206 206 205 203 200 196 191 185 181 177 173 171 169 169 170 170 170 169 168 166 165 163 159 158 157 159 160 161 160 158 156 154 152 151 151 150 147 144 140 134 129 124 119 114 108 103 97 93 90 89 89 89 88 88 89 89 91 91 91 92 94 96 96 95 94 94 96 98 97 96 96 97 99 103 109 116 121 126 129 132 133 134 135 137 139 141 145 148 151 153 154 155 156 156 156 158 159 160 160 160 162 162 164 164 164 165 163 161 161 161 162 162 162 162 162 160 159 158 157 156 156 158 160 163 167 170 172 175 177 179 180 181 181 182 181 181 178 177 176 176 179 183 185 189 193 196 199 202 204 205 204 203 201 199 197 195 192 188 184 179 173 168 163 160 158 160 161 164 167 171 175 179 181 184 183 180 177 174 172 169 167 165 160 157 153 149 147 145 142 138 134 130 125 120 116 114 112 112 112 112 115 116 117 118 117 115 113 110 107 105 104 101 100 98 96 94 91 90 89 90 88 88 88 88 88 89 91 93 96 101 105 110 114 118 122 125 128 131 135 138 143 147 152 155 156 159 162 163 164 164 166 166 168 168 168 169 170 172 174 177 179 181 182 184 187 188 188 189 191 194 195 197 198 199 198 197 195 190 184 179 173 168 163 159 154 150 147 146 144 144 144 142 141 139 138 137 138 138 138 137 136 137 138 139 140 140 138 138 137 137 137 138 139 141 143 144 145 147 151 154 157 160 161 162 162 163 165 168 170 173 175 177 178 178 179 179 179 178 177 176 177 178 180 180 180 181 181 181 180 177 176 176 178 180 181 180 178 177 177 176 175 174 174 174 173 173 172 169 165 160 154 150 148 146 143 141 139 138 135 132 128 124 119 115 113 112 111 111 111 110 110 111 113 116 117 119 121 124 126 127 131 136 141 148 154 160 164 167 168 171 172 172 173 175 177 178 179 178 179 181 183 184 185 184 181 179 179 179 179 178 178 180 185 190 196 201 205 207 209 211 211 211 210 209 207 205 204 204 203 202 202 203 204 204 203 204 205 205 207 206 206 207 207 208 208 208 210 211
143 144 145 145 148 149 151 153 157 161 163 165 169 173 176 178 179 180 181 181 182 184 187 188 189 190 191 192 195 196 199 199 198 196 194 192 192 192 194 194 197 197 198 200 201 203 203 202 202 202 201 202 203 202 199 196 194 193 192 191 191 190 188 187 185 183 183 181 179 176 175 172 169 166 163 160 156 152 149 144 141 135 131 128 126 125 122 119 116 112 109 105 102 100 97 94 90 90 89 89 89 88 88 92 96 100 102 104 109 114 120 125 129 134 138 142 144 146 148 149 152 154 155 155 155 156 156 159 160 160 161 161 163 165 167 167 165 164 163 162 161 161 159 158 158 158 156 154 152 151 151 150 148 147 146 146 145 144 143 143 142 140 138 136 135 135 135 135 135 136 137 139 141 142 142 141 142 143 145 146 147 149 150 151 151 153 154 154 154 154 154 155 156 157 158 159 158 157 155 155 155 156 156 157 158 159 160 162 164 166 166 166 165 164 164 164 164 163 162 161 161 162 164 164 164 165 167 169 172 176 180 184 187 190 193 196 200 204 209 213 216 218 218 217 217 217 217 217 215 215 215 214 215 213 211 211 213 212 209 208 208 211 212 211 211 211 209 205 201 196 193 191 190 189 188 186 186 187 189 190 191 193 197 200 202 204 206 205 203 201 198 194 188 183 178 173 171 168 168 169 169 169 169 169 167 165 163 160 158 156 157 159 160 160 160 158 156 154 153 152 150 147 144 140 136 132 127 122 117 111 106 100 96 93 91 91 91 89 90 90 89 90 90 91 91 93 96 96 97 96 96 98 99 97 96 96 97 101 105 111 117 122 125 127 130 131 132 134 135 137 141 144 147 150 153 155 155 157 156 156 158 159 160 160 160 161 162 164 163 163 162 161 160 161 162 163 163 164 164 163 162 161 159 158 156 156 156 158 161 164 168 170 173 175 177 179 180 180 181 180 179 177 176 176 176 180 183 184 188 192 195 198 201 202 202 202 200 198 196 194 192 190 187 184 180 174 168 164 160 158 158 160 162 165 168 172 175 177 180 180 177 174 172 170 169 167 164 160 157 153 149 146 144 140 135 131 126 121 117 115 114 113 113 113 114 116 119 121 121 120 118 116 113 110 108 106 103 101 100 97 95 93 90 88 88 87 87 87 87 87 87 90 92 95 99 104 109 113 118 121 125 128 132 135 138 143 147 152 155 156 159 161 164 164 164 165 166 167 167 168 169 171 173 176 178 179 181 183 184 187 188 188 189 191 194 195 197 199 199 198 197 195 190 185 179 174 169 164 159 153 150 146 145 144 143 143 142 141 139 138 137 138 138 137 136 137 138 138 138 138 138 139 139 137 137 137 138 139 141 142 144 146 149 153 156 159 161 162 163 164 165 168 170 173 175 177 178 179 179 179 180 180 179 179 177 177 179 180 180 181 182 182 181 180 177 175 175 177 179 180 178 176 174 174 174 174 174 174 174 172 172 170 167 163 157 151 147 146 146 143 141 139 138 134 130 126 122 118 114 113 111 110 109 109 109 108 110 112 116 117 120 121 124 126 128 132 138 144 150 157 162 166 169 170 173 174 174 174 175 179 181 182 181 181 183 184 185 185 185 183 181 182 181 180 180 181 182 186 190 195 199 203 205 208 210 211 211 210 209 206 205 204 204 204 203 203 203 203 202 202 203 206 207 208 208 207 208 208 207 207 208 210 211
145 146 146 147 149 150 152 154 157 160 162 164 168 172 174 175 176 178 179 180 181 184 186 188 189 191 192 194 195 197 199 199 198 197 195 194 193 193 194 195 197 198 199 200 201 202 201 200 200 201 201 201 201 200 197 194 193 192 192 191 190 190 188 187 185 184 183 181 179 178 176 173 171 168 164 161 157 154 150 146 142 137 133 130 128 126 123 120 117 114 111 107 104 101 97 94 90 89 89 89 89 89 89 92 95 99 102 105 109 114 120 125 129 135 138 142 144 145 148 149 151 154 154 155 155 156 156 159 160 160 161 161 163 165 167 167 167 165 165 164 162 161 158 157 156 156 154 152 150 149 149 149 149 147 147 147 147 146 145 145 145 143 141 138 136 135 134 133 133 135 136 138 139 140 140 139 140 141 143 144 146 148 148 149 150 152 153 153 153 153 153 153 154 156 157 157 158 157 156 155 155 156 157 157 157 159 160 162 164 166 168 168 166 165 164 164 164 163 162 161 161 162 163 163 162 165 166 168 170 173 177 181 184 187 190 193 198 202 207 211 215 217 217 217 218 219 219 218 216 215 215 214 215 214 213 213 212 211 209 209 209 212 212 212 212 211 209 205 200 196 192 190 188 187 186 185 184 184 186 187 189 192 196 199 201 203 204 204 203 201 198 195 189 184 179 174 170 168 168 168 168 168 168 167 167 165 164 161 158 155 155 156 158 159 159 159 157 155 154 152 150 147 144 141 137 134 130 125 120 114 108 103 99 96 94 93 93 90 88 87 87 89 90 91 91 93 96 96 99 99 97 96 97 95 95 96 98 103 108 113 118 122 124 126 128 130 132 134 135 136 139 142 145 148 151 153 155 157 157 157 158 158 158 158 159 161 161 162 162 161 160 160 160 162 164 165 165 166 166 165 164 162 160 159 156 154 155 157 160 163 167 169 172 174 176 177 179 179 180 179 178 175 175 176 178 181 183 184 187 190 193 196 199 200 200 199 197 196 194 192 191 189 186 183 180 175 169 166 162 158 158 158 161 164 166 169 171 173 176 177 175 172 170 169 167 165 162 160 157 153 149 144 142 138 133 128 123 119 116 114 114 114 114 114 115 118 122 124 124 123 120 118 116 113 110 107 104 103 101 99 97 94 91 88 88 87 86 86 88 88 87 89 91 93 98 103 108 112 117 121 124 128 132 135 139 144 147 152 155 157 160 162 164 166 165 165 165 166 167 168 169 171 174 177 179 180 181 183 184 186 188 188 190 191 194 195 197 199 199 198 196 193 190 185 179 175 170 165 160 154 150 146 145 144 143 143 142 140 139 138 136 137 137 135 135 137 140 140 138 138 139 139 138 137 138 138 140 141 141 142 144 148 151 155 159 160 162 163 164 166 168 171 173 176 177 178 179 179 179 180 181 181 181 180 179 179 180 180 179 181 183 183 181 180 177 175 175 177 179 179 177 175 173 173 174 175 175 174 173 172 170 167 163 160 155 149 147 147 147 144 142 140 137 132 128 124 120 116 113 112 110 108 107 107 107 107 109 112 116 117 120 122 124 127 130 134 140 147 153 160 165 169 171 173 174 175 175 175 176 179 182 181 181 182 184 185 186 186 185 183 183 183 184 183 184 185 186 188 190 193 197 201 202 206 208 209 209 208 208 206 205 203 203 203 202 202 202 202 202 202 205 208 209 210 209 208 209 209 207 206 206 209 210
146 147 148 149 151 151 152 154 156 160 161 164 167 170 172 172 173 175 176 180 182 185 187 189 191 193 194 195 196 198 198 198 197 197 196 194 194 195 196 197 198 199 199 200 200 201 200 200 200 200 200 200 200 199 197 193 193 192 192 192 190 189 188 187 185 184 184 182 181 179 177 175 172 170 166 162 159 156 152 148 144 140 136 133 130 128 125 122 119 116 113 109 105 102 97 94 89 89 89 89 89 90 90 92 95 98 102 105 110 115 120 125 129 135 138 142 144 144 148 149 151 153 154 155 155 155 156 159 160 160 161 161 162 164 167 167 166 164 164 164 163 161 158 156 155 153 151 150 149 149 149 150 150 149 149 148 148 147 147 148 147 145 143 140 137 135 133 133 133 133 135 136 138 138 137 137 137 139 140 142 144 146 147 147 149 151 152 153 153 153 153 153 153 155 156 156 157 157 156 156 157 158 158 158 158 159 160 162 164 166 168 168 167 165 165 164 164 163 163 162 162 163 163 163 163 165 166 168 169 172 174 178 181 184 187 190 195 200 205 209 213 216 217 217 218 219 220 219 218 217 216 216 216 215 215 214 212 211 211 211 210 212 212 213 214 213 209 205 200 196 191 188 186 184 183 183 182 181 183 185 189 191 195 198 200 202 203 202 201 200 198 195 190 186 180 175 170 168 168 168 167 167 167 167 166 165 164 161 159 155 154 154 155 156 157 158 157 155 153 152 150 146 143 141 137 135 131 127 122 117 111 106 102 98 96 94 93 91 86 85 86 87 88 89 90 92 94 95 97 98 96 95 94 93 93 96 99 104 109 114 119 122 124 126 127 129 131 133 135 136 137 140 142 145 148 151 153 155 157 157 157 157 157 157 159 160 160 160 160 159 159 159 161 163 165 166 167 167 167 166 165 162 160 159 155 154 154 156 159 162 166 169 171 172 174 176 179 179 179 179 178 176 177 177 179 181 182 183 185 188 191 193 196 197 197 196 194 193 193 192 190 188 185 182 180 176 170 166 163 160 158 158 161 163 164 166 167 169 172 173 172 170 168 167 165 163 161 159 157 153 148 144 140 136 130 126 122 118 116 115 115 115 115 115 117 121 125 126 127 125 123 121 118 115 112 109 106 104 102 99 98 95 92 90 88 87 86 86 86 87 87 89 90 93 97 102 107 111 115 119 123 128 131 135 139 144 147 152 155 158 161 163 165 167 167 165 165 165 166 167 170 171 175 177 180 181 181 182 184 186 187 188 190 191 194 195 196 198 197 196 195 192 188 183 179 175 170 165 161 156 152 148 147 145 143 143 143 140 138 137 136 135 135 135 135 137 141 139 138 138 139 139 138 138 140 141 142 143 143 144 146 150 154 157 161 162 163 164 166 168 171 173 176 177 178 179 179 180 180 181 182 182 181 181 180 180 180 180 179 181 182 182 181 180 177 175 175 177 177 177 175 173 171 171 173 174 174 173 171 170 168 164 160 156 151 147 146 147 147 145 143 140 136 130 125 121 117 113 111 110 108 107 106 105 105 106 109 112 116 118 121 124 126 130 133 137 143 150 156 163 169 172 174 175 174 174 175 176 176 177 180 180 182 184 185 185 185 185 184 185 185 185 186 185 187 188 189 189 191 193 196 199 201 204 206 207 208 208 208 206 205 203 203 202 201 200 201 202 202 204 207 210 211 211 210 209 208 208 206 206 206 207 209
148 148 150 152 153 153 153 153 156 160 161 164 166 168 169 169 170 173 176 180 183 186 188 190 191 194 196 197 198 198 198 198 197 197 197 195 195 197 198 199 199 199 200 200 200 201 200 200 200 200 200 200 200 199 197 193 193 192 192 191 190 189 187 187 184 183 182 182 182 179 177 176 174 172 168 164 161 158 154 150 146 143 139 136 133 130 127 124 121 116 113 109 105 101 97 93 89 89 89 89 89 90 90 93 96 99 102 106 110 115 120 124 129 134 137 141 144 145 148 149 152 153 154 155 155 155 156 158 158 159 159 160 161 163 165 165 165 163 163 164 163 160 157 155 154 152 150 149 149 149 149 150 152 152 151 150 150 149 148 149 149 147 145 142 139 137 134 133 133 133 134 135 136 136 136 136 136 137 139 140 143 145 146 147 148 150 151 152 153 153 153 153 153 155 155 156 156 156 157 158 159 160 160 159 159 160 160 162 164 165 166 167 167 166 165 164 164 163 164 164 164 164 164 165 165 166 168 169 170 172 173 175 179 182 185 188 193 198 203 207 211 214 216 216 218 219 220 220 219 217 217 217 216 216 216 215 213 213 212 211 210 210 211 213 213 212 209 205 200 196 191 187 185 183 181 180 180 180 183 185 188 190 194 198 200 201 202 201 200 198 197 195 190 186 181 175 171 168 167 167 167 166 166 165 165 165 164 161 158 155 154 153 154 155 155 156 156 154 153 151 150 147 145 142 139 136 133 129 125 120 115 110 106 102 99 97 95 91 87 86 87 87 87 87 88 90 91 92 93 94 93 94 93 92 93 96 100 104 110 114 119 121 123 126 126 128 130 132 133 134 136 138 140 142 146 149 152 155 155 156 155 155 155 156 158 159 159 158 158 157 157 158 161 163 166 168 169 169 168 166 165 162 159 158 155 153 152 155 157 161 165 168 170 171 174 175 178 178 179 180 179 179 179 179 179 180 182 182 184 186 189 191 192 193 193 192 192 191 191 191 189 187 184 181 179 175 171 167 164 161 160 159 161 162 163 164 164 166 168 169 168 167 166 164 163 161 160 159 157 153 148 143 138 134 128 124 121 117 116 115 115 115 116 116 119 122 126 128 129 127 125 123 121 118 114 111 108 106 103 99 98 95 93 90 89 88 87 87 86 86 87 89 90 92 96 100 105 109 113 117 121 126 130 134 139 143 147 151 155 158 161 163 166 167 167 165 165 165 166 167 170 172 175 177 179 181 181 182 183 185 186 187 189 191 193 194 195 196 195 193 192 190 186 181 178 174 170 165 161 157 154 150 149 146 144 143 143 141 139 137 136 136 136 135 135 136 138 137 136 137 137 137 137 139 141 143 144 145 146 147 149 152 156 159 162 164 165 166 168 170 172 174 177 178 179 179 179 180 180 181 182 182 182 181 179 179 179 179 179 180 182 182 181 180 178 175 175 176 175 174 172 170 169 169 171 172 172 171 169 167 165 161 156 151 147 144 144 145 146 146 144 140 135 129 123 118 114 111 109 109 107 106 104 103 102 105 109 113 116 119 122 125 129 132 136 140 145 152 159 166 172 175 176 175 174 174 174 175 174 175 177 180 183 185 185 184 184 184 185 188 189 189 188 185 185 187 188 189 191 194 196 199 200 203 205 206 207 208 208 207 206 205 203 202 200 198 201 202 204 205 207 210 211 211 209 207 206 206 206 205 205 207 208
149 149 151 153 153 153 153 153 155 159 161 164 166 168 167 166 169 172 176 180 184 187 189 191 192 195 197 198 199 199 199 199 197 197 197 195 195 197 199 199 199 200 200 200 200 201 201 200 200 200 200 200 201 200 197 194 193 191 191 191 189 189 187 187 184 183 182 182 182 179 178 176 174 173 170 167 163 160 157 153 149 146 143 139 136 132 128 125 122 116 113 108 105 101 96 93 90 89 90 90 90 90 91 95 98 101 103 106 111 115 120 124 128 133 137 141 144 146 149 151 153 154 155 155 155 155 156 156 157 158 158 159 160 162 164 164 163 162 163 164 163 160 157 155 153 151 150 149 149 150 150 150 152 152 153 152 151 150 149 150 150 148 147 144 141 139 136 134 133 133 133 135 135 135 136 136 137 137 139 140 142 145 146 147 147 149 151 151 152 153 153 153 153 155 156 156 156 157 158 159 160 161 161 160 160 161 162 163 164 164 166 166 167 167 167 165 164 164 164 165 165 165 165 165 166 168 169 170 170 172 172 174 176 179 182 186 190 195 200 204 208 211 214 216 217 218 218 219 218 218 218 217 217 217 217 216 214 214 213 211 210 208 209 211 211 210 207 203 199 195 190 187 185 183 181 179 179 179 182 185 187 190 194 197 199 201 201 200 198 197 195 193 189 185 180 175 171 168 167 166 166 166 165 165 164 164 162 160 158 155 155 153 154 154 154 155 155 154 153 151 150 148 146 144 141 137 134 131 127 123 118 114 111 107 105 101 98 93 89 87 87 87 87 87 87 88 89 89 90 90 90 93 93 94 94 96 99 103 108 113 119 122 125 126 126 127 128 130 132 133 136 138 140 142 146 149 153 155 156 156 153 154 153 154 156 158 157 156 155 154 155 158 161 163 167 169 170 170 169 166 164 161 159 158 155 153 152 154 156 161 164 166 169 171 174 175 178 178 179 181 181 181 180 180 179 181 180 181 184 185 187 188 189 189 189 189 189 188 189 189 188 185 182 179 177 174 170 167 164 162 160 160 161 162 163 164 164 164 165 165 165 164 163 161 160 159 158 158 155 151 146 141 137 133 127 123 120 117 116 115 115 116 117 118 120 123 126 129 130 129 127 126 124 121 117 113 109 107 104 101 99 96 94 90 89 88 88 88 87 88 88 89 89 92 96 100 105 108 112 115 119 124 128 132 137 142 146 150 153 156 159 162 164 166 166 166 166 166 168 169 171 172 175 176 179 181 182 183 183 184 185 186 188 189 191 192 193 193 193 190 189 187 183 180 177 174 170 165 162 158 155 152 150 148 145 143 142 141 139 138 137 136 136 135 135 135 136 136 136 137 136 137 138 140 142 145 147 147 149 150 152 155 158 162 163 165 166 168 169 171 173 175 178 180 180 179 179 180 180 181 181 181 182 181 178 178 178 177 179 180 182 182 181 181 179 176 176 174 173 172 170 168 167 167 167 169 168 167 165 163 161 157 152 147 143 142 143 143 146 147 145 140 135 128 121 115 112 111 109 108 106 104 102 101 101 105 110 115 118 119 122 125 129 134 138 143 149 156 163 170 176 179 179 177 175 174 174 175 175 174 176 179 183 185 186 184 184 185 188 191 192 192 190 186 184 184 187 189 191 193 195 197 199 201 203 205 207 208 208 209 208 206 205 203 201 199 201 202 205 205 206 208 209 209 209 207 206 206 204 203 205 207 209
149 149 150 152 152 151 151 151 153 157 160 164 165 167 166 166 169 173 178 182 185 188 190 191 193 196 198 199 199 199 199 199 197 197 197 196 196 197 199 199 199 200 201 201 201 201 201 200 200 200 200 202 203 202 199 196 194 193 192 191 190 189 188 187 184 183 182 181 181 179 178 176 174 173 170 168 164 161 159 155 152 149 146 142 138 134 130 126 122 117 113 109 105 101 97 94 91 91 92 91 90 90 92 96 100 102 104 106 111 115 120 124 128 133 136 140 144 146 150 151 153 154 155 155 155 155 156 157 157 157 158 159 160 162 163 162 162 163 163 163 161 158 156 154 153 151 150 148 148 150 150 151 152 152 153 153 153 152 150 150 150 150 148 146 144 141 138 135 134 133 133 134 134 136 138 137 137 137 139 140 142 145 146 148 148 150 150 150 151 152 153 154 155 156 157 156 156 157 158 159 161 161 162 162 162 163 164 164 164 164 166 166 167 168 168 167 166 166 166 165 165 165 166 166 167 169 169 171 171 172 172 173 175 176 179 183 188 193 197 201 204 208 212 214 216 217 218 218 218 218 218 217 217 217 218 217 215 215 213 211 209 207 207 208 208 207 205 201 198 195 191 187 186 184 182 180 179 179 181 183 186 188 192 195 198 200 200 199 197 195 193 191 187 183 179 174 170 168 167 166 165 164 164 164 164 163 162 159 157 155 155 153 153 153 154 154 154 154 154 152 151 148 147 145 141 138 134 131 128 125 121 118 116 113 110 106 102 98 93 89 88 88 88 88 88 87 87 86 87 88 89 91 92 94 95 96 98 102 106 111 118 122 125 126 126 126 127 130 132 135 137 140 142 144 148 151 153 154 156 154 153 154 153 153 155 157 156 154 153 152 154 157 160 163 167 169 170 171 170 166 164 161 159 158 154 153 150 152 156 159 163 166 168 170 174 175 177 178 180 182 182 182 181 179 178 180 179 179 183 184 185 186 186 186 186 186 186 186 187 186 185 183 180 177 174 172 169 166 164 162 160 160 161 162 163 163 162 162 162 162 162 162 160 158 157 156 156 156 153 149 144 139 136 132 126 123 120 117 116 115 116 117 117 119 122 125 128 130 131 131 129 128 126 123 119 116 111 108 106 103 100 97 94 90 89 88 88 88 88 88 88 88 89 92 96 101 105 108 110 113 117 122 126 130 136 140 145 148 151 155 157 160 163 166 168 168 168 168 168 169 170 172 175 176 179 181 182 183 183 183 184 185 188 188 189 190 191 191 190 188 186 184 182 179 176 173 170 165 161 157 155 153 152 149 146 143 141 141 140 140 138 136 135 134 134 134 134 135 138 138 136 137 139 141 144 146 149 150 151 153 156 158 161 164 165 165 167 169 170 172 174 176 179 181 181 180 180 180 181 181 181 181 181 180 178 177 176 176 178 180 181 182 182 182 179 176 174 172 171 170 168 166 166 165 164 164 163 162 160 158 156 152 148 144 142 141 142 144 148 149 146 140 134 127 120 114 111 109 108 106 104 101 101 101 103 107 112 116 119 119 121 125 129 135 141 146 152 160 167 175 180 183 182 179 177 175 175 175 177 176 177 179 182 184 187 187 186 188 191 193 194 193 191 189 186 186 187 189 191 193 194 197 198 200 203 204 207 208 209 209 208 208 206 205 204 201 200 201 203 203 203 204 206 207 209 208 206 206 204 203 205 208 209
149 149 149 150 150 149 148 149 152 156 160 164 166 167 166 167 170 174 179 183 186 189 191 192 194 196 199 199 199 199 198 197 197 197 198 198 198 198 199 199 200 200 200 201 201 201 201 200 200 200 200 202 204 204 201 198 196 194 194 193 191 190 188 187 185 182 182 180 180 178 177 175 174 172 169 167 165 162 160 156 154 151 147 144 140 136 132 128 124 119 115 111 106 102 98 96 93 93 93 91 91 91 94 98 101 102 104 107 111 115 120 124 128 133 135 140 143 146 150 151 152 153 154 154 154 155 156 158 158 158 159 160 161 162 162 161 162 162 163 162 159 156 154 152 153 151 150 148 148 149 150 151 152 152 152 153 153 153 152 151 151 151 150 148 146 144 140 137 135 133 133 134 134 136 138 138 137 137 140 141 143 145 146 148 149 150 150 150 150 152 154 156 157 158 158 157 157 157 158 159 161 161 162 163 163 164 164 165 164 164 166 166 167 169 169 168 167 167 167 166 165 165 166 166 168 168 169 172 172 172 172 173 175 175 178 181 185 190 194 198 201 205 209 212 215 216 217 217 217 217 217 217 217 218 218 218 215 214 212 209 207 205 204 204 204 203 202 201 198 195 192 188 187 184 183 182 181 180 181 182 184 187 191 194 196 199 199 198 196 194 191 188 185 181 177 173 170 168 166 164 163 163 162 163 164 162 161 159 157 155 153 151 151 152 153 153 153 153 153 152 151 148 147 145 141 138 133 131 129 127 125 123 120 118 115 112 108 103 98 93 90 90 90 90 89 87 86 85 84 85 87 89 91 93 95 96 98 101 105 109 116 121 124 124 125 126 128 131 133 137 140 142 145 147 150 153 153 154 155 154 154 154 155 155 156 156 155 153 152 152 153 156 159 162 166 168 170 170 169 166 163 160 158 157 155 153 151 152 155 159 163 166 168 170 173 174 175 178 180 180 181 182 181 178 178 179 179 179 182 183 184 185 185 184 184 184 185 185 185 183 182 180 177 175 173 171 169 166 164 162 159 159 159 160 161 161 160 160 161 161 160 159 158 156 154 154 154 153 150 146 141 138 135 131 126 123 120 117 116 116 116 117 118 120 123 126 129 132 132 132 131 130 128 125 122 119 114 111 108 105 101 98 95 91 90 89 88 88 89 89 87 87 89 93 96 100 103 106 108 111 114 120 124 128 134 139 144 148 151 154 157 159 163 167 169 169 169 169 169 169 169 172 175 176 179 181 182 183 183 183 183 185 187 187 187 187 188 188 188 186 184 183 180 177 175 172 169 164 161 156 155 153 153 150 147 144 142 142 142 142 140 138 135 133 133 133 134 134 137 137 138 139 141 143 145 148 150 152 154 156 159 161 163 166 167 167 169 171 172 172 175 176 179 180 180 181 181 181 181 182 181 181 180 179 178 176 175 175 177 178 179 181 181 180 177 174 173 171 171 169 168 166 165 163 161 160 159 157 155 153 153 149 145 142 140 140 142 146 149 149 145 139 133 126 119 113 109 107 106 104 101 101 101 102 106 110 113 115 117 118 121 124 129 136 142 148 155 163 171 178 183 186 185 182 179 177 175 176 177 178 179 180 182 183 186 188 189 191 193 194 193 193 192 192 190 189 189 191 193 194 195 197 199 200 203 205 207 207 208 208 207 208 208 208 206 202 200 200 202 201 201 201 204 207 209 210 208 207 206 205 207 209 210
149 149 148 148 147 147 147 148 151 156 160 164 166 167 167 168 171 175 180 184 186 189 191 193 194 196 199 199 199 199 198 197 197 199 200 200 199 199 199 199 200 200 200 200 201 202 202 201 201 201 201 201 204 204 202 199 197 196 195 194 192 190 189 188 186 183 182 180 178 176 175 174 173 171 168 167 165 162 161 157 155 152 148 145 142 138 133 130 126 122 117 113 108 104 99 97 95 94 93 91 91 91 95 99 101 103 105 107 112 116 121 125 128 133 135 140 143 146 149 151 152 152 153 153 154 155 157 157 157 157 159 160 162 162 163 162 161 161 162 161 158 155 151 150 152 151 151 149 148 149 150 151 152 152 152 152 153 153 153 152 153 153 153 151 149 146 143 139 136 134 133 133 134 136 137 138 137 137 140 142 143 144 145 148 149 150 149 149 150 151 154 157 159 159 159 158 158 158 158 159 161 161 162 163 163 164 164 165 165 165 166 166 168 169 169 168 168 168 168 167 166 165 166 166 168 168 169 172 172 172 172 174 175 176 178 180 184 188 192 196 199 203 206 210 213 215 216 216 216 216 216 216 217 217 218 217 215 213 211 208 206 203 201 200 200 200 201 201 199 196 193 189 187 185 184 182 181 181 182 182 184 186 190 193 195 197 199 198 196 193 190 187 183 179 176 172 168 167 165 162 161 161 160 161 162 161 161 158 157 154 153 150 149 150 152 151 151 152 152 151 150 148 146 145 140 138 133 131 131 130 129 127 125 123 121 117 114 109 102 96 93 93 93 92 91 89 86 85 84 85 85 87 90 93 94 97 99 101 103 107 112 118 120 122 123 126 128 132 135 138 142 145 147 149 151 154 154 154 154 154 154 155 156 156 157 156 155 152 151 152 153 155 159 162 165 167 169 168 167 164 161 158 157 156 155 154 152 153 155 159 163 167 169 170 173 173 174 177 180 180 180 181 181 180 179 180 180 180 181 181 182 184 184 184 183 183 184 185 184 183 180 179 176 173 173 170 169 166 165 162 159 158 158 158 159 159 158 158 159 159 158 157 156 153 152 151 151 150 147 143 139 136 134 131 126 123 119 116 114 114 115 117 119 120 123 127 130 132 133 132 132 130 129 127 124 121 117 114 110 106 103 99 95 92 90 89 88 88 89 89 87 87 89 92 96 99 101 104 106 110 114 118 123 127 133 138 143 147 151 153 157 159 164 167 170 170 169 169 169 169 169 172 175 176 179 181 182 184 184 183 184 185 185 185 184 184 185 185 184 183 182 181 178 176 174 172 168 164 161 157 155 153 153 151 148 145 143 142 143 143 141 138 136 133 133 133 134 135 138 139 140 141 142 144 146 149 151 152 155 158 162 164 166 168 168 169 170 171 173 173 175 176 178 179 180 181 181 181 181 181 181 180 179 178 177 176 175 174 174 176 177 179 179 178 176 174 173 171 171 169 167 166 164 161 158 157 155 154 151 150 150 147 144 140 140 140 144 147 148 148 144 138 131 125 118 113 108 107 105 103 101 102 102 104 107 111 113 114 115 118 122 125 130 136 143 151 158 165 172 179 185 188 188 185 182 178 177 177 177 177 179 180 182 182 185 188 189 191 193 193 193 193 193 193 192 191 191 192 194 195 197 199 200 201 204 205 206 207 207 207 207 209 209 209 206 204 200 200 202 202 202 202 203 206 209 210 209 209 207 206 208 210 211
150 149 148 147 146 146 147 148 151 156 159 164 165 167 166 168 171 175 179 184 186 189 191 193 194 197 199 200 199 199 199 199 198 201 201 201 201 201 201 201 199 199 199 199 200 203 204 202 202 202 202 202 203 203 202 199 198 198 197 195 193 192 191 189 186 183 181 179 177 175 174 173 172 171 168 166 165 162 160 157 155 153 150 147 144 140 135 132 129 125 121 116 111 107 101 98 96 95 93 92 92 93 97 100 102 103 106 107 111 115 120 125 128 133 136 139 142 145 147 149 150 150 151 152 154 156 157 157 157 157 159 160 161 161 162 162 161 162 163 161 157 154 150 150 150 152 152 149 148 148 149 151 151 151 152 152 153 154 155 154 155 155 155 154 151 149 145 142 138 136 133 133 134 134 135 136 137 138 140 142 142 142 144 147 149 150 149 149 150 152 155 159 161 161 161 160 160 160 160 161 162 163 164 164 163 165 165 165 165 165 165 166 168 169 169 168 168 168 168 168 168 167 167 167 167 167 169 172 172 173 173 175 176 177 178 180 183 186 190 193 196 200 204 207 210 212 213 214 214 214 214 214 215 215 216 215 214 213 210 207 205 201 198 197 197 197 199 200 199 197 194 191 188 186 184 182 182 182 182 182 184 186 188 191 193 195 197 196 194 191 188 185 181 177 174 170 167 165 163 160 159 158 158 159 160 160 159 158 157 155 154 152 151 151 151 151 151 151 151 150 149 147 146 144 141 138 135 133 133 134 133 131 129 127 126 123 119 114 106 99 96 96 96 95 93 91 88 87 85 85 84 85 88 91 93 97 99 100 101 104 108 114 116 119 121 125 129 133 137 140 143 146 148 150 151 153 153 154 154 155 155 157 157 157 156 156 154 151 151 152 153 155 159 161 163 165 166 166 164 162 159 156 155 155 155 154 152 153 155 159 163 167 170 171 173 173 174 177 180 180 180 182 182 180 180 180 181 181 179 178 179 182 183 182 181 182 183 183 184 183 180 179 176 173 173 171 170 168 166 163 159 157 156 155 156 156 156 156 157 156 155 154 153 151 150 150 149 147 145 142 138 136 133 131 126 123 119 115 114 114 114 117 120 122 125 128 130 132 133 132 132 132 130 128 126 123 120 116 112 108 104 100 96 92 90 89 89 89 89 89 87 87 88 91 94 97 99 101 104 108 112 118 122 127 132 138 143 147 151 153 156 160 164 168 169 169 169 169 169 169 169 173 175 177 180 182 182 184 184 184 184 183 183 183 182 181 181 182 180 179 178 177 176 174 173 171 168 164 161 158 156 154 154 152 148 146 145 144 144 143 141 138 137 133 132 132 134 137 139 141 142 143 144 146 148 150 153 154 157 160 163 166 168 169 170 170 170 171 173 174 175 175 177 178 178 179 179 179 180 180 180 179 178 177 176 176 176 173 171 173 175 176 177 177 175 174 173 171 170 168 166 165 162 158 155 153 151 150 148 147 147 144 142 139 139 142 145 148 148 147 142 136 129 123 116 111 107 107 104 104 104 104 104 105 108 111 113 113 115 119 122 126 131 138 145 153 160 167 174 180 186 189 190 188 184 180 179 178 177 177 179 180 182 182 184 186 187 189 191 192 193 194 194 195 194 194 194 195 196 197 199 200 201 202 204 205 204 206 206 206 207 208 208 208 206 204 201 201 204 205 204 204 204 206 209 210 210 210 207 207 208 211 213
151 149 148 147 147 147 148 149 152 156 159 163 165 166 166 166 171 174 179 183 186 189 190 193 194 197 199 200 200 200 200 200 200 202 202 202 203 203 203 202 199 199 199 199 200 203 204 204 204 204 204 204 203 203 202 200 199 198 198 197 195 193 192 190 186 183 181 178 177 174 173 172 171 170 167 166 164 162 159 157 156 153 152 149 146 142 139 136 132 128 124 119 115 110 105 100 97 96 94 93 93 95 99 102 103 104 106 106 109 114 119 123 128 133 136 139 141 143 145 147 148 149 150 151 153 156 156 156 157 157 159 160 161 162 162 161 161 164 164 162 158 154 151 150 150 151 150 149 146 146 148 150 150 150 152 153 154 155 155 156 156 157 157 156 153 151 148 145 141 138 135 134 134 134 134 135 136 137 139 141 141 141 143 147 148 149 149 149 150 152 156 160 161 162 162 162 161 161 161 161 163 165 166 166 165 165 165 165 165 165 165 165 167 169 169 169 169 169 169 169 169 169 168 168 167 167 168 172 173 174 174 175 177 178 179 180 182 185 187 190 193 197 200 204 206 208 209 210 211 212 212 212 212 213 213 213 213 211 209 206 204 200 198 195 195 195 197 199 199 197 194 191 189 188 186 183 182 182 182 182 184 185 187 189 191 193 195 194 193 190 187 183 179 175 171 169 166 164 161 158 156 156 157 157 158 157 156 156 156 156 156 155 155 153 152 151 151 151 151 149 149 146 145 144 141 138 137 137 137 137 137 135 133 132 131 128 124 118 111 104 100 99 97 96 95 94 92 90 88 87 85 85 87 90 93 97 99 99 100 102 105 109 113 116 120 125 130 135 138 141 144 146 149 150 151 153 153 154 154 155 156 157 157 157 155 154 152 150 149 151 153 155 158 160 161 162 163 163 161 159 157 155 155 155 155 154 152 152 154 158 163 167 170 171 172 172 174 176 180 181 182 183 183 182 181 182 182 182 179 177 178 181 181 180 179 181 182 181 182 182 180 179 176 174 173 171 170 168 166 164 159 156 154 152 152 152 153 153 153 152 151 150 150 150 149 149 148 146 145 141 139 137 135 131 126 123 120 117 115 115 117 120 122 124 127 130 132 133 133 133 133 133 132 130 128 126 122 118 114 109 105 100 97 93 91 90 91 91 89 89 88 88 88 91 93 96 97 99 102 106 111 117 121 125 131 137 142 147 150 153 156 160 165 168 168 168 168 169 169 169 170 173 175 177 179 181 182 183 184 184 182 181 182 182 180 178 178 178 177 175 174 174 173 173 172 169 167 164 161 158 156 155 154 152 149 147 146 145 144 143 142 138 137 133 132 133 136 139 141 143 144 145 146 148 150 152 154 156 159 161 164 167 169 170 170 170 170 171 171 173 174 175 176 176 176 177 178 179 179 179 178 177 177 177 176 176 176 173 170 172 172 174 175 176 174 174 173 171 169 167 165 162 159 155 152 150 148 147 145 145 144 142 139 139 139 142 146 148 148 146 140 134 127 120 114 109 106 106 105 105 105 105 105 105 108 111 113 114 117 120 123 127 132 139 146 154 161 168 176 182 188 191 192 190 186 182 180 179 177 177 179 180 182 182 184 185 186 187 190 192 194 195 195 196 197 197 197 198 199 200 200 200 201 202 203 203 203 205 205 206 207 208 208 208 206 205 203 203 205 207 206 204 204 204 207 209 209 209 207 207 208 211 213
150 149 149 149 150 150 150 151 152 155 159 162 165 166 166 166 170 174 178 182 185 188 190 193 194 197 200 200 200 200 201 202 202 203 204 203 204 204 203 202 201 200 200 200 201 203 205 206 206 206 205 205 204 203 202 201 200 199 199 198 196 194 192 190 186 183 182 179 177 173 172 170 169 169 166 164 162 161 159 158 157 155 154 151 149 146 143 140 136 132 128 123 119 114 108 102 99 97 95 94 94 97 101 104 104 104 105 104 107 112 117 121 126 132 136 139 141 142 145 146 148 148 149 151 153 156 157 156 157 157 159 160 161 163 163 162 162 165 165 163 159 155 151 150 149 149 148 147 146 146 148 149 150 150 152 153 154 155 155 156 156 158 159 158 156 154 151 148 145 141 138 136 134 134 133 133 134 135 137 139 140 141 143 147 148 150 149 149 151 152 155 158 161 162 162 163 163 163 163 163 164 166 168 168 167 166 166 166 166 166 166 166 167 168 169 170 170 170 170 170 170 170 170 169 167 167 168 172 174 174 175 176 178 178 180 181 182 184 185 187 190 193 196 200 202 204 205 206 207 209 210 210 210 211 211 210 210 209 207 205 203 200 197 194 193 194 195 197 197 195 194 191 190 188 187 184 183 182 182 182 184 185 186 187 189 191 192 192 191 188 185 181 177 173 169 167 164 162 160 157 155 154 155 155 156 156 156 156 156 157 157 157 156 154 153 152 152 151 151 149 149 146 144 143 141 140 140 140 140 141 141 139 138 138 136 132 129 123 117 109 105 101 98 97 97 97 95 93 91 89 87 86 88 90 92 95 97 99 100 101 103 106 110 114 119 125 131 136 139 142 144 146 148 150 151 153 153 154 154 155 156 157 157 155 153 152 150 149 149 149 153 155 157 158 159 160 159 159 159 159 157 155 155 155 156 155 152 151 152 156 160 165 168 169 171 172 174 176 180 182 183 184 185 184 183 184 184 183 181 178 177 179 178 177 178 180 181 181 181 181 180 178 177 174 173 171 170 167 166 163 158 155 154 152 151 150 150 150 149 148 147 146 147 148 148 148 148 147 146 143 140 138 136 132 127 124 121 119 118 119 121 124 126 127 129 132 134 134 135 135 135 134 133 131 129 127 123 119 115 109 105 101 98 94 92 91 93 92 89 89 88 87 88 90 92 95 96 98 102 105 111 116 120 125 130 135 141 145 149 153 157 161 165 168 168 168 169 170 170 170 172 173 175 176 179 181 181 183 183 182 180 179 181 180 178 176 175 175 174 172 171 171 171 171 171 169 166 163 161 158 158 156 155 152 150 148 147 146 145 143 142 139 136 133 133 135 138 141 144 146 146 147 148 150 152 154 156 158 160 162 165 167 169 170 169 170 170 171 171 171 172 174 174 174 174 175 177 178 178 179 177 177 177 177 175 175 174 171 170 173 171 171 174 174 173 172 171 170 169 166 164 161 157 153 151 147 145 144 143 143 143 141 139 139 140 143 147 148 147 144 138 131 124 118 112 108 105 104 106 106 105 104 104 105 108 112 113 114 118 120 124 127 132 138 146 154 161 170 178 185 190 194 195 192 188 184 181 179 178 177 179 180 182 182 183 184 185 187 189 192 194 196 196 196 198 199 200 201 201 200 200 199 199 199 201 202 203 205 205 207 208 209 209 209 209 208 206 205 206 206 205 204 204 204 206 207 207 207 206 206 208 209 211
150 150 150 151 152 153 152 152 152 154 158 161 163 164 165 165 170 173 178 182 185 188 190 193 194 197 200 200 201 201 202 203 203 204 204 204 205 205 202 202 201 201 201 202 202 203 205 207 207 207 206 206 204 204 203 201 200 200 200 200 198 196 194 190 187 184 182 179 177 173 172 170 168 167 164 162 161 160 160 160 160 157 156 154 152 150 147 144 141 138 134 129 123 118 112 106 101 98 96 95 95 98 102 104 104 103 103 103 105 109 114 120 125 132 136 139 141 143 145 146 148 148 149 151 153 154 156 155 156 157 157 159 160 161 162 163 163 164 165 163 159 154 151 149 147 146 145 146 147 148 148 149 150 150 153 153 154 155 155 156 156 158 159 159 158 157 154 151 148 144 141 138 136 135 133 133 133 134 136 138 139 141 143 147 148 150 150 150 150 151 153 156 159 160 162 164 164 164 165 165 166 168 169 169 169 168 168 168 168 167 166 166 167 168 168 169 169 170 170 171 171 171 171 170 168 168 169 172 174 175 175 176 177 178 181 182 182 183 184 185 188 190 192 195 198 200 201 203 204 206 207 207 207 207 207 207 207 206 204 203 201 199 196 193 192 192 193 194 194 193 192 190 190 188 186 184 183 183 182 183 185 185 185 185 186 188 189 190 188 185 183 179 175 171 167 165 162 161 159 157 154 153 154 154 156 156 156 156 157 158 157 157 157 156 154 153 152 150 150 149 148 145 144 143 143 142 142 143 144 144 144 143 142 143 141 137 133 128 121 114 109 105 100 98 98 98 97 96 94 92 90 88 90 88 90 93 95 97 98 100 101 103 107 112 118 124 130 136 139 142 144 145 148 149 152 153 152 152 154 154 156 156 155 153 151 150 149 149 149 149 153 154 156 157 157 157 156 156 157 159 157 156 156 156 156 155 152 151 151 153 157 162 165 167 170 172 175 176 179 182 183 185 185 185 185 184 184 184 182 179 177 176 175 176 178 179 181 181 181 180 178 176 176 174 173 171 169 167 165 161 157 154 153 152 151 151 149 147 144 143 142 143 144 146 148 149 149 148 147 144 141 139 136 132 127 123 121 120 121 122 124 127 129 130 132 134 135 135 135 136 136 135 134 132 130 128 123 120 115 110 106 102 99 95 93 92 94 93 89 89 88 87 87 88 91 93 96 97 102 106 111 117 121 125 130 135 140 144 149 153 158 161 166 168 168 168 170 171 172 172 172 172 174 176 178 180 181 182 182 180 179 179 180 179 176 174 174 174 172 170 169 169 170 170 170 168 165 163 161 160 159 157 156 153 152 150 149 147 145 143 142 139 136 135 135 137 140 143 146 148 149 149 151 153 154 157 159 160 162 163 165 166 168 169 169 170 170 171 171 171 171 171 172 172 173 175 176 178 178 179 178 178 178 178 175 174 172 170 171 173 172 170 172 172 172 172 171 169 167 165 163 160 156 153 149 145 142 140 139 141 142 141 140 139 140 144 148 148 146 141 135 128 121 115 112 108 104 104 105 106 105 104 104 105 108 112 114 115 118 120 123 126 131 138 145 154 161 170 180 187 193 196 196 193 189 184 182 180 178 176 177 180 182 183 183 183 184 187 190 193 195 197 197 196 197 199 200 201 201 200 199 197 197 197 199 201 204 205 206 208 208 210 211 211 212 211 209 206 205 205 204 203 203 204 205 206 206 205 205 205 206 207 209
152 151 150 151 152 153 152 150 151 153 156 159 161 162 163 165 169 173 177 181 184 188 190 192 195 197 200 200 201 201 203 205 205 205 205 205 205 205 203 202 202 202 202 202 203 204 205 207 207 207 207 207 205 205 204 202 201 202 202 201 199 197 195 192 189 186 183 180 178 174 172 170 167 165 163 161 159 158 159 159 159 158 156 156 155 153 152 149 146 143 139 135 129 123 117 110 104 100 97 95 96 100 103 104 104 102 101 102 104 108 114 119 125 132 137 140 142 143 145 146 148 148 150 151 152 152 154 155 155 156 157 158 159 160 161 161 161 162 163 161 157 153 150 148 146 145 145 146 147 149 149 149 150 150 151 152 154 155 156 156 157 158 159 159 160 159 157 155 151 147 144 141 138 137 135 133 133 133 135 137 138 139 142 146 148 149 150 150 150 150 152 155 157 159 161 163 164 164 166 167 168 169 171 171 171 171 170 171 170 169 168 168 168 168 168 169 169 170 170 172 172 172 172 171 169 169 170 173 174 176 176 175 176 178 181 182 182 182 182 183 185 187 189 191 194 196 197 199 200 202 204 204 203 203 203 203 203 203 203 202 201 198 196 193 191 190 190 190 190 190 189 188 188 187 186 184 183 183 183 183 184 184 184 183 184 185 186 186 185 182 180 177 173 169 165 163 161 159 158 155 152 152 153 154 156 157 157 157 158 158 158 157 157 157 155 154 152 151 150 148 148 145 145 144 145 145 145 145 147 147 147 146 146 146 144 141 137 132 125 118 113 109 104 100 99 99 99 98 97 94 93 90 89 86 87 90 92 94 96 99 101 103 106 112 117 123 129 134 138 141 143 145 148 149 151 151 150 151 152 153 154 154 153 151 149 148 147 148 148 150 153 154 155 155 155 154 154 154 156 158 157 157 156 156 155 154 151 149 149 151 155 159 162 166 169 172 174 176 178 181 183 184 184 185 184 183 184 183 181 180 178 176 176 176 177 178 180 181 181 180 177 176 175 174 172 170 168 165 163 159 155 153 152 152 152 150 147 144 141 139 139 141 143 145 147 148 148 149 148 146 143 139 135 132 126 123 121 121 123 125 127 130 131 132 133 135 136 136 136 136 136 137 136 134 131 128 123 120 116 110 107 103 100 96 93 91 92 92 91 89 88 87 87 88 90 92 95 98 103 107 112 117 121 125 129 135 139 144 149 153 157 161 164 167 167 168 170 172 172 172 172 172 172 175 177 180 181 181 181 179 179 179 180 179 175 174 173 173 170 168 168 168 168 168 168 167 165 164 163 161 160 157 156 154 153 151 149 148 146 144 142 140 138 137 137 139 142 146 148 150 152 152 153 155 157 158 160 160 162 163 163 165 167 168 168 169 170 170 171 171 170 170 170 170 172 174 176 179 179 179 178 178 178 177 175 174 173 171 171 171 171 170 170 172 173 172 170 168 166 164 162 159 155 151 147 143 139 137 136 138 139 139 139 139 141 144 149 149 145 139 132 125 118 114 111 108 104 103 103 104 104 104 104 106 109 113 114 115 117 119 122 126 132 138 145 154 161 170 180 188 195 198 196 193 188 183 181 180 178 176 175 179 182 183 183 183 185 188 190 194 196 197 197 196 197 197 198 198 199 199 197 197 197 197 200 203 205 206 206 207 207 210 211 212 213 212 210 207 205 203 202 201 202 204 205 205 205 205 205 205 205 207 209
153 153 151 151 152 153 151 150 150 152 154 157 159 160 161 165 168 172 176 180 183 188 190 192 195 198 200 200 201 203 205 207 207 206 206 206 206 206 205 203 203 203 203 203 204 205 207 208 208 208 207 207 205 205 204 202 202 203 203 202 200 199 196 194 190 187 185 181 178 176 173 170 167 165 162 160 157 156 156 156 156 156 156 156 156 156 155 153 151 148 144 140 134 127 121 113 107 103 99 97 98 101 104 105 105 103 102 103 104 108 114 119 124 132 137 141 144 145 145 145 148 148 150 151 151 151 152 154 155 155 156 157 159 159 159 159 159 160 160 158 155 153 150 148 146 145 145 147 147 149 149 150 151 151 151 151 153 154 156 157 157 158 159 159 162 162 160 158 154 150 147 144 141 139 137 135 134 134 135 135 136 138 141 144 147 149 150 150 150 150 152 154 156 158 159 161 163 164 166 167 169 171 173 174 174 174 173 173 172 171 170 170 169 168 168 169 169 170 171 172 173 173 172 171 171 171 172 173 174 175 174 174 175 177 179 181 182 181 180 181 182 184 186 187 189 191 193 196 197 199 200 200 199 199 199 200 200 201 202 200 199 197 195 192 190 188 187 187 187 187 187 187 187 187 186 184 184 184 183 183 184 184 183 182 182 182 183 183 182 180 178 174 171 167 163 161 159 158 156 153 152 152 154 155 156 158 159 160 160 160 159 158 157 157 155 154 152 151 150 148 148 146 145 145 147 147 146 147 149 149 149 149 149 148 147 144 140 135 128 122 117 113 107 103 101 101 101 100 99 97 94 91 88 85 84 86 88 91 94 98 101 105 108 112 117 123 129 134 138 140 142 144 147 148 149 149 149 149 150 151 151 151 150 147 146 145 145 147 148 151 153 154 155 154 152 152 152 153 155 157 157 157 156 156 154 152 149 147 146 148 152 156 160 164 168 171 174 175 178 180 182 184 184 184 184 183 182 182 181 180 178 176 176 177 177 178 180 181 181 181 177 176 174 172 170 168 166 164 161 158 154 152 152 151 151 148 145 141 139 137 138 140 143 144 146 147 148 149 149 146 143 139 134 131 126 123 122 123 125 127 129 132 132 133 134 135 137 137 137 136 136 137 137 135 132 129 123 120 116 110 107 103 101 96 93 90 90 92 93 91 88 87 87 89 90 92 95 98 103 107 112 117 121 125 129 135 140 145 149 152 156 160 163 166 167 168 170 172 172 172 172 172 172 175 177 178 180 180 180 180 179 179 180 179 176 174 173 172 169 167 166 166 166 167 166 165 165 164 164 161 159 156 156 155 154 152 150 149 146 144 143 142 140 139 140 142 145 148 150 151 152 152 153 156 157 158 158 159 160 161 162 163 165 166 167 168 169 170 170 170 169 169 169 169 170 173 175 177 179 179 178 177 177 175 174 174 174 173 170 170 170 170 171 173 173 172 169 166 164 163 161 157 153 149 145 140 137 135 135 135 136 136 137 138 141 144 148 147 143 137 130 122 117 113 110 107 104 102 103 103 103 105 106 108 111 114 115 116 117 119 122 126 132 138 145 153 161 170 180 188 196 198 196 192 187 182 181 180 179 177 176 178 181 183 184 185 186 189 190 194 196 197 197 196 197 197 196 196 198 198 198 198 198 199 201 203 206 207 207 207 208 210 211 211 211 210 210 208 205 203 202 201 201 204 205 205 206 206 205 206 207 209 210
155 154 152 151 152 153 151 150 150 152 154 157 158 160 161 163 166 170 175 178 182 187 190 193 195 198 201 202 203 205 207 208 209 208 206 206 207 207 206 205 204 204 204 204 205 206 207 209 209 209 208 208 205 205 204 203 203 204 204 202 200 200 196 194 190 188 186 183 180 177 174 171 169 165 161 159 156 154 153 152 153 153 153 155 156 156 156 156 154 152 149 145 139 132 124 116 108 104 100 98 98 101 104 106 106 106 105 104 105 108 113 118 124 131 137 142 145 147 146 147 149 149 149 150 151 152 152 154 155 155 156 156 157 157 157 157 157 158 157 155 153 151 149 148 146 146 146 147 147 149 149 150 151 151 151 151 152 154 155 156 157 158 159 161 164 164 163 161 157 153 150 147 144 142 140 138 136 134 134 134 135 137 139 143 146 148 149 149 149 149 152 154 155 157 158 161 163 164 166 168 170 173 175 177 177 177 176 175 173 172 171 171 169 169 170 171 171 172 172 173 174 174 173 173 172 172 172 173 173 173 172 173 175 176 177 179 181 179 178 178 179 181 183 184 185 187 189 192 193 195 197 196 196 195 196 198 199 199 200 198 197 196 195 192 190 188 186 184 184 185 185 185 185 185 185 186 186 186 185 184 184 184 182 181 180 180 180 180 179 177 175 172 169 165 161 158 157 155 155 153 152 154 156 156 158 160 162 163 163 162 161 160 158 157 156 154 152 151 151 148 148 147 147 147 148 148 148 148 149 150 150 150 150 150 148 146 143 138 131 125 121 116 110 106 103 103 103 102 100 98 96 93 89 85 84 84 85 89 92 97 102 106 110 114 118 124 128 133 136 139 142 144 145 146 147 147 147 147 147 147 148 147 146 144 143 143 144 146 148 152 154 154 155 153 151 150 150 152 154 157 157 157 156 156 153 151 147 145 144 145 149 154 158 163 168 171 174 174 177 179 181 183 183 184 183 181 181 181 180 180 179 176 176 176 177 179 180 181 181 180 177 175 174 171 169 167 165 163 160 158 154 151 150 150 149 146 144 140 138 137 138 141 144 144 144 145 146 147 147 145 142 137 134 131 126 124 124 125 127 129 131 133 134 135 136 136 137 138 139 138 138 138 138 136 132 129 122 120 116 111 107 104 101 96 93 90 89 91 93 91 89 87 87 89 90 92 95 98 103 107 112 117 121 125 129 135 140 146 149 152 155 158 162 165 167 169 170 172 172 172 172 172 172 174 176 176 177 178 178 179 180 181 180 179 176 175 174 172 170 167 166 166 166 166 165 164 163 163 163 161 158 156 155 154 154 153 151 149 146 144 142 142 142 141 143 145 148 150 152 152 152 152 153 155 156 157 157 157 158 160 160 161 163 164 165 166 167 168 168 168 167 167 168 168 169 171 174 176 177 177 176 176 175 175 174 174 174 173 170 171 171 171 172 173 173 171 167 165 163 161 159 155 151 147 142 138 136 134 133 133 133 134 136 137 141 144 146 145 140 134 127 121 117 113 110 106 103 102 103 105 105 106 106 109 111 115 116 117 118 120 124 127 131 138 144 151 159 169 179 188 195 197 196 192 187 184 183 182 180 179 178 178 179 181 184 187 187 189 190 193 195 197 198 197 197 197 196 197 198 200 200 199 199 199 202 203 206 207 207 208 210 211 211 211 210 210 210 208 207 205 203 202 202 203 203 205 206 206 207 208 209 211 212
157 155 153 152 151 151 150 150 150 152 154 157 158 160 160 162 165 169 173 177 181 186 190 192 195 198 201 202 204 205 207 208 209 208 207 207 208 208 206 206 205 205 205 205 205 206 207 208 208 208 207 207 206 205 204 203 203 203 202 202 201 200 196 194 190 188 187 184 182 178 175 172 169 166 161 158 155 151 149 149 149 148 149 151 153 154 154 156 155 154 151 146 141 134 124 116 108 103 100 97 97 100 103 105 106 106 107 106 106 107 112 117 122 129 136 141 144 147 147 148 150 150 150 150 151 152 152 154 155 155 155 156 156 155 154 155 155 155 154 153 151 149 147 146 144 144 144 146 146 147 149 149 151 151 152 152 153 154 155 156 157 159 160 163 166 167 166 163 159 155 152 149 146 144 142 139 136 135 133 133 134 135 138 141 144 147 147 148 149 149 152 153 154 157 158 161 163 165 167 170 172 175 177 178 179 179 177 175 173 173 171 170 169 169 170 171 172 172 172 173 174 175 174 174 173 172 172 172 171 171 171 172 174 175 175 177 178 177 177 177 176 178 179 181 181 183 185 187 189 191 193 193 193 192 194 197 198 198 197 197 196 195 194 192 190 187 185 184 184 184 184 184 184 185 185 186 186 186 186 184 184 184 182 181 180 179 178 177 176 174 172 169 166 162 159 157 154 154 155 153 153 155 157 157 160 162 164 165 164 163 161 161 161 159 158 155 154 152 150 148 148 148 148 148 148 148 149 149 149 150 150 151 151 151 149 147 144 139 134 128 124 119 114 109 106 105 104 103 101 100 98 94 90 86 84 84 85 86 90 95 100 106 110 115 119 124 127 132 136 138 141 143 143 143 143 143 143 143 143 143 144 143 142 142 141 142 143 145 148 151 153 154 153 151 150 149 149 151 153 156 157 157 156 155 153 150 146 143 142 143 146 151 155 161 166 170 173 174 175 177 179 182 183 184 183 181 181 181 180 178 178 176 176 176 176 179 180 180 179 179 176 175 173 170 167 166 164 162 160 158 153 150 149 148 146 145 144 142 140 139 140 143 144 143 142 143 144 145 145 143 140 135 133 131 126 125 126 127 129 131 133 135 136 137 137 138 139 139 139 139 139 138 137 134 131 128 122 120 116 111 108 104 101 97 94 91 89 90 92 89 88 87 87 88 89 92 95 98 103 107 112 117 121 124 128 133 139 144 148 151 154 157 161 164 167 170 171 172 172 172 173 173 173 173 174 174 174 176 177 178 180 180 180 179 177 176 175 174 171 168 167 166 165 165 164 163 163 162 161 159 157 155 155 154 153 153 151 150 147 143 142 142 143 144 146 148 151 153 154 154 153 153 153 155 155 156 156 156 157 158 158 159 160 161 162 163 165 166 166 166 165 166 167 168 168 170 172 174 175 175 175 175 174 174 173 172 173 172 171 171 171 171 173 173 173 171 167 164 161 159 156 153 149 144 140 137 134 133 132 131 131 133 135 137 140 143 144 142 136 131 124 120 117 113 110 107 105 106 106 108 108 108 108 110 112 114 116 118 119 120 125 128 133 138 144 151 158 167 177 186 193 196 195 192 188 186 185 185 182 181 180 179 178 180 183 185 187 189 190 193 195 196 198 197 197 197 196 198 200 202 202 200 200 200 202 203 206 207 207 208 210 212 212 211 210 210 210 209 208 206 205 204 203 202 202 203 205 205 208 208 210 212 212
158 156 153 151 150 150 150 150 150 152 154 157 158 159 160 161 164 168 172 176 180 185 189 191 194 197 200 202 205 205 206 206 207 207 207 208 209 208 208 207 206 206 207 207 207 206 207 207 206 205 205 206 206 205 204 203 202 202 200 200 201 200 197 195 192 189 187 185 183 179 177 174 171 167 163 159 155 151 148 146 145 143 144 145 148 150 151 154 154 153 150 146 140 132 123 113 106 101 97 94 94 98 101 103 105 106 108 108 106 107 111 116 121 128 135 140 142 145 146 147 149 149 149 149 150 150 152 153 154 154 154 154 154 153 152 152 152 152 152 150 148 146 144 144 143 143 143 145 145 146 148 149 151 151 153 154 154 155 155 156 157 159 161 164 167 167 167 165 161 158 154 151 148 146 143 140 137 135 133 133 133 134 136 139 142 144 145 146 147 149 151 153 154 157 158 162 165 167 169 171 173 175 177 179 179 179 177 175 173 173 171 170 168 168 169 171 171 172 172 172 174 175 176 175 175 174 172 171 170 170 170 171 172 173 173 174 175 175 175 175 174 175 176 178 178 180 181 183 184 186 188 190 190 191 193 195 196 196 195 195 194 193 193 191 188 186 184 184 184 184 184 184 184 184 184 185 185 186 186 184 183 183 182 181 180 178 176 175 173 171 169 166 164 161 159 156 155 156 156 153 154 155 157 157 161 163 164 165 164 163 162 162 161 160 159 156 155 152 150 148 148 149 150 150 149 149 150 150 150 149 149 150 149 149 148 147 144 140 135 131 127 122 117 112 109 107 106 105 102 101 99 96 92 88 85 84 85 85 88 93 98 104 110 115 119 123 127 131 135 137 139 141 140 139 139 139 139 138 138 138 139 139 139 140 141 141 142 145 147 150 151 152 151 150 148 147 147 149 151 154 155 155 154 153 151 148 145 143 142 142 144 148 153 158 164 168 171 173 175 177 178 181 182 183 183 182 183 182 180 178 178 177 177 176 177 179 180 178 177 177 176 175 172 169 166 165 163 161 159 156 152 150 148 146 144 144 144 143 142 142 141 142 142 141 140 140 141 142 142 140 137 133 131 129 127 127 128 129 132 134 135 136 138 139 140 141 141 141 141 140 140 138 136 133 130 127 122 119 116 111 108 104 100 96 94 92 91 91 91 89 88 87 87 88 88 91 95 98 103 107 111 115 119 122 127 132 138 142 146 150 153 156 159 163 166 169 171 172 172 172 172 172 173 173 174 174 174 175 176 178 179 179 179 179 177 177 176 174 172 170 168 166 165 164 163 162 162 161 160 157 156 154 153 152 151 152 151 150 147 144 143 143 144 146 148 151 153 155 156 156 155 155 155 155 155 155 156 156 156 156 157 157 158 158 158 159 161 162 162 163 163 165 166 167 168 169 170 172 172 173 173 173 173 173 172 172 172 172 172 171 171 171 173 173 172 171 167 163 160 157 154 151 148 144 139 137 133 132 132 131 131 133 134 136 139 141 141 139 133 128 123 120 118 114 111 110 111 112 112 112 111 110 111 113 114 115 116 120 121 121 124 128 134 140 144 150 156 164 174 183 191 195 195 192 189 187 186 185 183 183 182 180 178 179 181 183 186 189 190 192 194 196 197 197 197 197 197 198 201 202 202 201 201 201 202 204 204 205 206 207 209 211 211 211 210 210 210 208 207 206 206 204 204 202 202 202 205 205 208 209 210 211 212
160 158 154 151 150 150 150 150 150 152 154 156 157 158 159 160 164 167 171 176 180 184 188 191 193 196 199 202 205 205 206 206 206 206 207 208 209 210 210 209 207 207 209 210 209 208 208 206 204 203 203 205 205 205 204 202 200 200 200 200 201 201 199 197 193 191 189 186 184 181 178 175 172 170 166 162 158 153 150 146 144 140 140 140 142 145 147 150 151 150 147 143 136 128 119 109 102 98 94 92 92 95 98 101 103 105 107 107 107 107 111 116 121 128 134 139 142 143 145 146 148 148 149 148 148 150 151 153 153 153 152 152 151 150 149 149 148 148 148 147 145 143 143 143 143 144 144 145 145 147 147 149 151 152 154 154 155 155 155 156 157 159 161 164 166 167 168 167 164 161 157 153 150 148 145 142 139 137 135 134 134 134 135 137 139 141 142 143 146 148 150 153 154 157 159 163 166 169 171 172 174 175 177 179 179 178 177 175 174 173 171 170 168 168 169 171 171 172 172 172 174 175 177 177 177 174 172 170 169 170 170 171 171 170 171 172 173 173 173 173 172 173 174 176 177 177 178 179 180 182 185 187 189 191 191 192 193 194 193 193 193 192 191 189 187 185 183 183 182 183 183 182 183 184 184 184 185 185 184 183 182 182 182 180 178 176 174 173 171 168 166 164 162 160 158 157 155 154 153 152 154 155 157 157 161 163 164 163 163 162 162 162 162 162 160 158 155 152 150 149 149 150 151 151 150 149 150 150 150 149 149 148 147 147 147 145 143 140 136 132 128 124 119 115 111 109 107 106 103 101 99 96 93 89 86 84 84 85 86 90 95 101 107 112 117 121 125 129 132 134 136 137 135 134 133 133 133 132 133 133 134 136 137 139 140 141 143 146 147 149 150 149 148 148 146 146 146 147 149 152 153 152 152 150 149 146 144 143 142 142 143 146 150 156 161 166 169 172 175 177 177 180 182 183 183 183 184 183 180 179 178 177 177 177 178 179 178 176 175 175 175 173 170 167 165 164 162 160 158 155 151 149 146 144 143 142 143 141 141 142 141 140 139 138 137 137 138 139 139 137 134 132 130 129 129 129 130 131 133 136 137 138 139 141 144 144 142 142 142 140 140 138 136 132 129 126 122 119 115 111 108 103 99 95 94 93 93 93 92 91 89 88 87 88 88 91 94 98 102 106 110 114 117 121 126 131 136 141 146 149 152 155 159 163 165 169 170 172 172 172 172 173 174 174 174 175 175 175 175 178 179 179 180 179 177 177 175 174 173 171 169 167 165 164 162 162 161 160 160 157 156 154 153 150 150 150 150 150 147 144 144 144 145 148 150 152 154 156 157 157 158 158 156 155 155 155 156 156 156 156 156 156 156 155 154 155 157 158 159 160 161 163 164 165 167 168 169 170 170 170 171 172 172 172 172 172 173 172 172 171 172 172 173 173 172 171 167 163 160 157 154 150 147 144 141 137 135 134 133 132 132 133 133 135 138 140 139 136 131 126 121 120 118 114 113 114 116 116 115 114 113 113 114 116 116 116 116 120 122 122 124 129 135 141 144 150 155 162 172 180 187 191 192 190 188 187 187 186 184 184 183 182 179 179 179 182 185 188 188 190 192 194 196 197 197 196 197 199 202 203 203 203 203 203 203 204 204 204 205 207 208 210 210 211 211 210 209 208 206 205 204 204 204 202 203 204 205 207 208 209 209 209 210
162 159 156 153 151 151 150 150 150 152 153 156 156 158 159 160 164 166 170 174 178 183 188 190 193 195 198 201 204 205 205 204 204 205 205 208 210 210 210 210 207 207 209 210 211 211 208 205 205 203 203 204 205 203 203 201 200 200 200 200 201 201 200 198 195 192 190 187 185 182 179 176 174 172 169 165 161 156 152 148 144 139 137 137 137 140 142 144 144 143 140 136 130 122 113 105 99 96 94 93 92 95 97 101 102 105 107 107 109 108 111 115 121 127 132 137 141 143 145 145 147 148 148 147 147 148 150 151 151 151 150 149 148 147 146 146 145 145 145 144 143 141 141 142 144 146 145 145 146 148 149 150 152 153 154 154 154 155 155 156 157 158 160 162 165 167 168 168 165 163 159 155 152 150 147 144 141 139 137 136 135 134 134 135 136 138 140 141 144 146 149 152 154 157 160 163 167 170 172 173 175 175 176 178 178 177 177 175 175 174 172 171 169 169 170 171 171 172 172 173 174 175 177 177 177 174 172 170 169 170 170 171 170 169 169 170 171 172 171 171 170 171 173 174 176 176 176 176 177 179 182 186 189 191 191 191 191 191 191 191 191 190 188 187 185 184 183 182 181 182 182 182 183 183 183 183 185 185 183 182 181 181 180 178 176 174 172 170 168 166 163 161 159 158 158 157 154 152 152 153 155 156 157 158 161 163 164 163 163 163 162 162 163 163 161 159 156 153 152 151 150 150 150 150 150 149 151 151 151 150 149 147 145 145 145 144 142 139 136 133 129 126 121 117 114 111 109 107 104 101 99 96 94 91 88 85 84 84 85 88 92 98 104 109 114 118 122 125 128 130 131 131 129 128 127 127 127 127 128 129 131 134 136 137 139 141 143 146 147 148 148 147 146 145 144 144 145 145 147 149 150 150 149 149 148 145 144 144 143 143 143 146 149 154 159 164 167 170 174 177 177 178 180 181 182 183 182 181 180 180 179 177 177 177 178 178 176 175 173 173 173 171 169 166 165 163 162 160 157 154 151 148 145 143 142 141 140 138 139 139 139 138 137 137 136 135 135 136 136 135 133 132 131 131 131 131 132 133 134 137 138 140 140 142 144 144 142 141 140 139 138 137 135 132 128 126 121 119 115 111 108 102 99 95 95 96 96 94 92 92 91 89 88 90 90 91 94 97 102 105 109 112 115 119 124 129 135 139 144 147 151 155 159 163 166 169 171 172 172 172 172 173 174 174 173 173 173 174 175 177 178 178 179 178 177 176 173 173 173 172 170 168 165 164 162 162 160 159 159 157 156 153 153 150 151 152 150 150 147 144 143 144 146 149 151 152 155 156 158 158 159 159 157 155 155 156 156 156 155 155 155 154 154 152 151 151 152 154 155 157 158 160 162 164 165 166 167 168 168 168 169 170 170 171 172 173 173 173 173 172 172 172 171 172 172 170 167 163 160 157 153 150 147 145 141 138 135 134 132 131 131 131 131 133 136 137 135 131 127 123 120 120 118 114 114 116 117 116 114 113 112 113 114 115 114 114 114 117 120 122 126 130 135 140 143 148 154 160 169 177 183 187 189 188 186 186 187 186 185 185 185 184 182 180 179 182 185 186 186 187 189 192 195 196 197 197 198 201 203 205 205 205 205 205 204 204 204 204 206 207 208 210 211 211 211 210 208 207 206 205 203 202 203 204 205 205 206 207 208 208 207 207 208
163 161 158 154 152 151 150 150 150 152 153 156 156 158 159 160 162 164 168 172 176 181 186 188 192 195 197 199 202 204 205 204 204 205 206 208 210 209 210 208 207 208 209 210 210 211 209 207 207 205 204 204 203 202 202 202 200 200 200 200 200 200 200 199 196 194 192 189 187 183 180 177 175 174 171 167 163 159 154 149 144 138 136 134 134 135 137 138 138 137 133 129 123 115 108 101 97 95 94 94 94 96 99 101 103 106 107 107 109 109 111 114 119 125 130 135 139 142 143 143 145 147 147 147 147 148 148 149 150 148 148 148 146 144 143 143 141 141 141 141 141 140 140 142 145 146 144 145 147 149 151 152 153 153 153 153 154 155 156 157 157 157 158 160 163 165 168 168 166 163 161 157 154 152 148 146 143 141 140 139 137 136 135 135 135 136 137 139 142 144 147 151 154 157 160 164 168 170 172 173 175 175 175 178 179 177 177 176 175 175 173 172 170 170 170 171 171 172 172 173 173 174 175 176 175 173 172 170 170 170 170 170 169 168 167 167 168 170 169 169 169 171 173 173 176 176 175 175 175 177 180 184 187 189 190 190 190 189 189 188 187 186 185 184 184 183 181 181 181 182 182 182 182 183 183 183 185 185 183 182 181 180 178 176 175 172 170 168 166 164 162 160 158 156 155 155 155 153 154 156 157 157 159 160 162 164 165 165 165 165 163 162 162 161 161 160 157 155 154 153 151 151 151 150 150 150 153 153 151 150 149 146 145 144 143 143 141 139 137 135 132 128 125 121 117 114 111 109 106 103 100 98 96 93 90 87 85 85 84 86 90 95 100 105 110 115 119 122 124 125 125 124 123 122 121 122 122 123 124 126 129 132 134 136 138 139 142 144 145 146 146 145 144 143 142 143 144 145 145 147 148 148 147 147 147 145 144 144 144 143 143 144 148 152 157 161 165 169 172 175 176 177 178 179 180 181 180 179 179 178 177 177 177 177 177 176 174 173 171 172 171 170 169 167 165 162 162 160 157 154 150 146 143 141 141 139 138 138 138 138 138 137 136 136 135 134 133 134 134 133 131 131 131 132 133 134 135 135 136 138 140 141 141 142 143 142 141 140 139 137 136 135 133 131 128 126 121 119 115 111 108 103 99 96 97 97 98 96 92 91 90 90 90 93 93 92 94 97 100 104 107 111 114 117 122 128 133 138 142 146 151 154 159 163 166 170 172 173 173 172 172 173 173 173 172 172 172 172 174 175 175 176 177 177 176 175 173 173 174 174 172 169 166 165 163 162 160 159 159 157 156 153 153 151 151 152 150 148 145 142 142 144 146 150 151 152 153 156 158 158 159 159 158 156 156 157 157 157 155 155 154 152 151 148 147 147 148 150 152 154 156 158 160 162 163 164 165 165 165 166 166 167 167 169 170 171 172 172 171 170 170 169 169 169 169 168 165 161 158 154 151 148 145 142 138 135 132 131 129 128 128 128 129 130 132 131 128 126 124 121 119 121 118 116 116 117 116 114 111 109 109 111 112 112 113 114 114 115 118 123 128 132 136 140 142 147 152 158 166 174 180 185 187 187 186 186 186 185 185 184 185 183 182 181 181 183 184 185 184 186 189 191 194 195 198 199 199 202 204 206 207 207 207 207 206 205 204 205 206 208 209 211 211 210 209 208 206 206 205 204 202 202 203 206 206 206 206 207 207 207 206 207 207
164 161 158 155 152 151 150 150 150 152 154 156 156 159 160 160 161 163 166 169 174 179 184 187 191 194 197 198 200 203 205 204 204 206 206 207 208 208 209 209 209 210 210 210 209 210 210 209 208 207 206 204 202 202 202 202 200 200 200 200 200 200 201 199 196 195 194 191 188 184 181 178 177 175 171 168 164 159 155 149 144 139 135 133 132 132 132 133 133 132 128 123 117 110 104 98 96 95 94 94 96 99 101 103 105 107 107 107 109 109 110 112 117 123 128 133 137 139 140 141 144 146 147 147 147 146 147 149 149 148 147 147 145 143 142 140 138 138 138 138 138 138 140 141 144 146 144 145 148 150 152 152 153 153 153 153 153 156 156 157 157 157 158 158 161 164 167 167 166 163 162 158 156 153 149 147 144 144 143 141 140 138 137 135 135 135 136 136 139 142 146 150 154 158 162 165 169 171 173 173 175 175 176 178 179 178 177 176 175 175 173 172 170 170 170 170 170 171 172 172 173 173 174 174 173 172 172 171 171 171 171 170 168 167 167 167 167 167 167 168 168 171 172 173 176 176 175 175 175 176 178 182 184 186 188 189 188 187 186 185 184 183 184 184 184 183 181 181 182 183 183 183 183 183 183 184 185 185 183 182 180 179 177 175 175 171 169 166 164 163 161 160 157 155 154 155 157 156 157 159 159 159 160 162 164 165 166 167 167 165 164 163 161 161 161 160 158 156 155 156 154 153 153 152 151 150 152 152 151 150 148 145 145 144 143 143 141 140 139 138 135 132 128 124 120 116 113 111 108 105 102 99 97 94 92 89 86 85 83 83 87 92 97 102 107 111 115 118 119 120 120 119 118 117 117 118 119 120 122 124 127 130 133 135 137 138 140 142 143 144 143 142 141 141 141 142 143 144 144 147 147 147 146 145 146 145 144 144 144 142 141 142 146 150 155 159 163 167 170 173 175 177 177 178 179 179 179 177 177 176 176 177 178 178 176 174 173 171 170 170 170 169 169 168 165 164 162 160 157 153 148 144 141 140 140 138 138 138 138 138 137 136 135 135 134 133 131 131 131 131 131 131 131 132 135 136 137 137 138 141 143 143 143 143 143 142 141 140 138 136 135 133 132 129 127 125 121 119 115 111 108 103 99 97 97 97 98 97 93 91 90 90 90 93 93 92 93 95 98 101 105 109 113 117 121 127 132 137 141 145 150 154 158 163 166 170 172 174 174 173 172 172 172 171 171 171 171 172 173 173 173 173 176 175 174 174 174 174 174 175 173 169 166 165 163 162 160 158 158 157 155 153 153 151 150 150 148 146 143 141 141 143 146 149 150 151 153 155 157 158 159 159 159 157 157 157 156 156 155 154 152 150 148 145 143 143 144 147 149 151 154 156 158 159 160 161 162 162 163 163 164 164 165 166 168 170 170 169 168 167 166 166 166 166 166 164 161 158 154 150 147 144 141 138 134 131 129 128 126 125 125 125 126 127 128 126 124 122 122 120 118 120 118 118 118 118 115 113 109 107 107 110 110 112 112 113 114 115 118 123 129 133 137 140 142 145 150 157 165 172 179 184 187 186 186 186 186 185 183 182 184 182 182 181 181 182 182 184 184 186 189 191 193 195 198 199 200 202 204 206 207 208 209 208 207 206 204 205 205 207 209 210 209 209 208 207 206 206 205 204 202 202 203 206 206 206 206 206 207 207 206 207 208
