ncols         934
nrows         40
xllcorner     -71.0333333333
yllcorner     42.75598
cellsize      1.0E-5
NODATA_value  -9999
58 57 56 56 56 56 56 56 55 54 55 57 58 59 60 60 60 61 62 64 66 71 75 77 77 76 75 73 71 68 65 61 59 56 53 49 45 45 44 44 44 43 43 43 43 43 44 44 43 44 44 45 47 48 48 49 50 52 53 53 51 46 43 43 43 48 50 49 47 46 46 46 47 48 48 48 50 49 47 46 46 46 46 44 41 40 40 39 38 34 32 31 31 31 30 30 30 29 29 29 28 28 28 28 28 28 28 28 28 28 28 28 28 29 29 29 29 29 30 30 30 32 33 33 32 31 31 31 31 31 31 32 32 32 32 33 35 36 36 36 36 37 38 38 38 39 40 42 47 50 57 65 74 82 88 89 86 74 65 62 61 60 59 58 56 52 47 43 40 37 34 32 31 30 30 29 28 28 28 27 27 27 27 27 27 27 25 26 26 26 25 25 25 25 25 25 26 27 27 27 29 29 29 31 33 35 36 36 37 37 38 38 38 38 38 38 38 38 38 38 38 37 36 36 34 33 32 30 27 27 25 25 25 25 27 32 33 34 34 34 33 33 32 32 32 33 32 32 31 31 30 30 30 31 32 34 35 34 33 31 28 27 26 24 24 23 24 24 25 23 23 26 29 30 33 35 35 33 30 27 24 24 23 22 20 20 20 20 20 20 20 20 20 22 24 28 35 42 48 48 47 42 36 29 22 15 9 5 5 5 7 8 9 10 9 9 8 8 8 8 8 8 8 8 8 8 9 9 10 11 11 11 11 11 11 10 10 11 11 11 11 11 11 11 13 15 16 17 20 21 20 19 19 18 18 21 23 24 26 26 26 26 26 27 27 28 29 29 29 29 30 30 31 31 31 32 32 32 32 33 33 33 33 32 32 33 31 28 26 25 26 26 27 25 23 23 23 23 23 23 23 23 23 23 22 22 22 22 22 22 22 22 22 22 22 22 22 22 22 22 22 22 22 23 23 23 23 23 23 23 23 23 23 23 23 23 23 23 23 23 23 22 22 22 22 22 22 22 22 22 22 22 21 21 21 20 20 19 18 19 20 19 19 20 20 19 19 18 18 17 17 17 17 17 17 16 16 16 15 13 13 13 12 12 12 12 11 11 11 11 11 11 10 10 9 9 9 9 9 9 8 8 7 6 6 6 6 6 6 6 6 6 6 5 5 5 3 3 3 3 3 3 3 3 3 3 3 3 3 3 3 3 3 3 3 3 3 3 3 3 3 3 3 4 3 3 3 3 4 3 3 2 2 2 2 1 1 1 1 1 1 2 1 1 1 1 1 1 1 1 1 0 0 0 0 0 0 0 0 1 1 1 2 2 2 3 2 1 0 0 0 0 0 0 0 0 0 0 0 0 0 0 0 0 0 0 0 0 0 0 0 0 0 0 0 0 0 0 0 0 0 0 0 0 0 0 0 0 0 0 0 0 0 0 0 0 0 0 0 0 0 0 0 0 0 0 0 0 0 0 0 0 0 0 0 0 0 0 0 0 0 0 0 0 0 0 0 0 0 0 0 0 0 0 0 0 0 0 0 0 0 0 0 0 0 0 0 0 0 0 0 0 0 0 0 0 0 0 0 0 0 0 0 0 0 0 0 0 0 0 0 0 0 0 0 0 0 0 0 0 0 0 0 0 0 0 0 0 0 0 0 0 0 0 0 0 0 0 0 0 0 0 0 0 0 0 0 0 0 0 0 0 0 0 0 0 0 0 0 0 0 0 0 0 0 0 0 0 0 0 0 0 0 0 0 0 0 0 0 0 0 0 0 0 0 0 0 0 0 0 0 0 0 0 0 0 0 0 0 0 0 0 0 0 0 0 0 0 0 0 0 0 0 0 0 0 0 0 0 0 0 0 0 0 0 0 0 0 0 0 0 0 0 0 0 0 0 0 0 0 0 0 0 0 0 0 0 0 0 0 0 0 0 0 0 0 0 0 0 0 0 0 0 0 0 0 0 0 0 0 0 0 0 0 0 0 0 0 0 0 0 0 0 0 0 0 0 0 0 0 0 0 0 0 0 0 0 0 0 0 0 0 0 0 0 0 0 0 0 0 0 0 0 0 0 0 0 0 0 0 0 0 0 0 0 0 0 0 0 0 0 0 0 0
58 57 57 57 57 57 57 56 55 54 53 54 56 57 58 59 59 59 60 61 63 68 74 77 79 78 78 76 73 70 67 63 60 58 54 50 45 45 44 43 43 43 43 43 43 43 43 43 43 44 44 45 47 47 48 49 49 49 50 52 51 47 44 44 44 44 46 47 46 45 45 45 46 47 47 47 47 47 46 46 46 45 46 47 45 41 40 40 36 35 33 32 32 31 30 30 30 29 29 29 28 28 28 28 28 28 28 28 28 28 28 28 28 28 29 29 29 29 30 30 31 32 34 34 33 32 32 32 32 31 32 32 32 32 32 32 33 35 35 36 36 36 36 35 37 37 38 40 44 46 53 63 72 79 84 87 84 73 63 61 60 57 56 54 52 49 45 44 42 38 35 33 32 30 30 29 28 28 28 27 27 27 27 27 27 27 26 26 26 26 25 25 25 25 25 25 26 27 27 27 29 29 30 33 35 37 38 39 40 40 40 40 40 40 40 39 39 39 39 38 38 38 37 36 35 34 32 30 28 27 26 25 25 25 26 31 33 33 33 33 32 33 32 32 32 32 32 32 32 32 32 32 32 33 35 36 37 37 35 33 31 30 28 25 24 23 23 23 24 23 23 24 25 27 30 32 32 30 26 23 21 21 20 20 20 20 20 20 20 20 20 20 20 22 22 23 28 35 42 43 42 38 31 25 18 11 5 5 5 6 7 7 7 7 7 8 8 8 8 8 8 8 8 8 8 8 8 8 9 9 9 10 10 10 10 10 10 11 11 11 11 11 11 11 12 14 14 16 18 19 18 17 17 17 17 18 21 24 25 25 25 25 26 27 27 28 28 28 28 29 30 30 31 31 31 31 32 32 32 32 32 32 32 31 32 32 30 27 25 25 26 26 27 26 24 23 23 23 23 23 23 23 23 23 23 23 23 23 23 23 22 22 22 22 22 22 22 22 22 22 22 23 23 23 23 23 23 23 23 23 23 23 23 23 23 23 23 23 23 23 23 22 22 22 22 22 22 22 22 22 22 21 20 20 20 20 19 19 18 18 18 19 19 19 19 19 18 18 17 16 16 16 17 17 17 16 16 16 15 14 13 13 12 11 11 11 11 11 11 11 10 10 10 10 9 9 9 9 9 8 7 7 6 6 6 6 6 6 6 6 6 6 6 5 5 4 3 3 3 3 3 3 3 3 3 3 3 3 3 3 3 3 3 3 3 3 3 3 3 3 3 3 3 4 4 3 3 3 3 2 2 2 2 2 2 1 1 1 1 1 1 2 1 1 1 1 1 1 1 1 1 1 0 0 0 0 0 0 0 1 1 1 2 2 2 3 2 1 0 0 0 0 0 0 0 0 0 0 0 0 0 0 0 0 0 0 0 0 0 0 0 0 0 0 0 0 0 0 0 0 0 0 0 0 0 0 0 0 0 0 0 0 0 0 0 0 0 0 0 0 0 0 0 0 0 0 0 0 0 0 0 0 0 0 0 0 0 0 0 0 0 0 0 0 0 0 0 0 0 0 0 0 0 0 0 0 0 0 0 0 0 0 0 0 0 0 0 0 0 0 0 0 0 0 0 0 0 0 0 0 0 0 0 0 0 0 0 0 0 0 0 0 0 0 0 0 0 0 0 0 0 0 0 0 0 0 0 0 0 0 0 0 0 0 0 0 0 0 0 0 0 0 0 0 0 0 0 0 0 0 0 0 0 0 0 0 0 0 0 0 0 0 0 0 0 0 0 0 0 0 0 0 0 0 0 0 0 0 0 0 0 0 0 0 0 0 0 0 0 0 0 0 0 0 0 0 0 0 0 0 0 0 0 0 0 0 0 0 0 0 0 0 0 0 0 0 0 0 0 0 0 0 0 0 0 0 0 0 0 0 0 0 0 0 0 0 0 0 0 0 0 0 0 0 0 0 0 0 0 0 0 0 0 0 0 0 0 0 0 0 0 0 0 0 0 0 0 0 0 0 0 0 0 0 0 0 0 0 0 0 0 0 0 0 0 0 0 0 0 0 0 0 0 0 0 0 0 0 0 0 0 0 0 0 0 0 0 0 0 0 0 0 0 0 0 0 0 0 0 0 0 0 0 0 0 0 0 0 0 0 0 0 0 0
58 58 58 58 56 56 56 56 56 55 53 52 53 55 57 58 57 57 57 57 59 65 72 76 79 79 78 76 74 71 67 65 62 60 56 51 45 45 44 43 43 43 42 43 43 43 43 43 43 44 44 45 46 47 47 48 49 49 48 49 48 47 44 44 44 44 44 44 44 44 44 44 44 45 46 46 46 46 46 46 45 44 45 47 47 44 40 38 34 33 33 32 32 31 30 30 30 29 29 29 28 28 28 28 28 28 28 28 28 28 28 28 28 28 29 29 29 29 30 30 32 33 37 38 36 34 33 32 33 33 33 35 35 34 32 32 32 33 34 35 35 35 35 35 35 36 37 39 40 41 46 55 65 73 78 81 81 72 61 59 60 56 54 52 51 48 44 43 42 38 36 34 32 29 29 29 28 28 28 27 27 27 27 26 26 26 26 26 26 25 25 25 25 25 25 25 26 27 27 28 29 31 33 36 37 39 40 41 41 42 43 42 42 41 41 41 40 40 40 39 39 39 38 38 37 34 32 30 28 28 26 25 24 24 25 30 32 32 32 32 31 32 31 31 31 31 31 31 32 32 33 33 33 35 37 38 39 39 38 36 35 33 30 28 25 23 23 23 23 23 23 23 24 25 27 29 29 26 23 20 20 20 20 20 20 20 20 20 20 20 20 20 20 22 22 22 22 26 33 38 37 33 26 20 14 8 5 5 6 6 7 8 7 8 9 11 11 11 10 10 8 9 10 9 8 8 8 9 9 9 10 10 10 10 10 10 10 11 11 11 11 11 11 11 12 13 13 13 15 16 16 16 16 16 17 18 19 21 24 24 24 25 26 26 26 27 28 28 28 29 30 30 30 31 31 31 31 31 31 31 31 32 31 30 30 29 27 25 25 25 26 27 27 26 25 23 23 23 24 24 23 23 23 23 23 23 23 23 23 23 22 22 22 22 22 22 22 22 22 22 22 23 23 23 23 23 23 23 23 23 23 23 23 23 23 23 23 24 24 24 23 22 22 22 21 21 21 21 21 21 21 20 20 19 19 19 19 18 17 18 19 19 19 19 19 18 18 17 16 16 16 16 16 16 16 16 15 15 15 13 13 13 12 11 11 11 11 11 11 11 10 10 10 10 9 9 9 8 8 8 7 6 6 6 6 6 6 6 6 6 6 6 6 5 4 4 3 3 3 3 3 3 3 3 3 3 3 3 3 3 3 4 4 4 3 3 3 3 3 3 2 2 2 2 3 2 2 3 2 2 2 1 1 1 1 1 1 1 1 1 1 1 1 1 1 1 1 1 1 1 1 1 0 0 0 0 0 0 0 0 1 1 1 2 2 3 2 1 0 0 0 0 0 0 0 0 0 0 0 0 0 0 0 0 0 0 0 0 0 0 0 0 0 0 0 0 0 0 0 0 0 0 0 0 0 0 0 0 0 0 0 0 0 0 0 0 0 0 0 0 0 0 0 0 0 0 0 0 0 0 0 0 0 0 0 0 0 0 0 0 0 0 0 0 0 0 0 0 0 0 0 0 0 0 0 0 0 0 0 0 0 0 0 0 0 0 0 0 0 0 0 0 0 0 0 0 0 0 0 0 0 0 0 0 0 0 0 0 0 0 0 0 0 0 0 0 0 0 0 0 0 0 0 0 0 0 0 0 0 0 0 0 0 0 0 0 0 0 0 0 0 0 0 0 0 0 0 0 0 0 0 0 0 0 0 0 0 0 0 0 0 0 0 0 0 0 0 0 0 0 0 0 0 0 0 0 0 0 0 0 0 0 0 0 0 0 0 0 0 0 0 0 0 0 0 0 0 0 0 0 0 0 0 0 0 0 0 0 0 0 0 0 0 0 0 0 0 0 0 0 0 0 0 0 0 0 0 0 0 0 0 0 0 0 0 0 0 0 0 0 0 0 0 0 0 0 0 0 0 0 0 0 0 0 0 0 0 0 0 0 0 0 0 0 0 0 0 0 0 0 0 0 0 0 0 0 0 0 0 0 0 0 0 0 0 0 0 0 0 0 0 0 0 0 0 0 0 0 0 0 0 0 0 0 0 0 0 0 0 0 0 0 0 0 0 0 0 0 0 0 0 0 0 0 0 0 0 0 0 0 0 0 0 0
57 57 57 57 56 56 56 55 56 55 53 51 51 52 55 56 56 56 55 54 55 61 68 73 77 78 78 76 74 72 70 67 65 62 58 52 46 44 44 44 44 43 42 42 42 42 42 42 43 44 44 45 46 47 47 48 48 48 48 47 47 45 44 44 44 44 44 44 44 44 44 44 44 44 45 46 46 46 46 45 45 42 41 42 43 43 41 36 33 32 32 32 32 31 30 30 30 29 29 29 29 29 29 29 28 28 28 28 28 28 28 28 28 28 29 29 29 29 30 32 34 37 43 44 39 36 35 34 35 36 36 38 40 38 35 34 33 33 34 35 35 35 35 35 35 35 35 36 37 37 39 46 56 63 68 72 73 67 58 56 58 54 51 50 49 46 43 41 39 36 34 33 31 29 29 29 28 27 27 27 27 27 27 26 26 26 26 26 26 25 25 25 25 25 26 26 26 27 27 30 32 34 37 39 41 42 42 43 44 45 46 45 45 45 44 43 42 41 41 40 40 39 39 39 37 35 33 31 29 29 27 25 24 24 25 28 31 31 31 30 30 30 30 29 28 28 30 30 32 34 35 36 36 38 40 42 43 42 41 40 39 35 33 31 29 26 23 22 22 22 23 23 23 24 25 26 26 22 20 20 20 20 20 20 20 20 20 20 20 20 20 20 20 22 22 22 22 22 25 30 30 25 20 15 11 7 6 5 5 5 7 9 11 13 14 14 14 14 14 14 14 14 14 14 13 12 12 10 9 9 10 11 11 11 11 11 11 11 11 11 11 11 11 11 11 11 11 11 12 14 14 15 16 16 17 18 19 20 21 22 22 23 24 24 25 26 26 28 28 29 29 29 30 30 30 30 31 31 30 30 30 30 30 28 27 26 25 25 25 25 27 27 28 26 26 26 24 24 24 25 24 23 23 23 23 23 23 23 23 23 22 22 22 22 22 22 22 22 22 22 22 23 23 23 23 23 23 23 23 23 23 23 23 23 24 24 24 24 24 24 24 22 22 22 21 20 20 20 20 20 20 19 18 18 18 18 18 17 17 17 19 20 20 19 18 17 17 16 15 15 15 15 16 16 16 16 14 14 14 13 13 13 12 11 11 11 11 11 11 11 10 10 10 9 9 9 9 8 8 8 6 6 6 6 6 6 7 7 6 6 6 6 6 5 4 4 3 3 3 3 3 3 3 3 2 2 2 3 3 3 3 4 4 4 3 3 3 3 3 3 2 2 2 2 2 2 2 2 2 1 1 1 1 1 1 1 1 1 1 1 1 1 1 1 1 1 1 1 1 1 1 1 1 1 1 0 0 0 0 0 1 1 1 2 2 3 2 1 0 0 0 0 0 0 0 0 0 0 0 0 0 0 0 0 0 0 0 0 0 0 0 0 0 0 0 0 0 0 0 0 0 0 0 0 0 0 0 0 0 0 0 0 0 0 0 0 0 0 0 0 0 0 0 0 0 0 0 0 0 0 0 0 0 0 0 0 0 0 0 0 0 0 0 0 0 0 0 0 0 0 0 0 0 0 0 0 0 0 0 0 0 0 0 0 0 0 0 0 0 0 0 0 0 0 0 0 0 0 0 0 0 0 0 0 0 0 0 0 0 0 0 0 0 0 0 0 0 0 0 0 0 0 0 0 0 0 0 0 0 0 0 0 0 0 0 0 0 0 0 0 0 0 0 0 0 0 0 0 0 0 0 0 0 0 0 0 0 0 0 0 0 0 0 0 0 0 0 0 0 0 0 0 0 0 0 0 0 0 0 0 0 0 0 0 0 0 0 0 0 0 0 0 0 0 0 0 0 0 0 0 0 0 0 0 0 0 0 0 0 0 0 0 0 0 0 0 0 0 0 0 0 0 0 0 0 0 0 0 0 0 0 0 0 0 0 0 0 0 0 0 0 0 0 0 0 0 0 0 0 0 0 0 0 0 0 0 0 0 0 0 0 0 0 0 0 0 0 0 0 0 0 0 0 0 0 0 0 0 0 0 0 0 0 0 0 0 0 0 0 0 0 0 0 0 0 0 0 0 0 0 0 0 0 0 0 0 0 0 0 0 0 0 0 0 0 0 0 0 0 0 0 0 0 0 0 0 0 0 0 0 0 0 0 0
56 55 56 56 56 56 56 55 55 54 52 50 50 50 52 54 55 55 53 51 52 58 64 69 73 77 77 76 74 73 72 69 66 62 59 54 48 44 44 44 44 43 42 42 42 42 42 42 42 44 44 44 46 47 47 48 48 48 48 46 45 44 44 44 44 44 44 44 44 44 44 44 44 44 44 46 46 45 45 44 42 40 38 37 37 38 40 36 33 32 32 32 32 32 31 31 30 29 29 29 29 29 29 29 28 28 28 28 28 28 28 28 28 28 29 29 29 29 30 32 34 40 46 47 43 41 39 35 35 36 37 42 45 43 40 37 35 34 34 35 35 35 35 35 35 35 35 35 35 36 37 41 48 52 57 60 61 60 54 51 52 50 47 47 46 43 41 37 35 34 32 31 30 29 29 29 28 27 27 27 27 27 27 26 26 26 26 26 26 25 25 25 25 25 25 25 26 27 27 30 35 38 40 42 43 44 45 45 47 47 49 49 49 49 48 46 45 43 42 41 41 40 39 39 38 37 35 33 31 30 28 25 25 25 25 28 30 30 30 29 29 29 28 27 27 28 30 31 33 35 37 38 40 42 44 45 46 46 44 43 42 39 36 34 32 30 26 22 22 22 22 22 22 22 23 24 22 20 20 20 20 20 20 20 20 20 20 20 20 20 20 20 20 22 22 22 22 21 21 23 22 18 15 12 9 7 5 5 5 5 8 10 12 13 15 15 15 15 16 15 15 15 15 16 16 16 16 14 12 10 10 11 11 11 11 11 11 11 11 11 11 11 11 11 11 11 11 12 13 14 15 16 17 17 17 17 18 19 19 19 20 20 21 22 23 24 25 27 28 28 28 28 29 29 29 29 30 30 29 29 29 30 30 27 26 24 24 24 24 26 28 28 28 27 26 26 26 26 25 24 24 23 23 23 23 23 23 22 22 22 22 22 22 22 22 22 22 22 22 22 23 23 23 23 23 23 23 23 23 23 23 23 23 23 24 24 24 24 24 23 23 22 21 21 20 20 19 19 19 19 19 18 17 17 17 17 17 17 17 17 18 20 19 18 17 16 15 14 14 14 14 15 15 15 15 15 14 14 14 13 12 12 12 11 11 11 10 10 10 10 10 10 10 9 9 9 8 8 8 7 7 7 6 6 7 7 8 9 10 9 7 6 6 5 5 4 4 3 3 3 2 2 2 2 2 2 2 3 3 3 3 3 3 3 3 3 3 2 2 2 2 2 2 2 2 2 2 2 1 1 1 1 1 1 1 1 1 1 1 1 1 1 1 1 1 1 1 1 1 1 1 1 1 1 1 0 0 0 0 0 0 0 1 2 2 3 2 1 0 0 0 0 0 0 0 0 0 0 0 0 0 0 0 0 0 0 0 0 0 0 0 0 0 0 0 0 0 0 0 0 0 0 0 0 0 0 0 0 0 0 0 0 0 0 0 0 0 0 0 0 0 0 0 0 0 0 0 0 0 0 0 0 0 0 0 0 0 0 0 0 0 0 0 0 0 0 0 0 0 0 0 0 0 0 0 0 0 0 0 0 0 0 0 0 0 0 0 0 0 0 0 0 0 0 0 0 0 0 0 0 0 0 0 0 0 0 0 0 0 0 0 0 0 0 0 0 0 0 0 0 0 0 0 0 0 0 0 0 0 0 0 0 0 0 0 0 0 0 0 0 0 0 0 0 0 0 0 0 0 0 0 0 0 0 0 0 0 0 0 0 0 0 0 0 0 0 0 0 0 0 0 0 0 0 0 0 0 0 0 0 0 0 0 0 0 0 0 0 0 0 0 0 0 0 0 0 0 0 0 0 0 0 0 0 0 0 0 0 0 0 0 0 0 0 0 0 0 0 0 0 0 0 0 0 0 0 0 0 0 0 0 0 0 0 0 0 0 0 0 0 0 0 0 0 0 0 0 0 0 0 0 0 0 0 0 0 0 0 0 0 0 0 0 0 0 0 0 0 0 0 0 0 0 0 0 0 0 0 0 0 0 0 0 0 0 0 0 0 0 0 0 0 0 0 0 0 0 0 0 0 0 0 0 0 0 0 0 0 0 0 0 0 0 0 0 0 0 0 0 0 0 0 0 0 0 0 0 0 0 0 0 0 0 0
56 54 55 56 57 56 56 54 53 52 51 50 50 50 50 51 52 53 52 50 49 52 58 64 70 74 76 75 73 73 71 69 66 64 61 55 49 45 44 44 44 43 43 42 42 42 42 42 42 43 43 44 46 47 47 47 48 48 48 45 44 44 44 44 44 44 44 44 44 44 44 44 44 44 44 45 44 44 45 44 42 41 39 37 36 36 35 34 36 34 32 32 32 32 31 30 30 29 29 29 29 29 29 29 28 28 28 27 27 27 28 28 28 28 29 29 29 29 30 31 34 39 44 44 44 45 43 37 35 35 37 45 50 48 45 41 38 37 37 37 40 39 35 35 35 35 35 35 35 36 37 39 42 45 49 51 51 50 48 46 45 45 44 44 43 40 37 34 33 32 31 30 30 29 29 29 28 27 27 27 27 27 27 26 26 26 26 26 26 25 25 25 25 25 25 25 26 27 27 30 34 38 41 43 45 46 48 48 49 50 51 51 52 52 51 49 47 45 44 43 41 41 40 40 38 37 36 34 32 31 28 26 25 25 25 28 29 28 27 27 27 27 26 26 27 29 31 33 35 37 39 42 44 46 49 50 51 50 48 46 44 42 41 38 36 33 30 26 22 21 21 20 21 21 21 21 20 20 20 20 20 20 20 20 20 20 20 20 20 20 20 20 21 22 22 22 22 20 19 19 16 14 13 11 10 8 5 5 5 5 8 10 12 13 16 16 16 16 17 17 17 17 17 17 18 18 17 16 14 12 11 11 11 11 11 11 11 11 11 11 11 11 11 11 11 11 11 13 15 16 16 16 17 17 17 16 18 18 18 18 18 18 20 20 21 22 23 24 25 25 26 26 27 28 28 29 29 29 28 28 29 29 29 27 26 24 24 24 24 27 29 29 28 27 26 26 26 26 26 24 24 24 24 23 23 23 23 22 22 22 22 22 22 22 22 22 22 22 22 22 22 23 23 23 23 23 23 23 23 23 23 24 24 24 24 24 24 24 22 22 22 21 20 20 20 19 19 18 18 18 18 18 17 17 17 16 16 16 16 16 17 17 17 17 15 15 14 14 14 13 13 13 15 15 15 15 14 14 14 12 12 12 12 12 12 11 10 10 10 10 10 10 10 9 9 9 8 8 8 7 7 7 7 7 7 8 9 10 10 9 7 6 6 6 5 5 4 3 3 3 2 2 2 2 2 2 2 2 3 3 3 3 3 3 3 2 2 2 2 2 2 2 1 1 1 1 1 1 1 1 1 0 0 0 0 1 1 1 1 1 1 1 1 1 1 1 1 1 1 1 1 1 1 1 1 1 0 0 0 0 0 0 1 2 2 3 2 1 0 0 0 0 0 0 0 0 0 0 0 0 0 0 0 0 0 0 0 0 0 0 0 0 0 0 0 0 0 0 0 0 0 0 0 0 0 0 0 0 0 0 0 0 0 0 0 0 0 0 0 0 0 0 0 0 0 0 0 0 0 0 0 0 0 0 0 0 0 0 0 0 0 0 0 0 0 0 0 0 0 0 0 0 0 0 0 0 0 0 0 0 0 0 0 0 0 0 0 0 0 0 0 0 0 0 0 0 0 0 0 0 0 0 0 0 0 0 0 0 0 0 0 0 0 0 0 0 0 0 0 0 0 0 0 0 0 0 0 0 0 0 0 0 0 0 0 0 0 0 0 0 0 0 0 0 0 0 0 0 0 0 0 0 0 0 0 0 0 0 0 0 0 0 0 0 0 0 0 0 0 0 0 0 0 0 0 0 0 0 0 0 0 0 0 0 0 0 0 0 0 0 0 0 0 0 0 0 0 0 0 0 0 0 0 0 0 0 0 0 0 0 0 0 0 0 0 0 0 0 0 0 0 0 0 0 0 0 0 0 0 0 0 0 0 0 0 0 0 0 0 0 0 0 0 0 0 0 0 0 0 0 0 0 0 0 0 0 0 0 0 0 0 0 0 0 0 0 0 0 0 0 0 0 0 0 0 0 0 0 0 0 0 0 0 0 0 0 0 0 0 0 0 0 0 0 0 0 0 0 0 0 0 0 0 0 0 0 0 0 0 0 0 0 0 0 0 0 0 0 0 0 0 0 0 0 0 0 0 0 0 0 0 0 0 0
55 54 54 56 57 56 54 53 52 51 50 50 50 50 49 49 51 52 50 49 47 48 53 59 64 69 71 72 71 69 70 68 66 64 62 57 51 46 44 44 44 43 43 42 42 41 41 41 42 42 43 43 46 47 47 47 48 48 48 46 45 45 45 44 44 44 44 44 44 44 44 44 44 44 44 44 43 43 44 43 42 41 40 37 37 36 35 34 37 36 33 32 31 31 31 30 29 28 28 28 28 29 29 29 29 29 29 28 27 27 28 27 27 28 28 29 29 29 29 29 33 36 38 41 44 48 48 42 37 35 37 44 52 51 48 45 43 42 41 42 43 42 36 35 35 35 35 35 35 36 36 38 39 42 43 43 43 43 43 42 41 40 39 39 38 37 35 33 32 32 31 30 30 29 29 29 28 27 27 27 27 27 27 26 26 26 26 26 26 25 25 25 25 25 25 25 26 27 27 28 32 37 41 43 46 48 50 50 51 51 52 53 53 53 52 51 50 48 46 44 42 42 41 40 38 37 36 35 33 31 30 27 25 25 25 27 28 27 25 25 25 25 25 25 27 29 31 34 37 39 42 45 49 51 54 55 54 53 52 50 47 46 44 43 41 38 34 30 25 22 21 20 20 20 20 20 20 20 20 20 20 20 20 20 20 20 20 20 20 20 20 21 22 22 23 24 23 20 17 15 15 14 13 11 10 9 7 5 5 5 7 11 13 13 15 16 16 17 17 17 17 17 18 18 19 18 17 16 16 15 14 13 13 12 12 11 11 11 11 11 11 11 11 11 11 11 11 13 14 15 15 16 16 15 15 16 17 17 17 17 17 17 17 18 18 19 21 22 22 23 24 24 25 26 27 28 27 27 27 27 29 29 29 27 26 24 23 23 25 28 29 29 27 27 26 25 25 25 25 25 24 24 24 23 23 23 23 22 22 22 22 22 22 22 22 22 22 22 22 22 22 23 23 23 23 23 23 23 24 24 24 24 24 24 24 24 23 23 22 21 21 20 20 19 19 19 19 18 18 18 18 18 17 17 16 16 16 16 16 16 16 16 16 14 14 14 14 14 13 13 13 12 14 14 14 14 14 13 13 12 11 11 11 11 11 10 10 10 10 10 10 10 10 9 9 9 8 8 8 8 7 7 7 7 7 8 8 9 9 8 7 7 7 6 5 5 4 3 3 3 2 2 2 2 2 2 2 2 2 2 2 2 2 2 2 2 1 1 2 2 2 1 1 1 1 1 1 1 1 1 1 0 0 0 0 0 0 0 0 1 1 1 1 1 0 0 0 0 1 1 1 1 0 0 0 0 0 0 0 0 0 0 1 2 2 3 2 1 0 0 0 0 0 0 0 0 0 0 0 0 0 0 0 0 0 0 0 0 0 0 0 0 0 0 0 0 0 0 0 0 0 0 0 0 0 0 0 0 0 0 0 0 0 0 0 0 0 0 0 0 0 0 0 0 0 0 0 0 0 0 0 0 0 0 0 0 0 0 0 0 0 0 0 0 0 0 0 0 0 0 0 0 0 0 0 0 0 0 0 0 0 0 0 0 0 0 0 0 0 0 0 0 0 0 0 0 0 0 0 0 0 0 0 0 0 0 0 0 0 0 0 0 0 0 0 0 0 0 0 0 0 0 0 0 0 0 0 0 0 0 0 0 0 0 0 0 0 0 0 0 0 0 0 0 0 0 0 0 0 0 0 0 0 0 0 0 0 0 0 0 0 0 0 0 0 0 0 0 0 0 0 0 0 0 0 0 0 0 0 0 0 0 0 0 0 0 0 0 0 0 0 0 0 0 0 0 0 0 0 0 0 0 0 0 0 0 0 0 0 0 0 0 0 0 0 0 0 0 0 0 0 0 0 0 0 0 0 0 0 0 0 0 0 0 0 0 0 0 0 0 0 0 0 0 0 0 0 0 0 0 0 0 0 0 0 0 0 0 0 0 0 0 0 0 0 0 0 0 0 0 0 0 0 0 0 0 0 0 0 0 0 0 0 0 0 0 0 0 0 0 0 0 0 0 0 0 0 0 0 0 0 0 0 0 0 0 0 0 0 0 0 0 0 0 0 0 0 0 0 0 0 0 0 0 0 0 0 0 0 0 0 0 0 0
55 54 54 54 55 55 53 51 50 50 50 50 50 50 49 49 49 50 49 48 46 45 48 53 57 61 65 67 69 68 67 66 65 64 62 58 54 49 46 44 44 43 42 42 42 41 41 41 41 42 42 43 46 47 47 48 49 50 50 50 50 50 50 50 49 49 48 48 48 46 45 44 44 44 43 43 42 42 42 42 41 41 39 38 38 38 37 36 37 37 35 34 31 29 30 30 28 28 28 28 28 28 28 29 30 31 31 29 28 28 28 27 27 28 28 28 28 29 29 29 30 33 37 41 44 49 51 47 40 36 37 43 49 50 47 45 46 46 44 43 43 41 36 36 36 36 37 37 37 37 37 37 38 38 38 38 38 39 40 40 38 38 36 36 35 34 34 32 32 31 31 31 30 29 29 29 28 27 27 27 27 27 27 26 26 26 26 26 26 25 25 25 25 25 25 25 26 26 26 27 30 34 39 42 45 50 53 53 52 52 53 54 55 54 54 53 52 50 49 48 45 43 42 41 39 38 37 36 34 32 30 28 25 25 25 25 27 27 25 25 25 25 25 25 28 30 32 35 39 43 47 51 55 58 59 60 60 58 56 54 52 50 49 48 46 43 38 34 28 25 22 20 20 20 20 20 20 20 20 20 20 20 20 20 20 20 20 20 20 22 23 23 23 25 27 28 26 21 17 15 14 14 14 11 10 8 5 5 5 6 7 11 13 13 14 16 17 17 18 20 20 21 21 22 21 21 19 18 20 20 18 18 16 15 14 13 12 11 11 11 11 11 11 11 11 11 11 12 13 15 15 14 14 14 14 16 17 17 17 17 17 17 17 17 17 17 17 18 19 20 21 23 24 26 26 26 26 26 26 27 29 29 29 27 27 24 23 23 26 29 28 28 26 25 25 24 24 23 23 24 24 24 24 24 24 24 23 22 22 22 22 22 22 22 22 22 22 22 22 22 22 22 22 23 23 23 23 23 24 24 24 24 24 24 24 23 23 23 21 21 20 19 19 19 19 18 18 18 18 17 17 17 16 16 16 15 15 15 15 15 15 14 14 14 13 13 13 13 13 12 12 11 11 12 12 12 12 12 12 12 11 11 11 10 10 10 10 10 10 10 10 10 10 10 9 9 9 9 9 8 7 7 7 7 7 7 7 7 7 7 7 7 7 6 5 4 4 3 3 3 2 2 2 2 2 2 2 2 2 2 2 2 2 2 1 1 1 1 1 1 2 1 1 1 1 1 1 1 1 1 1 0 0 0 0 0 0 0 0 0 0 0 0 0 0 0 0 0 1 1 1 1 0 0 0 0 0 0 0 0 0 0 1 2 2 3 2 1 0 0 0 0 0 0 0 0 0 0 0 0 0 0 0 0 0 0 0 0 0 0 0 0 0 0 0 0 0 0 0 0 0 0 0 0 0 0 0 0 0 0 0 0 0 0 0 0 0 0 0 0 0 0 0 0 0 0 0 0 0 0 0 0 0 0 0 0 0 0 0 0 0 0 0 0 0 0 0 0 0 0 0 0 0 0 0 0 0 0 0 0 0 0 0 0 0 0 0 0 0 0 0 0 0 0 0 0 0 0 0 0 0 0 0 0 0 0 0 0 0 0 0 0 0 0 0 0 0 0 0 0 0 0 0 0 0 0 0 0 0 0 0 0 0 0 0 0 0 0 0 0 0 0 0 0 0 0 0 0 0 0 0 0 0 0 0 0 0 0 0 0 0 0 0 0 0 0 0 0 0 0 0 0 0 0 0 0 0 0 0 0 0 0 0 0 0 0 0 0 0 0 0 0 0 0 0 0 0 0 0 0 0 0 0 0 0 0 0 0 0 0 0 0 0 0 0 0 0 0 0 0 0 0 0 0 0 0 0 0 0 0 0 0 0 0 0 0 0 0 0 0 0 0 0 0 0 0 0 0 0 0 0 0 0 0 0 0 0 0 0 0 0 0 0 0 0 0 0 0 0 0 0 0 0 0 0 0 0 0 0 0 0 0 0 0 0 0 0 0 0 0 0 0 0 0 0 0 0 0 0 0 0 0 0 0 0 0 0 0 0 0 0 0 0 0 0 0 0 0 0 0 0 0 0 0 0 0 0 0 0 0 0 0 0 0
54 53 53 53 53 53 52 50 50 50 50 50 51 51 49 48 48 49 48 48 46 44 45 49 53 56 60 64 68 68 67 64 63 63 61 58 56 54 50 45 44 43 42 42 42 41 41 41 41 41 42 43 45 47 48 49 52 54 56 57 58 59 59 59 59 58 56 55 55 54 52 50 48 46 44 43 42 42 42 41 41 41 39 39 39 39 39 38 38 36 36 35 31 29 29 29 28 28 28 28 28 28 28 29 30 31 31 30 29 28 28 28 28 28 28 28 28 28 29 29 29 31 35 40 42 48 54 52 44 39 38 38 41 44 43 43 45 46 46 42 42 40 36 36 36 36 37 38 38 38 38 38 38 38 38 37 37 37 39 38 37 37 36 35 34 33 33 31 31 31 30 30 30 29 29 29 27 27 27 27 27 27 26 26 26 26 26 26 26 25 25 25 25 25 25 25 26 26 26 27 28 30 33 37 43 50 53 53 53 53 54 55 55 56 55 54 53 53 53 51 49 46 45 43 41 39 38 37 35 33 32 30 27 25 25 25 25 26 25 25 25 25 25 25 28 32 34 38 43 47 53 58 62 65 66 66 66 64 62 58 57 56 54 53 50 47 42 37 31 28 24 21 20 20 20 20 20 20 20 20 20 20 20 20 20 20 20 20 20 23 24 24 26 28 30 30 27 21 18 15 13 13 13 11 10 7 5 5 5 7 10 11 12 13 14 16 18 20 22 24 25 26 26 27 26 25 24 23 25 25 24 23 23 21 17 14 14 13 11 11 11 11 11 11 11 11 11 11 12 14 15 13 14 14 15 16 17 17 17 17 17 17 17 17 17 17 17 17 17 18 19 21 23 25 25 25 26 26 26 27 29 29 29 28 27 23 23 24 26 26 24 24 23 23 23 23 23 23 22 23 24 24 24 24 23 23 23 22 22 22 22 22 22 22 22 22 22 22 22 22 22 22 22 23 23 23 23 23 24 24 24 24 24 24 23 23 22 22 21 20 19 18 18 18 18 18 18 18 17 17 17 17 16 16 16 15 15 15 15 14 14 14 14 13 13 13 13 13 12 11 11 11 11 11 11 11 11 11 11 11 11 10 10 10 10 10 10 9 9 9 9 10 10 10 10 10 9 8 8 8 8 8 8 8 7 7 7 7 7 7 7 6 6 4 4 4 3 3 2 2 2 2 2 2 2 2 2 2 2 2 2 2 2 2 1 1 1 1 1 1 1 1 1 1 1 1 1 1 1 0 0 0 0 0 0 0 0 0 0 0 0 0 0 0 0 0 0 0 0 0 0 0 0 0 0 0 0 0 0 0 0 0 1 2 2 3 2 0 0 0 0 0 0 0 0 0 0 0 0 0 0 0 0 0 0 0 0 0 0 0 0 0 0 0 0 0 0 0 0 0 0 0 0 0 0 0 0 0 0 0 0 0 0 0 0 0 0 0 0 0 0 0 0 0 0 0 0 0 0 0 0 0 0 0 0 0 0 0 0 0 0 0 0 0 0 0 0 0 0 0 0 0 0 0 0 0 0 0 0 0 0 0 0 0 0 0 0 0 0 0 0 0 0 0 0 0 0 0 0 0 0 0 0 0 0 0 0 0 0 0 0 0 0 0 0 0 0 0 0 0 0 0 0 0 0 0 0 0 0 0 0 0 0 0 0 0 0 0 0 0 0 0 0 0 0 0 0 0 0 0 0 0 0 0 0 0 0 0 0 0 0 0 0 0 0 0 0 0 0 0 0 0 0 0 0 0 0 0 0 0 0 0 0 0 0 0 0 0 0 0 0 0 0 0 0 0 0 0 0 0 0 0 0 0 0 0 0 0 0 0 0 0 0 0 0 0 0 0 0 0 0 0 0 0 0 0 0 0 0 0 0 0 0 0 0 0 0 0 0 0 0 0 0 0 0 0 0 0 0 0 0 0 0 0 0 0 0 0 0 0 0 0 0 0 0 0 0 0 0 0 0 0 0 0 0 0 0 0 0 0 0 0 0 0 0 0 0 0 0 0 0 0 0 0 0 0 0 0 0 0 0 0 0 0 0 0 0 0 0 0 0 0 0 0 0 0 0 0 0 0 0 0 0 0 0 0 0 0 0 0 0 0 0 0
54 53 53 53 52 52 52 50 50 50 51 51 50 50 49 47 47 47 47 47 46 44 44 46 50 53 57 60 64 67 67 64 61 61 59 57 55 53 50 45 44 43 42 41 41 41 41 41 41 41 41 41 44 47 49 52 55 58 61 62 64 65 66 67 67 66 65 64 63 62 60 58 55 52 49 46 44 42 42 41 41 41 40 40 40 40 40 39 39 37 37 36 32 30 28 28 28 28 28 28 28 28 28 29 31 31 31 32 30 28 28 28 28 28 28 28 28 28 29 29 28 28 30 33 38 45 51 51 47 44 41 38 39 39 40 41 44 46 46 41 38 37 37 37 37 37 37 37 38 38 38 39 39 39 39 37 37 37 38 37 36 35 34 33 32 31 31 30 30 30 30 30 30 29 29 29 27 27 27 27 27 27 26 26 26 26 26 26 26 25 25 25 25 25 25 25 26 26 26 27 27 28 28 32 39 48 53 53 53 53 54 54 55 55 56 56 56 56 56 54 51 49 47 44 42 40 39 38 36 35 33 32 29 25 25 25 25 25 25 25 25 25 25 25 28 33 36 41 46 52 59 65 69 73 74 74 73 73 70 67 64 63 61 59 56 51 46 39 33 30 26 22 20 20 20 20 20 20 20 20 20 20 20 20 20 20 20 20 20 22 25 27 30 32 33 33 29 21 18 15 13 11 11 11 9 5 5 5 8 11 13 14 15 15 15 18 21 23 25 28 29 30 30 30 30 30 30 29 30 30 30 29 29 27 24 20 17 15 14 12 11 11 11 11 11 11 11 11 11 12 12 12 14 14 15 17 17 17 17 17 17 17 17 17 17 17 17 17 17 17 18 19 21 23 24 24 26 26 27 28 28 28 28 29 26 23 23 24 24 23 23 23 23 23 23 23 22 22 22 21 22 23 24 24 23 23 23 22 22 22 22 22 22 22 22 22 22 22 22 22 22 22 22 22 23 23 23 24 24 24 24 24 24 24 23 22 22 22 20 20 19 18 18 18 18 18 18 17 17 17 17 16 16 16 16 14 14 14 15 14 14 14 14 13 13 13 12 12 12 11 11 11 11 11 11 11 11 11 11 10 10 10 10 10 10 10 9 9 9 9 9 10 11 11 10 10 9 8 8 8 8 8 8 8 7 7 7 7 7 8 7 6 5 4 3 3 3 2 2 2 2 2 2 2 2 2 2 2 2 2 2 2 2 2 1 1 1 1 1 1 1 1 1 1 1 1 1 1 1 0 0 0 0 0 0 1 0 0 0 0 0 0 0 0 0 0 0 0 0 0 0 0 0 0 0 0 0 0 0 0 0 0 1 1 2 3 1 0 0 0 0 0 0 0 0 0 0 0 0 0 0 0 0 0 0 0 0 0 0 0 0 0 0 0 0 0 0 0 0 0 0 0 0 0 0 0 0 0 0 0 0 0 0 0 0 0 0 0 0 0 0 0 0 0 0 0 0 0 0 0 0 0 0 0 0 0 0 0 0 0 0 0 0 0 0 0 0 0 0 0 0 0 0 0 0 0 0 0 0 0 0 0 0 0 0 0 0 0 0 0 0 0 0 0 0 0 0 0 0 0 0 0 0 0 0 0 0 0 0 0 0 0 0 0 0 0 0 0 0 0 0 0 0 0 0 0 0 0 0 0 0 0 0 0 0 0 0 0 0 0 0 0 0 0 0 0 0 0 0 0 0 0 0 0 0 0 0 0 0 0 0 0 0 0 0 0 0 0 0 0 0 0 0 0 0 0 0 0 0 0 0 0 0 0 0 0 0 0 0 0 0 0 0 0 0 0 0 0 0 0 0 0 0 0 0 0 0 0 0 0 0 0 0 0 0 0 0 0 0 0 0 0 0 0 0 0 0 0 0 0 0 0 0 0 0 0 0 0 0 0 0 0 0 0 0 0 0 0 0 0 0 0 0 0 0 0 0 0 0 0 0 0 0 0 0 0 0 0 0 0 0 0 0 0 0 0 0 0 0 0 0 0 0 0 0 0 0 0 0 0 0 0 0 0 0 0 0 0 0 0 0 0 0 0 0 0 0 0 0 0 0 0 0 0 0 0 0 0 0 0 0 0 0 0 0 0 0 0 0 0 0 0 0 0
53 53 53 52 52 52 52 50 50 50 51 52 50 50 48 48 47 46 45 46 45 44 44 44 47 50 53 57 60 64 66 64 61 60 59 57 53 50 47 45 43 42 41 40 41 40 40 40 40 40 40 41 44 47 50 53 57 60 64 66 68 70 72 73 73 73 71 71 69 68 66 64 62 59 56 52 49 48 46 44 43 43 43 42 41 41 42 41 40 39 39 38 35 31 29 28 28 28 28 28 28 28 28 29 31 31 31 32 32 29 28 28 28 28 28 28 28 28 29 29 28 28 28 30 33 39 45 48 48 47 46 42 40 40 41 40 41 43 42 38 38 37 37 37 37 37 37 37 38 38 38 41 42 41 40 38 37 37 37 36 36 34 32 30 30 30 30 30 30 29 29 29 29 29 29 28 27 27 27 27 27 27 26 26 26 26 26 26 26 25 25 25 25 25 25 25 26 26 26 26 27 27 28 29 35 43 48 50 51 52 53 53 54 55 56 57 57 57 57 55 53 52 50 47 44 42 40 38 37 35 34 33 31 28 25 25 25 25 25 25 25 25 25 25 28 34 40 45 51 57 64 71 76 79 80 80 80 78 77 74 71 69 67 65 61 55 49 43 35 31 28 25 21 20 21 21 20 20 20 20 20 20 20 20 20 20 20 20 20 20 25 29 33 35 35 34 29 22 18 14 12 11 10 9 7 5 5 5 10 13 15 15 16 17 18 21 24 26 28 31 33 35 35 35 34 34 34 34 34 35 35 35 33 31 28 25 21 18 16 15 12 11 11 11 11 11 11 11 11 11 11 13 14 15 15 17 17 17 17 18 17 17 17 17 17 17 17 17 17 17 18 18 20 21 23 24 26 26 27 27 27 27 27 27 24 23 22 23 22 22 22 22 22 22 22 22 22 21 21 20 21 22 24 23 23 22 22 22 22 22 22 22 22 22 22 22 22 22 22 22 22 22 22 22 23 23 23 24 24 24 24 24 24 24 22 22 22 22 20 19 18 18 18 18 17 17 17 17 17 17 17 16 16 16 16 14 14 14 15 14 14 14 14 13 13 13 12 12 12 11 11 11 11 11 11 11 11 11 11 10 9 9 9 9 9 9 9 9 9 9 9 10 11 12 11 10 9 8 8 8 8 8 8 8 8 8 8 8 8 8 7 6 5 3 3 3 3 2 2 2 2 2 2 2 2 2 2 2 2 2 2 1 1 1 1 1 1 1 1 1 1 1 1 1 1 1 1 1 1 0 0 0 1 1 1 1 1 1 1 1 1 1 1 1 1 0 0 0 0 0 0 0 0 0 0 0 0 0 0 0 0 0 1 1 2 3 1 0 0 0 0 0 0 0 0 0 0 0 0 0 0 0 0 0 0 0 0 0 0 0 0 0 0 0 0 0 0 0 0 0 0 0 0 0 0 0 0 0 0 0 0 0 0 0 0 0 0 0 0 0 0 0 0 0 0 0 0 0 0 0 0 0 0 0 0 0 0 0 0 0 0 0 0 0 0 0 0 0 0 0 0 0 0 0 0 0 0 0 0 0 0 0 0 0 0 0 0 0 0 0 0 0 0 0 0 0 0 0 0 0 0 0 0 0 0 0 0 0 0 0 0 0 0 0 0 0 0 0 0 0 0 0 0 0 0 0 0 0 0 0 0 0 0 0 0 0 0 0 0 0 0 0 0 0 0 0 0 0 0 0 0 0 0 0 0 0 0 0 0 0 0 0 0 0 0 0 0 0 0 0 0 0 0 0 0 0 0 0 0 0 0 0 0 0 0 0 0 0 0 0 0 0 0 0 0 0 0 0 0 0 0 0 0 0 0 0 0 0 0 0 0 0 0 0 0 0 0 0 0 0 0 0 0 0 0 0 0 0 0 0 0 0 0 0 0 0 0 0 0 0 0 0 0 0 0 0 0 0 0 0 0 0 0 0 0 0 0 0 0 0 0 0 0 0 0 0 0 0 0 0 0 0 0 0 0 0 0 0 0 0 0 0 0 0 0 0 0 0 0 0 0 0 0 0 0 0 0 0 0 0 0 0 0 0 0 0 0 0 0 0 0 0 0 0 0 0 0 0 0 0 0 0 0 0 0 0 0 0 0 0 0 0 0 0
53 53 53 52 52 52 52 50 50 50 51 52 50 49 48 48 47 46 44 44 44 44 44 44 44 47 50 53 56 60 62 63 61 60 59 58 54 50 47 44 42 41 40 40 40 39 39 39 40 40 40 40 43 47 51 55 60 63 67 69 72 75 76 77 77 77 77 76 74 73 71 70 68 65 61 58 56 54 52 49 47 47 47 45 44 43 44 43 43 39 39 38 37 32 30 28 28 28 28 28 28 28 28 28 30 30 30 32 32 31 29 28 28 28 28 28 28 28 28 29 28 28 28 28 30 33 38 44 47 46 46 44 44 46 45 43 39 37 37 38 38 38 38 38 38 38 38 38 38 38 38 41 42 41 40 39 38 37 35 34 34 33 32 30 30 30 30 30 30 29 29 29 29 28 28 28 27 27 27 27 27 27 26 26 26 26 26 26 26 25 25 25 25 25 25 25 25 26 26 26 27 27 28 29 32 38 42 44 45 47 49 52 53 54 56 57 57 58 58 58 56 54 52 50 46 44 42 40 38 37 36 34 32 30 25 25 25 25 25 25 25 25 25 25 28 35 43 49 55 62 68 75 79 83 85 86 86 84 82 79 77 75 73 70 65 60 53 46 38 34 30 26 22 22 22 22 21 20 20 20 20 20 20 20 20 20 20 20 20 20 24 29 34 36 36 34 30 23 18 14 12 11 9 7 6 5 5 6 10 12 15 16 17 20 23 25 26 28 30 34 36 39 41 41 41 39 37 37 38 39 40 39 37 33 30 28 25 22 20 18 16 14 13 13 12 12 11 11 11 11 12 14 15 15 15 17 18 18 18 18 17 17 17 17 17 17 17 17 17 17 18 18 20 20 22 24 26 26 27 26 25 24 24 23 23 22 22 22 22 22 22 22 22 21 21 21 21 21 21 20 20 20 22 22 22 22 22 22 22 22 22 22 22 22 22 22 22 22 22 22 22 22 22 22 23 23 23 24 24 24 24 24 23 23 22 22 22 21 20 19 18 18 17 17 17 17 17 17 17 16 16 16 16 16 16 15 15 15 15 14 14 14 14 13 13 13 13 12 12 12 12 12 12 12 12 11 11 11 11 10 9 9 9 9 9 9 9 9 9 9 9 10 11 12 11 10 9 8 8 8 8 8 8 9 9 9 9 9 9 8 6 5 5 3 3 3 3 2 2 2 2 2 2 2 2 2 2 2 2 2 2 1 1 1 1 1 1 1 1 1 1 1 1 1 1 1 1 1 1 1 1 1 1 1 1 1 1 1 1 1 1 1 1 1 1 0 0 0 0 0 0 0 0 0 0 0 0 0 0 1 1 1 1 1 1 2 1 0 0 0 0 0 0 0 0 0 0 0 0 0 0 0 0 0 0 0 0 0 0 0 0 0 0 0 0 0 0 0 0 0 0 0 0 0 0 0 0 0 0 0 0 0 0 0 0 0 0 0 0 0 0 0 0 0 0 0 0 0 0 0 0 0 0 0 0 0 0 0 0 0 0 0 0 0 0 0 0 0 0 0 0 0 0 0 0 0 0 0 0 0 0 0 0 0 0 0 0 0 0 0 0 0 0 0 0 0 0 0 0 0 0 0 0 0 0 0 0 0 0 0 0 0 0 0 0 0 0 0 0 0 0 0 0 0 0 0 0 0 0 0 0 0 0 0 0 0 0 0 0 0 0 0 0 0 0 0 0 0 0 0 0 0 0 0 0 0 0 0 0 0 0 0 0 0 0 0 0 0 0 0 0 0 0 0 0 0 0 0 0 0 0 0 0 0 0 0 0 0 0 0 0 0 0 0 0 0 0 0 0 0 0 0 0 0 0 0 0 0 0 0 0 0 0 0 0 0 0 0 0 0 0 0 0 0 0 0 0 0 0 0 0 0 0 0 0 0 0 0 0 0 0 0 0 0 0 0 0 0 0 0 0 0 0 0 0 0 0 0 0 0 0 0 0 0 0 0 0 0 0 0 0 0 0 0 0 0 0 0 0 0 0 0 0 0 0 0 0 0 0 0 0 0 0 0 0 0 0 0 0 0 0 0 0 0 0 0 0 0 0 0 0 0 0 0 0 0 0 0 0 0 0 0 0 0 0 0 0 0 0 0 0 0 0 0
53 53 53 52 52 52 52 51 50 50 49 52 50 49 47 47 47 46 44 44 44 44 44 44 44 45 48 51 53 57 59 61 60 60 59 58 54 52 48 45 43 41 39 39 39 39 39 39 39 39 39 39 42 47 52 56 60 64 68 72 75 77 79 80 80 80 80 79 77 76 74 73 72 70 68 65 64 61 58 56 54 52 51 46 44 44 44 43 44 43 39 38 36 33 31 29 28 27 28 28 28 28 28 28 29 29 29 31 32 31 30 28 28 27 28 28 28 28 27 27 27 28 28 28 29 31 34 39 41 42 43 45 46 46 46 43 40 37 37 38 38 38 38 38 38 38 38 38 38 38 39 41 42 41 40 38 37 36 35 33 32 32 31 30 30 30 29 29 29 29 29 29 29 28 28 28 28 27 27 27 27 27 26 26 26 26 26 26 26 25 25 25 25 25 25 25 25 26 26 27 27 27 28 29 30 33 37 39 40 42 46 51 53 54 55 56 57 57 58 58 57 56 54 52 50 47 44 41 39 38 37 34 32 30 25 25 25 25 25 25 25 25 25 25 27 36 44 52 59 66 72 78 82 86 89 90 90 90 88 86 83 80 78 75 69 63 56 49 42 37 32 27 23 22 22 22 21 20 20 20 20 20 20 20 21 20 20 19 19 19 23 29 32 35 36 35 32 25 19 15 12 11 8 5 5 5 7 9 11 13 15 17 20 24 27 29 29 30 32 35 40 44 45 45 45 45 43 41 42 42 43 43 41 37 31 29 27 26 24 22 19 17 17 17 17 16 15 13 11 11 12 14 14 14 15 17 18 18 18 17 17 17 17 17 17 17 17 17 17 17 18 18 20 20 21 24 26 26 26 25 23 22 22 22 22 21 21 21 21 21 21 21 21 20 20 20 20 20 20 20 20 20 20 21 21 21 21 22 22 22 22 22 22 22 22 22 22 22 22 22 22 22 22 22 22 23 23 24 24 24 24 24 23 22 21 21 21 20 19 19 18 17 17 17 17 17 17 17 17 16 16 16 16 16 16 14 14 14 14 14 14 14 14 14 14 13 13 13 12 12 12 13 13 13 13 12 12 11 11 10 9 9 9 8 8 8 8 8 8 8 9 9 10 11 11 11 9 9 8 8 8 8 8 10 11 11 9 9 8 7 6 5 4 3 2 2 2 2 2 2 2 2 2 2 2 2 2 2 2 2 2 1 1 1 2 1 1 1 1 2 4 2 1 1 1 1 1 1 1 1 1 1 1 1 1 1 1 1 1 1 1 1 1 1 1 1 1 1 1 0 0 0 0 0 0 0 0 0 0 1 1 1 1 1 2 2 1 0 0 0 0 0 0 0 0 0 0 0 0 0 0 0 0 0 0 0 0 0 0 0 0 0 0 0 0 0 0 0 0 0 0 0 0 0 0 0 0 0 0 0 0 0 0 0 0 0 0 0 0 0 0 0 0 0 0 0 0 0 0 0 0 0 0 0 0 0 0 0 0 0 0 0 0 0 0 0 0 0 0 0 0 0 0 0 0 0 0 0 0 0 0 0 0 0 0 0 0 0 0 0 0 0 0 0 0 0 0 0 0 0 0 0 0 0 0 0 0 0 0 0 0 0 0 0 0 0 0 0 0 0 0 0 0 0 0 0 0 0 0 0 0 0 0 0 0 0 0 0 0 0 0 0 0 0 0 0 0 0 0 0 0 0 0 0 0 0 0 0 0 0 0 0 0 0 0 0 0 0 0 0 0 0 0 0 0 0 0 0 0 0 0 0 0 0 0 0 0 0 0 0 0 0 0 0 0 0 0 0 0 0 0 0 0 0 0 0 0 0 0 0 0 0 0 0 0 0 0 0 0 0 0 0 0 0 0 0 0 0 0 0 0 0 0 0 0 0 0 0 0 0 0 0 0 0 0 0 0 0 0 0 0 0 0 0 0 0 0 0 0 0 0 0 0 0 0 0 0 0 0 0 0 0 0 0 0 0 0 0 0 0 0 0 0 0 0 0 0 0 0 0 0 0 0 0 0 0 0 0 0 0 0 0 0 0 0 0 0 0 0 0 0 0 0 0 0 0 0 0 0 0 0 0 0 0 0 0 0 0 0 0 0 0 0 0
53 53 53 52 52 52 52 52 51 50 49 49 49 48 47 46 46 46 44 44 44 44 43 43 43 45 45 48 50 53 57 58 58 58 58 57 54 52 48 46 43 41 39 38 38 37 38 38 38 38 38 38 41 46 52 57 61 65 69 73 76 77 80 81 81 81 81 80 78 76 74 72 72 72 71 70 68 65 63 60 58 56 52 46 44 44 44 44 44 42 39 37 38 35 32 30 28 27 28 28 28 28 28 28 28 29 29 29 29 29 29 28 28 27 28 28 28 28 27 27 27 28 28 28 29 30 33 36 39 41 43 46 48 46 44 43 41 39 38 38 38 38 38 38 38 38 38 38 38 39 40 42 41 41 40 38 36 36 35 33 32 32 30 30 30 30 29 29 28 29 29 29 28 28 28 28 28 27 27 27 27 27 26 26 26 26 26 26 26 25 25 25 25 25 25 25 26 27 27 27 27 28 28 29 30 31 34 36 38 40 43 47 50 52 53 54 55 56 57 58 58 58 56 54 52 49 46 43 41 39 37 34 32 30 26 25 25 25 25 25 25 25 25 25 26 35 45 54 63 70 76 81 85 90 93 94 95 95 93 92 89 85 82 78 73 65 59 52 45 40 35 30 25 23 23 22 21 21 21 20 20 20 20 21 22 22 20 19 19 19 22 25 27 31 35 36 33 27 19 15 12 10 6 4 4 6 8 11 13 14 16 19 24 28 30 32 32 32 33 36 42 47 49 50 50 51 49 47 46 45 46 46 44 39 33 30 29 28 26 25 23 21 21 22 22 21 19 16 14 12 12 13 14 14 15 17 18 18 18 17 17 17 17 17 17 17 17 17 17 17 18 18 20 20 22 25 25 25 23 22 22 22 22 21 21 20 20 20 20 20 20 20 20 20 19 19 19 19 19 20 20 20 20 20 20 20 21 21 21 21 21 21 21 21 21 21 21 22 22 22 22 22 22 22 22 23 23 23 24 24 24 23 23 21 21 21 21 20 18 18 18 17 17 17 17 17 17 17 16 16 16 16 16 16 15 14 14 14 14 14 14 14 14 14 14 13 13 13 13 13 13 13 14 15 15 13 12 12 12 10 10 10 9 8 8 8 8 8 8 8 8 8 9 11 12 12 10 9 9 8 8 8 8 10 11 11 10 8 7 6 5 4 4 2 2 2 2 2 2 2 2 2 2 2 2 2 2 2 2 2 2 2 2 2 2 2 2 2 2 2 4 2 2 2 1 1 1 1 1 1 1 1 1 1 1 1 1 1 1 1 1 1 1 1 1 1 1 1 1 0 0 0 0 0 0 1 1 1 1 1 1 1 2 2 2 3 1 0 0 0 0 0 0 0 0 0 0 0 0 0 0 0 0 0 0 0 0 0 0 0 0 0 0 0 0 0 0 0 0 0 0 0 0 0 0 0 0 0 0 0 0 0 0 0 0 0 0 0 0 0 0 0 0 0 0 0 0 0 0 0 0 0 0 0 0 0 0 0 0 0 0 0 0 0 0 0 0 0 0 0 0 0 0 0 0 0 0 0 0 0 0 0 0 0 0 0 0 0 0 0 0 0 0 0 0 0 0 0 0 0 0 0 0 0 0 0 0 0 0 0 0 0 0 0 0 0 0 0 0 0 0 0 0 0 0 0 0 0 0 0 0 0 0 0 0 0 0 0 0 0 0 0 0 0 0 0 0 0 0 0 0 0 0 0 0 0 0 0 0 0 0 0 0 0 0 0 0 0 0 0 0 0 0 0 0 0 0 0 0 0 0 0 0 0 0 0 0 0 0 0 0 0 0 0 0 0 0 0 0 0 0 0 0 0 0 0 0 0 0 0 0 0 0 0 0 0 0 0 0 0 0 0 0 0 0 0 0 0 0 0 0 0 0 0 0 0 0 0 0 0 0 0 0 0 0 0 0 0 0 0 0 0 0 0 0 0 0 0 0 0 0 0 0 0 0 0 0 0 0 0 0 0 0 0 0 0 0 0 0 0 0 0 0 0 0 0 0 0 0 0 0 0 0 0 0 0 0 0 0 0 0 0 0 0 0 0 0 0 0 0 0 0 0 0 0 0 0 0 0 0 0 0 0 0 0 0 0 0 0 0 0 0 0 0
53 54 54 54 53 53 53 53 52 51 50 49 48 48 47 46 46 46 44 44 44 44 43 43 43 44 44 46 47 50 54 55 56 57 56 56 54 53 49 47 45 42 40 38 38 37 38 38 38 38 38 38 39 44 51 56 61 65 69 73 76 77 79 80 80 80 80 79 77 75 73 71 70 70 69 68 67 65 62 60 58 57 52 46 44 44 44 44 39 37 36 36 37 37 32 30 28 28 27 27 28 28 28 28 27 28 28 28 27 27 27 28 28 28 27 28 28 28 27 27 27 28 29 29 29 30 31 35 40 44 45 47 49 46 43 44 42 40 38 38 38 38 38 39 39 39 39 39 39 40 40 42 41 41 41 38 37 37 36 34 32 32 31 30 30 30 30 30 29 29 28 28 28 28 28 28 28 27 27 27 27 27 26 26 26 26 26 26 26 25 25 25 25 25 25 25 26 27 27 28 28 28 28 29 30 30 32 35 38 40 41 43 46 48 51 52 53 54 56 57 58 58 58 57 55 52 49 46 42 40 37 34 32 30 26 25 25 25 25 25 25 25 25 25 26 35 45 54 65 73 79 84 89 93 96 98 99 99 97 95 93 89 85 80 75 68 62 55 49 46 40 34 28 24 23 23 22 21 21 20 20 20 21 22 22 22 21 20 19 19 22 25 28 33 35 35 33 26 17 14 11 9 5 4 4 7 8 10 13 14 17 22 28 32 35 35 35 34 35 37 43 49 52 53 54 54 54 53 51 50 49 48 46 42 35 30 30 28 27 27 26 25 25 24 24 23 23 20 16 13 13 13 14 14 15 17 18 18 18 17 17 17 17 17 17 17 17 17 17 17 18 19 20 22 25 25 24 23 23 22 21 21 21 20 20 19 19 20 19 19 19 19 19 19 18 18 18 18 18 19 19 20 20 20 20 20 20 21 21 21 21 21 21 21 21 21 21 22 22 22 22 21 21 21 22 22 22 23 23 23 24 23 22 21 20 20 20 20 18 18 18 17 17 17 17 17 17 17 16 16 16 16 15 15 15 15 14 14 14 14 14 14 14 14 14 13 13 13 13 13 13 14 15 16 14 12 12 12 11 10 10 10 10 9 8 8 8 8 8 8 8 8 9 11 12 12 10 9 9 9 9 9 9 10 11 11 9 7 6 6 5 4 4 2 2 2 2 2 2 2 2 2 2 3 2 2 2 2 2 2 2 2 2 2 2 2 2 2 2 2 2 2 2 2 1 1 1 1 1 1 1 1 1 1 1 1 1 1 1 1 1 1 1 1 1 1 0 0 0 0 0 0 0 0 0 1 1 1 1 1 1 1 2 2 2 3 1 0 0 0 0 0 0 0 0 0 0 0 0 0 0 0 0 0 0 0 0 0 0 0 0 0 0 0 0 0 0 0 0 0 0 0 0 0 0 0 0 0 0 0 0 0 0 0 0 0 0 0 0 0 0 0 0 0 0 0 0 0 0 0 0 0 0 0 0 0 0 0 0 0 0 0 0 0 0 0 0 0 0 0 0 0 0 0 0 0 0 0 0 0 0 0 0 0 0 0 0 0 0 0 0 0 0 0 0 0 0 0 0 0 0 0 0 0 0 0 0 0 0 0 0 0 0 0 0 0 0 0 0 0 0 0 0 0 0 0 0 0 0 0 0 0 0 0 0 0 0 0 0 0 0 0 0 0 0 0 0 0 0 0 0 0 0 0 0 0 0 0 0 0 0 0 0 0 0 0 0 0 0 0 0 0 0 0 0 0 0 0 0 0 0 0 0 0 0 0 0 0 0 0 0 0 0 0 0 0 0 0 0 0 0 0 0 0 0 0 0 0 0 0 0 0 0 0 0 0 0 0 0 0 0 0 0 0 0 0 0 0 0 0 0 0 0 0 0 0 0 0 0 0 0 0 0 0 0 0 0 0 0 0 0 0 0 0 0 0 0 0 0 0 0 0 0 0 0 0 0 0 0 0 0 0 0 0 0 0 0 0 0 0 0 0 0 0 0 0 0 0 0 0 0 0 0 0 0 0 0 0 0 0 0 0 0 0 0 0 0 0 0 0 0 0 0 0 0 0 0 0 0 0 0 0 0 0 0 0 0 0 0 0 0 0 0 0
55 55 55 55 54 54 54 53 52 52 51 49 48 47 46 46 45 45 45 45 44 44 44 44 44 44 44 45 46 49 51 52 54 56 56 55 54 53 50 48 47 43 41 39 39 38 38 38 38 38 38 38 38 42 49 55 60 64 68 72 75 77 78 78 78 78 77 76 75 73 70 68 65 64 63 62 61 61 61 59 57 56 52 46 44 44 44 44 39 36 36 35 34 35 31 29 28 28 27 27 28 28 28 28 27 28 28 28 27 27 27 28 28 28 27 28 28 28 27 27 28 30 31 31 30 30 30 31 35 40 43 45 49 45 42 42 41 40 39 41 42 42 41 40 41 41 41 41 40 40 41 43 41 40 40 38 37 37 36 34 33 33 31 31 31 31 29 29 29 28 28 28 28 28 28 28 28 27 27 27 27 27 26 26 26 26 26 26 26 25 25 25 25 25 25 25 26 27 28 28 28 29 29 29 30 30 32 35 38 39 41 43 43 44 47 49 50 50 52 55 58 59 59 59 57 55 52 48 44 41 38 34 31 30 28 25 25 25 25 25 25 25 25 25 26 34 44 54 64 74 80 86 91 95 97 100 101 101 99 97 95 92 88 82 78 73 67 61 54 50 45 38 31 25 23 23 22 21 21 20 20 20 21 22 22 22 21 21 19 18 22 27 31 35 35 33 30 23 16 13 11 8 6 4 4 6 8 9 12 15 18 24 30 35 38 40 40 39 37 41 46 51 54 55 56 56 56 56 56 55 53 51 48 44 37 31 30 29 28 27 27 25 25 25 25 23 23 22 18 15 14 14 14 14 15 16 18 18 18 17 17 17 17 17 17 17 17 17 18 18 19 21 22 25 25 24 23 23 22 22 21 21 20 20 19 18 18 19 18 18 18 18 18 18 18 17 17 17 17 17 18 19 19 19 19 19 20 20 20 20 20 20 20 20 21 21 21 21 21 21 21 21 21 21 21 21 21 22 22 23 23 23 22 21 20 20 20 19 18 18 18 17 17 17 17 16 16 16 16 16 16 15 15 15 15 14 14 14 14 14 14 14 14 14 14 14 13 13 13 14 14 15 16 16 13 12 11 11 11 10 10 10 11 10 8 8 7 7 7 7 8 8 9 10 11 11 10 9 9 9 8 8 8 10 10 10 8 6 6 5 4 4 3 2 2 2 2 2 2 2 2 2 2 2 2 2 2 2 2 2 2 2 2 2 2 2 2 2 2 2 2 2 2 2 1 1 1 1 1 1 1 1 1 1 1 1 1 1 1 1 1 1 1 1 1 1 0 0 0 0 0 0 0 0 0 1 1 1 1 1 2 2 2 2 2 2 1 0 0 0 0 0 0 0 0 0 0 0 0 0 0 0 0 0 0 0 0 0 0 0 0 0 0 0 0 0 0 0 0 0 0 0 0 0 0 0 0 0 0 0 0 0 0 0 0 0 0 0 0 0 0 0 0 0 0 0 0 0 0 0 0 0 0 0 0 0 0 0 0 0 0 0 0 0 0 0 0 0 0 0 0 0 0 0 0 0 0 0 0 0 0 0 0 0 0 0 0 0 0 0 0 0 0 0 0 0 0 0 0 0 0 0 0 0 0 0 0 0 0 0 0 0 0 0 0 0 0 0 0 0 0 0 0 0 0 0 0 0 0 0 0 0 0 0 0 0 0 0 0 0 0 0 0 0 0 0 0 0 0 0 0 0 0 0 0 0 0 0 0 0 0 0 0 0 0 0 0 0 0 0 0 0 0 0 0 0 0 0 0 0 0 0 0 0 0 0 0 0 0 0 0 0 0 0 0 0 0 0 0 0 0 0 0 0 0 0 0 0 0 0 0 0 0 0 0 0 0 0 0 0 0 0 0 0 0 0 0 0 0 0 0 0 0 0 0 0 0 0 0 0 0 0 0 0 0 0 0 0 0 0 0 0 0 0 0 0 0 0 0 0 0 0 0 0 0 0 0 0 0 0 0 0 0 0 0 0 0 0 0 0 0 0 0 0 0 0 0 0 0 0 0 0 0 0 0 0 0 0 0 0 0 0 0 0 0 0 0 0 0 0 0 0 0 0 0 0 0 0 0 0 0 0 0 0 0 0 0 0 0 0 0 0 0 0
57 57 57 56 55 55 55 53 53 52 51 48 47 47 46 45 45 45 45 45 45 44 44 44 44 44 44 44 46 48 49 51 52 54 55 54 53 52 50 48 47 45 42 40 40 38 37 37 37 38 38 38 38 40 46 52 59 63 67 71 73 75 75 75 75 74 72 71 70 68 65 62 58 57 56 55 56 58 58 57 55 54 51 46 44 44 44 43 39 36 34 33 33 31 30 29 28 27 27 27 28 28 29 28 27 28 28 28 28 28 28 28 28 28 28 28 28 28 27 28 31 33 33 33 32 31 30 30 31 34 37 39 42 43 40 39 39 40 41 47 51 52 51 50 49 48 47 44 42 41 43 44 42 41 40 39 38 37 36 34 33 33 31 31 31 30 29 29 29 28 28 28 28 28 28 28 28 27 27 27 27 27 26 26 26 26 26 26 26 25 25 25 25 25 25 25 26 27 28 29 28 29 29 30 31 32 33 35 37 39 41 42 41 40 41 42 44 47 50 55 59 60 60 60 59 57 54 50 44 41 37 34 31 31 29 25 25 25 25 25 25 25 25 25 26 32 42 53 62 73 80 86 91 94 97 99 100 100 99 97 95 93 90 86 81 77 71 66 58 54 49 43 35 28 23 23 22 21 21 20 20 20 20 21 21 21 21 21 19 18 23 28 31 34 34 30 26 21 16 12 10 8 5 4 4 6 7 8 12 16 19 25 31 36 41 44 45 44 43 44 49 53 55 56 57 58 58 58 58 57 55 53 50 46 38 31 30 29 28 27 27 25 25 25 24 23 22 22 19 16 14 14 14 14 14 16 18 18 19 18 17 17 17 17 17 18 18 19 20 21 22 24 25 25 24 23 22 22 22 21 21 20 20 19 18 18 17 17 17 16 16 16 16 16 16 16 17 17 17 17 17 17 17 18 19 19 19 19 19 19 20 19 19 20 21 21 21 21 21 21 21 20 20 21 20 21 21 21 21 22 23 22 20 20 20 19 19 19 18 18 18 17 17 17 17 16 16 16 16 16 16 15 15 15 15 14 14 14 14 13 13 13 14 14 14 14 14 14 14 15 16 16 15 14 13 12 11 11 11 10 11 11 10 8 8 8 6 6 6 6 7 8 9 10 10 10 10 9 9 8 8 8 8 9 8 8 7 6 5 5 4 3 3 2 2 2 2 2 2 2 2 2 2 2 2 2 2 2 2 2 2 2 2 2 2 2 2 3 2 2 2 1 1 1 1 1 1 1 1 1 1 1 1 1 1 1 1 1 1 1 1 1 1 1 1 1 0 0 0 0 0 0 0 0 0 1 1 1 1 1 2 2 2 2 2 2 1 0 0 0 0 0 0 0 0 0 0 0 0 0 0 0 0 0 0 0 0 0 0 0 0 0 0 0 0 0 0 0 0 0 0 0 0 0 0 0 0 0 0 0 0 0 0 0 0 0 0 0 0 0 0 0 0 0 0 0 0 0 0 0 0 0 0 0 0 0 0 0 0 0 0 0 0 0 0 0 0 0 0 0 0 0 0 0 0 0 0 0 0 0 0 0 0 0 0 0 0 0 0 0 0 0 0 0 0 0 0 0 0 0 0 0 0 0 0 0 0 0 0 0 0 0 0 0 0 0 0 0 0 0 0 0 0 0 0 0 0 0 0 0 0 0 0 0 0 0 0 0 0 0 0 0 0 0 0 0 0 0 0 0 0 0 0 0 0 0 0 0 0 0 0 0 0 0 0 0 0 0 0 0 0 0 0 0 0 0 0 0 0 0 0 0 0 0 0 0 0 0 0 0 0 0 0 0 0 0 0 0 0 0 0 0 0 0 0 0 0 0 0 0 0 0 0 0 0 0 0 0 0 0 0 0 0 0 0 0 0 0 0 0 0 0 0 0 0 0 0 0 0 0 0 0 0 0 0 0 0 0 0 0 0 0 0 0 0 0 0 0 0 0 0 0 0 0 0 0 0 0 0 0 0 0 0 0 0 0 0 0 0 0 0 0 0 0 0 0 0 0 0 0 0 0 0 0 0 0 0 0 0 0 0 0 0 0 0 0 0 0 0 0 0 0 0 0 0 0 0 0 0 0 0 0 0 0 0 0 0 0 0 0 0 0 0 0
57 56 56 56 56 55 55 54 53 52 51 48 47 47 46 45 45 45 44 44 44 44 44 44 44 44 44 44 45 47 48 50 51 52 54 53 52 52 51 49 48 45 43 41 40 38 37 37 37 38 38 38 37 38 43 48 55 61 65 68 71 72 72 72 71 70 68 67 65 62 58 54 50 49 50 51 53 54 55 54 53 51 49 46 44 43 43 43 38 36 34 34 33 31 30 29 28 28 27 27 28 29 29 28 27 28 28 28 28 28 28 28 28 28 28 28 28 28 27 30 34 34 34 34 33 32 31 31 31 31 32 34 35 36 37 36 37 41 46 53 58 61 61 60 58 56 54 51 46 44 44 45 44 43 41 41 41 39 36 34 33 32 31 30 30 30 28 28 28 28 28 28 28 28 28 28 28 27 27 27 26 26 26 26 26 26 25 25 25 25 25 25 25 25 25 25 26 29 29 29 28 30 30 31 32 33 34 36 37 38 40 41 40 38 38 41 44 47 50 55 59 62 62 61 60 58 56 51 45 41 37 35 32 31 29 26 25 25 25 25 25 25 25 25 25 30 40 50 59 71 79 86 90 93 96 98 99 99 98 96 94 92 90 86 82 78 72 68 61 56 51 45 39 32 26 23 23 21 21 20 20 20 20 20 20 20 20 20 18 18 23 25 29 33 32 27 23 19 15 11 9 6 4 4 5 7 8 10 13 16 20 25 31 37 42 46 48 49 48 48 51 53 55 57 59 59 59 59 59 58 57 54 50 46 38 31 30 28 28 26 26 25 24 24 23 22 22 21 19 16 14 14 14 14 14 16 18 18 19 18 18 17 17 17 18 19 19 21 22 24 24 25 25 24 23 23 22 22 21 21 20 20 19 19 17 17 17 16 16 15 15 15 15 16 15 15 16 16 16 16 16 16 17 17 18 18 18 19 19 18 19 18 19 20 21 21 21 20 20 20 20 19 20 20 19 20 20 21 21 21 22 21 20 20 19 19 19 19 18 18 18 17 17 17 16 16 16 16 16 15 15 15 14 14 14 14 13 13 14 13 13 13 14 14 14 14 14 14 14 15 16 16 14 12 12 12 11 11 11 10 10 10 10 8 8 8 6 6 6 6 7 8 9 9 9 9 9 8 8 8 7 7 7 8 7 7 6 5 5 4 4 3 3 2 2 2 2 2 2 2 2 2 2 2 2 2 2 2 2 2 2 2 2 2 2 2 2 2 2 2 2 1 1 1 1 1 1 1 1 1 1 1 1 1 1 1 1 1 1 1 1 1 1 1 1 1 1 1 0 0 0 0 0 0 0 1 1 1 1 2 2 2 2 2 2 2 1 0 0 0 0 0 0 0 0 0 0 0 0 0 0 0 0 0 0 0 0 0 0 0 0 0 0 0 0 0 0 0 0 0 0 0 0 0 0 0 0 0 0 0 0 0 0 0 0 0 0 0 0 0 0 0 0 0 0 0 0 0 0 0 0 0 0 0 0 0 0 0 0 0 0 0 0 0 0 0 0 0 0 0 0 0 0 0 0 0 0 0 0 0 0 0 0 0 0 0 0 0 0 0 0 0 0 0 0 0 0 0 0 0 0 0 0 0 0 0 0 0 0 0 0 0 0 0 0 0 0 0 0 0 0 0 0 0 0 0 0 0 0 0 0 0 0 0 0 0 0 0 0 0 0 0 0 0 0 0 0 0 0 0 0 0 0 0 0 0 0 0 0 0 0 0 0 0 0 0 0 0 0 0 0 0 0 0 0 0 0 0 0 0 0 0 0 0 0 0 0 0 0 0 0 0 0 0 0 0 0 0 0 0 0 0 0 0 0 0 0 0 0 0 0 0 0 0 0 0 0 0 0 0 0 0 0 0 0 0 0 0 0 0 0 0 0 0 0 0 0 0 0 0 0 0 0 0 0 0 0 0 0 0 0 0 0 0 0 0 0 0 0 0 0 0 0 0 0 0 0 0 0 0 0 0 0 0 0 0 0 0 0 0 0 0 0 0 0 0 0 0 0 0 0 0 0 0 0 0 0 0 0 0 0 0 0 0 0 0 0 0 0 0 0 0 0 0 0 0 0 0 0 0 0 0 0 0 0 0 0 0 0 0 0 0 0 0
56 55 55 55 55 55 55 54 53 52 51 49 48 47 45 45 45 45 44 44 44 44 44 44 44 44 44 44 45 46 47 48 49 50 52 52 52 52 51 49 48 46 45 43 41 39 38 38 38 38 38 38 37 38 40 45 50 56 61 64 67 68 68 67 66 65 63 61 58 54 49 45 45 45 45 47 48 50 52 52 51 49 47 44 43 43 43 43 38 35 35 34 33 32 31 30 30 29 28 28 29 29 28 28 28 28 28 28 28 28 28 28 28 28 28 28 28 28 28 32 38 36 35 35 33 32 32 31 31 31 31 32 32 33 34 34 38 45 52 58 63 65 67 66 66 65 62 58 51 49 47 47 46 45 44 44 44 41 37 35 34 32 29 29 29 30 28 28 27 28 28 28 28 28 28 28 27 27 27 27 26 26 26 26 26 26 25 25 25 25 25 25 25 25 25 25 26 30 31 31 30 31 32 33 34 35 36 37 38 38 38 39 38 35 37 43 47 49 51 54 59 62 63 62 60 58 55 51 47 41 38 36 33 31 30 26 25 25 25 25 25 25 25 25 25 29 37 46 56 66 75 83 88 91 93 95 96 96 96 94 92 90 88 86 82 77 72 67 62 58 52 47 41 35 28 25 24 22 21 20 20 20 20 20 20 20 20 19 18 18 22 22 27 30 28 25 23 19 13 9 6 4 4 4 6 8 9 11 14 17 21 26 32 37 41 45 48 50 51 51 51 53 55 57 59 59 60 60 59 58 56 54 50 46 38 31 29 28 27 26 26 24 23 22 21 20 20 19 18 16 14 14 14 14 14 17 18 18 19 19 19 19 19 19 20 20 22 23 24 25 25 25 24 23 23 22 21 21 21 20 20 19 18 17 17 16 16 16 15 15 14 14 14 15 15 15 14 14 14 14 14 15 16 17 17 17 18 18 18 18 18 18 19 20 21 21 21 19 19 18 18 17 18 18 19 19 19 21 21 21 21 20 20 20 19 19 19 19 18 18 18 17 17 17 16 16 16 16 16 15 15 15 14 14 14 13 13 13 13 13 13 13 14 14 14 14 14 14 14 15 15 15 14 12 12 11 11 11 11 10 10 10 9 9 9 8 6 6 6 6 7 7 8 9 8 8 8 8 8 7 7 7 7 6 6 6 5 4 4 4 4 3 3 2 2 2 2 2 2 4 3 2 2 2 2 2 2 2 2 2 2 2 2 2 4 3 2 2 2 2 2 1 1 1 1 1 1 1 1 1 1 1 1 1 1 1 1 1 1 1 1 1 1 1 1 1 1 1 0 0 0 0 0 1 1 1 1 1 1 2 2 2 2 2 2 2 1 0 0 0 0 0 0 0 0 0 0 0 0 0 0 0 0 0 0 0 0 0 0 0 0 0 0 0 0 0 0 0 0 0 0 0 0 0 0 0 0 0 0 0 0 0 0 0 0 0 0 0 0 0 0 0 0 0 0 0 0 0 0 0 0 0 0 0 0 0 0 0 0 0 0 0 0 0 0 0 0 0 0 0 0 0 0 0 0 0 0 0 0 0 0 0 0 0 0 0 0 0 0 0 0 0 0 0 0 0 0 0 0 0 0 0 0 0 0 0 0 0 0 0 0 0 0 0 0 0 0 0 0 0 0 0 0 0 0 0 0 0 0 0 0 0 0 0 0 0 0 0 0 0 0 0 0 0 0 0 0 0 0 0 0 0 0 0 0 0 0 0 0 0 0 0 0 0 0 0 0 0 0 0 0 0 0 0 0 0 0 0 0 0 0 0 0 0 0 0 0 0 0 0 0 0 0 0 0 0 0 0 0 0 0 0 0 0 0 0 0 0 0 0 0 0 0 0 0 0 0 0 0 0 0 0 0 0 0 0 0 0 0 0 0 0 0 0 0 0 0 0 0 0 0 0 0 0 0 0 0 0 0 0 0 0 0 0 0 0 0 0 0 0 0 0 0 0 0 0 0 0 0 0 0 0 0 0 0 0 0 0 0 0 0 0 0 0 0 0 0 0 0 0 0 0 0 0 0 0 0 0 0 0 0 0 0 0 0 0 0 0 0 0 0 0 0 0 0 0 0 0 0 0 0 0 0 0 0 0 0 0 0 0 0 0 0 0
56 55 55 54 54 54 54 54 54 53 52 50 49 47 46 45 45 44 44 44 44 44 44 44 44 44 44 44 44 45 46 47 49 49 50 51 51 51 51 49 48 47 45 43 42 39 38 38 38 37 37 38 38 38 38 40 45 51 56 59 62 63 62 61 60 59 57 54 49 45 42 42 44 45 45 46 47 47 49 50 50 47 45 44 43 43 42 41 37 36 36 35 35 34 32 30 30 29 30 30 30 29 28 28 28 28 28 28 28 28 28 28 28 28 28 28 28 28 28 33 38 38 37 35 33 33 33 32 32 31 31 32 32 32 32 33 41 49 56 61 66 68 70 72 73 72 68 63 58 54 49 49 49 47 46 46 44 41 39 37 35 32 30 29 29 29 27 27 26 27 27 28 28 28 28 28 27 27 27 27 26 26 26 25 25 25 25 25 25 25 25 25 25 25 25 25 26 30 31 32 32 33 33 34 35 36 37 37 37 37 37 37 36 34 36 43 47 48 50 52 57 61 63 62 60 56 53 50 47 44 41 38 35 32 29 26 25 25 25 25 25 25 25 25 25 28 34 42 50 59 69 77 84 88 91 92 93 93 93 92 91 89 87 84 81 75 70 66 61 58 52 48 42 37 33 29 25 22 22 21 20 20 20 20 20 21 20 20 18 17 18 22 27 27 25 25 23 18 11 6 4 4 4 4 7 9 10 12 15 18 23 28 32 36 40 44 46 48 50 51 51 52 53 56 57 57 58 58 58 57 55 52 49 45 37 31 29 27 26 26 25 24 23 21 19 17 16 16 15 14 14 14 14 14 15 17 17 18 19 19 19 19 19 20 21 23 24 24 24 25 25 24 24 22 22 22 21 21 20 20 19 19 18 17 16 16 15 15 15 14 14 14 13 14 14 14 13 14 14 14 14 15 15 16 17 17 17 18 18 18 18 19 20 20 20 20 20 19 17 17 17 17 17 17 18 19 19 20 21 21 21 20 20 20 19 19 19 18 18 18 17 17 16 16 16 16 16 16 15 15 15 14 14 14 14 13 13 13 13 13 13 14 14 14 14 14 14 14 14 15 14 14 13 11 11 11 10 10 10 10 10 10 9 9 9 8 6 5 5 6 7 7 8 8 8 8 7 7 7 7 6 6 6 5 5 5 4 4 4 4 4 3 3 2 2 2 2 2 3 4 3 2 2 2 2 2 2 2 2 2 2 2 2 2 1 1 1 1 2 2 2 1 1 1 1 1 1 1 1 1 1 1 1 1 1 1 1 1 1 1 1 1 1 1 1 0 0 0 0 0 0 0 1 1 1 1 1 1 1 2 2 2 2 2 2 3 1 0 0 0 0 0 0 0 0 0 0 0 0 0 0 0 0 0 0 0 0 0 0 0 0 0 0 0 0 0 0 0 0 0 0 0 0 0 0 0 0 0 0 0 0 0 0 0 0 0 0 0 0 0 0 0 0 0 0 0 0 0 0 0 0 0 0 0 0 0 0 0 0 0 0 0 0 0 0 0 0 0 0 0 0 0 0 0 0 0 0 0 0 0 0 0 0 0 0 0 0 0 0 0 0 0 0 0 0 0 0 0 0 0 0 0 0 0 0 0 0 0 0 0 0 0 0 0 0 0 0 0 0 0 0 0 0 0 0 0 0 0 0 0 0 0 0 0 0 0 0 0 0 0 0 0 0 0 0 0 0 0 0 0 0 0 0 0 0 0 0 0 0 0 0 0 0 0 0 0 0 0 0 0 0 0 0 0 0 0 0 0 0 0 0 0 0 0 0 0 0 0 0 0 0 0 0 0 0 0 0 0 0 0 0 0 0 0 0 0 0 0 0 0 0 0 0 0 0 0 0 0 0 0 0 0 0 0 0 0 0 0 0 0 0 0 0 0 0 0 0 0 0 0 0 0 0 0 0 0 0 0 0 0 0 0 0 0 0 0 0 0 0 0 0 0 0 0 0 0 0 0 0 0 0 0 0 0 0 0 0 0 0 0 0 0 0 0 0 0 0 0 0 0 0 0 0 0 0 0 0 0 0 0 0 0 0 0 0 0 0 0 0 0 0 0 0 0 0 0 0 0 0 0 0 0 0 0 0 0 0 0 0 0 0 0 0 0
56 55 55 54 54 54 54 54 54 54 53 52 50 48 46 45 45 44 44 44 44 43 43 43 44 43 43 43 44 45 45 47 48 47 47 48 49 49 50 49 49 47 45 43 43 39 38 38 38 37 37 38 38 38 38 38 40 46 51 54 57 58 57 56 55 53 50 47 42 41 41 43 46 47 48 48 47 46 46 47 48 46 44 44 43 42 39 38 37 39 38 36 36 35 32 32 30 28 28 28 28 28 28 28 28 28 28 28 28 28 28 28 28 28 28 28 28 28 28 31 36 38 38 36 33 32 32 32 32 32 31 31 32 32 31 33 41 50 58 63 67 70 73 75 76 77 74 67 61 58 54 52 51 49 47 47 45 42 42 39 35 33 30 28 27 27 26 25 25 26 26 26 27 28 28 28 27 27 27 27 26 26 26 25 25 25 25 25 25 25 25 25 25 25 25 25 26 30 31 33 34 35 36 36 36 37 37 36 36 35 35 36 35 34 34 40 45 46 47 48 53 58 60 60 57 54 51 50 48 46 43 41 37 33 29 27 25 25 25 25 25 25 25 25 25 25 30 36 44 54 63 71 79 84 86 88 89 89 89 88 87 86 84 81 77 73 68 64 60 56 52 47 43 38 34 31 26 23 22 21 21 21 20 19 20 21 21 20 19 17 18 24 26 23 24 24 22 15 8 4 4 4 5 7 10 11 11 13 15 18 25 30 33 35 39 42 45 47 49 50 50 51 52 53 54 55 55 55 55 54 52 50 47 43 35 30 28 27 25 24 24 23 22 19 17 15 15 15 15 15 15 14 15 16 16 17 17 18 19 20 20 20 20 22 23 25 25 25 25 25 24 24 22 22 22 22 21 21 20 19 19 18 18 16 16 15 15 15 15 14 14 14 13 12 12 12 12 14 14 14 14 15 15 16 16 16 17 18 18 18 19 20 20 21 20 20 20 18 17 17 17 17 17 17 18 19 19 20 21 21 21 20 19 19 19 18 18 18 17 17 17 17 16 16 16 16 16 15 15 15 15 14 14 14 13 13 13 13 14 14 14 14 14 14 14 14 14 14 14 13 13 12 12 11 11 11 10 10 10 10 10 10 9 9 9 8 6 5 5 5 6 7 8 7 7 7 7 6 6 6 5 5 5 4 4 4 3 3 3 3 3 3 2 2 2 2 2 2 2 3 3 3 3 2 2 2 2 2 2 2 2 2 2 2 2 1 1 1 2 2 2 1 1 1 1 1 1 1 1 1 1 1 1 1 1 1 1 1 1 1 1 1 1 1 1 0 0 0 0 0 0 0 1 1 1 1 1 1 1 2 2 2 2 2 2 3 1 0 0 0 0 0 0 0 0 0 0 0 0 0 0 0 0 0 0 0 0 0 0 0 0 0 0 0 0 0 0 0 0 0 0 0 0 0 0 0 0 0 0 0 0 0 0 0 0 0 0 0 0 0 0 0 0 0 0 0 0 0 0 0 0 0 0 0 0 0 0 0 0 0 0 0 0 0 0 0 0 0 0 0 0 0 0 0 0 0 0 0 0 0 0 0 0 0 0 0 0 0 0 0 0 0 0 0 0 0 0 0 0 0 0 0 0 0 0 0 0 0 0 0 0 0 0 0 0 0 0 0 0 0 0 0 0 0 0 0 0 0 0 0 0 0 0 0 0 0 0 0 0 0 0 0 0 0 0 0 0 0 0 0 0 0 0 0 0 0 0 0 0 0 0 0 0 0 0 0 0 0 0 0 0 0 0 0 0 0 0 0 0 0 0 0 0 0 0 0 0 0 0 0 0 0 0 0 0 0 0 0 0 0 0 0 0 0 0 0 0 0 0 0 0 0 0 0 0 0 0 0 0 0 0 0 0 0 0 0 0 0 0 0 0 0 0 0 0 0 0 0 0 0 0 0 0 0 0 0 0 0 0 0 0 0 0 0 0 0 0 0 0 0 0 0 0 0 0 0 0 0 0 0 0 0 0 0 0 0 0 0 0 0 0 0 0 0 0 0 0 0 0 0 0 0 0 0 0 0 0 0 0 0 0 0 0 0 0 0 0 0 0 0 0 0 0 0 0 0 0 0 0 0 0 0 0 0 0 0 0 0 0 0 0 0 0 0
55 55 55 54 53 53 53 53 54 54 54 53 51 49 47 46 45 44 44 44 44 43 43 43 43 43 43 43 44 44 45 46 47 47 47 46 48 49 49 48 48 47 45 43 43 40 38 38 38 38 38 38 38 38 38 38 38 40 44 47 49 51 51 50 49 47 45 43 40 40 41 46 51 53 53 51 49 47 46 46 44 44 43 43 43 41 37 36 40 40 39 37 37 35 33 32 30 29 28 28 28 28 28 28 28 28 28 28 28 28 28 28 28 28 28 28 28 28 28 28 31 35 35 34 31 30 30 32 32 32 30 31 32 32 31 32 40 50 59 65 68 70 74 76 78 78 78 72 67 64 59 56 54 51 50 51 49 45 42 39 35 32 29 28 27 25 25 26 26 26 26 26 27 27 27 27 27 27 27 27 26 26 26 25 25 25 25 25 25 25 25 25 25 25 25 25 26 29 31 33 35 36 36 36 37 37 36 36 35 34 34 35 34 33 33 36 39 40 42 43 47 51 54 55 53 52 51 50 49 48 46 43 39 35 31 28 26 25 25 25 25 25 25 25 25 25 27 32 39 49 58 65 71 75 79 81 83 85 84 83 83 81 79 77 73 69 65 61 57 54 50 47 43 40 36 32 27 24 23 22 21 21 19 19 21 21 21 21 19 17 20 24 22 22 23 23 19 12 5 4 4 6 10 11 12 12 13 14 16 19 25 30 33 34 37 40 41 43 44 46 47 48 49 50 51 52 52 52 51 50 49 46 43 38 33 29 28 26 25 24 23 22 20 17 17 15 15 15 15 15 15 15 16 16 17 17 18 19 20 20 20 21 23 24 24 25 25 25 25 24 24 24 22 21 21 21 20 20 19 19 18 18 17 16 15 14 14 14 14 14 13 13 12 12 11 11 12 14 14 14 14 14 14 15 16 16 18 18 18 19 20 21 21 20 20 20 19 18 17 17 17 17 17 17 18 19 20 21 21 21 21 20 19 19 18 18 18 17 17 17 17 16 16 16 16 15 15 15 15 15 15 14 13 13 13 12 12 12 13 13 13 14 15 14 14 14 14 14 14 13 12 12 11 11 11 10 10 10 9 9 9 9 9 8 8 8 6 5 5 5 6 7 7 7 6 6 6 6 6 5 5 4 4 4 3 3 3 3 3 3 3 2 2 2 2 2 2 2 2 2 2 2 2 2 2 2 2 2 1 1 1 1 1 1 1 1 1 1 2 2 2 1 1 1 1 1 1 1 1 1 1 1 1 1 1 1 1 1 1 1 1 1 1 1 1 0 0 0 0 0 0 1 1 1 1 1 1 1 1 2 2 2 2 2 2 3 2 1 0 0 0 0 0 0 0 0 0 0 0 0 0 0 0 0 0 0 0 0 0 0 0 0 0 0 0 0 0 0 0 0 0 0 0 0 0 0 0 0 0 0 0 0 0 0 0 0 0 0 0 0 0 0 0 0 0 0 0 0 0 0 0 0 0 0 0 0 0 0 0 0 0 0 0 0 0 0 0 0 0 0 0 0 0 0 0 0 0 0 0 0 0 0 0 0 0 0 0 0 0 0 0 0 0 0 0 0 0 0 0 0 0 0 0 0 0 0 0 0 0 0 0 0 0 0 0 0 0 0 0 0 0 0 0 0 0 0 0 0 0 0 0 0 0 0 0 0 0 0 0 0 0 0 0 0 0 0 0 0 0 0 0 0 0 0 0 0 0 0 0 0 0 0 0 0 0 0 0 0 0 0 0 0 0 0 0 0 0 0 0 0 0 0 0 0 0 0 0 0 0 0 0 0 0 0 0 0 0 0 0 0 0 0 0 0 0 0 0 0 0 0 0 0 0 0 0 0 0 0 0 0 0 0 0 0 0 0 0 0 0 0 0 0 0 0 0 0 0 0 0 0 0 0 0 0 0 0 0 0 0 0 0 0 0 0 0 0 0 0 0 0 0 0 0 0 0 0 0 0 0 0 0 0 0 0 0 0 0 0 0 0 0 0 0 0 0 0 0 0 0 0 0 0 0 0 0 0 0 0 0 0 0 0 0 0 0 0 0 0 0 0 0 0 0 0 0 0 0 0 0 0 0 0 0 0 0 0 0 0 0 0 0 0 0 0
54 54 54 54 53 52 52 53 53 53 54 53 52 50 48 46 45 45 44 44 44 43 43 43 43 43 43 43 44 44 44 46 46 46 46 46 47 47 47 47 47 47 45 43 42 40 38 38 38 38 38 38 38 38 38 38 38 38 38 41 43 44 45 45 44 43 41 40 40 39 42 49 54 57 57 55 51 50 48 46 43 43 42 42 42 41 37 35 42 42 39 37 36 35 34 33 32 31 30 29 28 28 28 28 28 28 28 28 28 28 28 28 28 28 28 28 28 28 28 28 28 29 29 29 28 28 28 28 30 30 30 32 33 33 32 32 38 49 58 64 68 70 74 76 78 79 79 78 74 71 64 58 54 52 52 55 54 47 42 38 35 32 30 29 27 25 25 26 27 25 27 27 26 27 27 27 27 27 27 27 26 26 26 25 25 25 25 25 25 25 25 25 25 25 25 25 26 29 31 32 34 35 35 36 36 36 35 34 34 33 33 32 32 32 32 33 34 36 40 42 44 48 51 54 54 53 53 52 52 51 48 45 40 36 32 30 26 25 25 25 25 25 25 25 25 25 25 28 35 43 51 57 61 65 69 72 76 79 79 79 77 75 73 70 68 66 61 58 54 51 49 47 44 41 38 34 28 25 23 22 21 21 19 19 20 21 21 21 18 17 19 19 19 22 23 21 16 8 4 4 4 8 11 13 13 13 13 14 16 19 24 29 32 33 34 36 37 38 38 39 40 42 43 45 46 47 47 47 46 45 43 40 37 35 30 28 27 26 25 24 23 20 17 17 17 15 15 15 15 15 15 16 16 17 18 19 20 20 21 21 22 24 25 24 24 24 25 25 25 24 23 23 22 21 21 21 19 18 18 18 18 18 16 15 15 14 14 14 14 13 13 13 12 11 11 11 13 14 14 15 14 14 14 15 16 17 19 20 20 20 21 20 20 20 19 19 19 18 17 17 17 17 17 17 17 19 20 21 21 21 21 20 19 19 18 18 18 17 17 17 17 16 16 16 16 15 15 15 14 14 14 14 13 13 13 12 12 12 13 13 13 14 15 14 14 14 14 14 15 13 12 12 11 11 11 10 10 10 9 9 9 9 8 8 8 8 6 5 5 5 5 6 6 6 5 5 5 5 5 4 4 3 2 2 2 2 2 3 3 3 3 2 2 2 2 2 2 2 2 2 2 2 2 2 2 2 2 2 1 1 1 1 1 1 1 1 1 1 2 2 2 1 1 1 1 1 1 1 1 1 1 1 1 1 1 1 1 1 1 1 1 1 1 1 0 0 0 0 0 1 1 1 1 1 1 1 1 1 1 2 2 2 2 2 2 3 2 2 0 0 0 0 0 0 0 0 0 0 0 0 0 0 0 0 0 0 0 0 0 0 0 0 0 0 0 0 0 0 0 0 0 0 0 0 0 0 0 0 0 0 0 0 0 0 0 0 0 0 0 0 0 0 0 0 0 0 0 0 0 0 0 0 0 0 0 0 0 0 0 0 0 0 0 0 0 0 0 0 0 0 0 0 0 0 0 0 0 0 0 0 0 0 0 0 0 0 0 0 0 0 0 0 0 0 0 0 0 0 0 0 0 0 0 0 0 0 0 0 0 0 0 0 0 0 0 0 0 0 0 0 0 0 0 0 0 0 0 0 0 0 0 0 0 0 0 0 0 0 0 0 0 0 0 0 0 0 0 0 0 0 0 0 0 0 0 0 0 0 0 0 0 0 0 0 0 0 0 0 0 0 0 0 0 0 0 0 0 0 0 0 0 0 0 0 0 0 0 0 0 0 0 0 0 0 0 0 0 0 0 0 0 0 0 0 0 0 0 0 0 0 0 0 0 0 0 0 0 0 0 0 0 0 0 0 0 0 0 0 0 0 0 0 0 0 0 0 0 0 0 0 0 0 0 0 0 0 0 0 0 0 0 0 0 0 0 0 0 0 0 0 0 0 0 0 0 0 0 0 0 0 0 0 0 0 0 0 0 0 0 0 0 0 0 0 0 0 0 0 0 0 0 0 0 0 0 0 0 0 0 0 0 0 0 0 0 0 0 0 0 0 0 0 0 0 0 0 0 0 0 0 0 0 0 0 0 0 0 0 0 0 0 0 0 0
53 53 54 54 53 52 52 52 52 52 53 53 53 51 49 47 46 45 44 44 44 43 43 43 43 43 43 43 44 44 44 45 45 45 46 46 46 46 46 46 46 46 45 43 42 40 39 38 38 38 38 38 38 38 38 38 38 38 38 38 38 39 39 39 39 39 38 39 39 39 42 49 55 59 59 58 55 52 49 46 42 42 41 41 41 41 41 38 42 41 38 37 35 33 34 35 33 31 30 29 28 28 28 28 28 28 28 27 27 27 28 28 28 28 28 28 28 28 28 28 28 28 28 28 28 28 28 28 28 28 29 31 32 32 33 33 36 45 55 63 67 70 73 76 77 78 77 78 77 74 67 60 53 52 52 56 56 50 41 36 32 32 30 29 28 25 25 26 27 25 26 26 25 26 26 26 26 27 27 27 26 26 25 25 25 25 25 25 25 25 25 25 25 25 25 25 26 29 31 32 33 34 35 35 35 34 33 33 32 32 32 32 32 32 32 32 33 35 39 42 44 48 52 56 58 58 57 56 55 54 51 47 43 38 34 31 28 25 25 25 25 25 25 25 25 25 25 25 29 36 43 47 52 57 61 64 67 71 73 72 70 69 67 65 64 63 61 56 51 49 48 47 44 43 40 36 31 27 24 22 21 20 18 18 19 21 21 20 17 15 17 18 19 22 22 17 11 5 4 4 4 9 11 12 12 12 13 14 15 19 23 27 30 30 31 32 31 31 31 31 32 34 36 38 40 40 41 40 40 39 37 35 34 31 29 27 27 26 24 24 22 19 17 17 16 15 15 15 15 16 16 16 17 17 19 20 21 21 22 22 24 24 24 24 24 24 24 24 25 24 23 22 21 21 20 20 19 18 18 18 18 17 15 14 14 14 14 13 13 13 12 12 11 11 11 11 13 14 14 14 13 14 14 15 16 17 20 21 21 21 20 20 20 19 18 18 18 18 17 17 16 16 16 16 17 18 19 20 21 21 21 20 19 19 18 18 18 17 17 17 17 16 16 16 16 15 15 14 14 14 14 13 13 12 12 12 12 12 13 13 14 16 15 14 14 14 14 14 14 12 12 12 11 10 10 9 9 9 8 8 8 8 8 8 8 8 6 6 5 4 4 5 6 5 4 4 4 4 4 3 2 2 2 2 2 2 2 3 3 3 3 2 2 2 3 3 4 2 2 2 2 2 2 2 2 2 2 2 1 1 1 1 1 1 1 2 2 2 3 2 2 1 1 1 1 1 1 1 1 1 1 1 1 1 1 1 1 1 1 1 1 1 0 0 0 0 0 0 0 1 1 1 1 1 1 1 1 1 1 2 2 2 2 2 2 3 2 2 0 0 0 0 0 0 0 0 0 0 0 0 0 0 0 0 0 0 0 0 0 0 0 0 0 0 0 0 0 0 0 0 0 0 0 0 0 0 0 0 0 0 0 0 0 0 0 0 0 0 0 0 0 0 0 0 0 0 0 0 0 0 0 0 0 0 0 0 0 0 0 0 0 0 0 0 0 0 0 0 0 0 0 0 0 0 0 0 0 0 0 0 0 0 0 0 0 0 0 0 0 0 0 0 0 0 0 0 0 0 0 0 0 0 0 0 0 0 0 0 0 0 0 0 0 0 0 0 0 0 0 0 0 0 0 0 0 0 0 0 0 0 0 0 0 0 0 0 0 0 0 0 0 0 0 0 0 0 0 0 0 0 0 0 0 0 0 0 0 0 0 0 0 0 0 0 0 0 0 0 0 0 0 0 0 0 0 0 0 0 0 0 0 0 0 0 0 0 0 0 0 0 0 0 0 0 0 0 0 0 0 0 0 0 0 0 0 0 0 0 0 0 0 0 0 0 0 0 0 0 0 0 0 0 0 0 0 0 0 0 0 0 0 0 0 0 0 0 0 0 0 0 0 0 0 0 0 0 0 0 0 0 0 0 0 0 0 0 0 0 0 0 0 0 0 0 0 0 0 0 0 0 0 0 0 0 0 0 0 0 0 0 0 0 0 0 0 0 0 0 0 0 0 0 0 0 0 0 0 0 0 0 0 0 0 0 0 0 0 0 0 0 0 0 0 0 0 0 0 0 0 0 0 0 0 0 0 0 0 0 0 0 0 0 0 0
50 51 52 53 53 52 52 52 52 52 53 54 54 52 50 48 47 45 44 44 44 42 42 42 43 43 43 43 44 43 43 44 44 44 45 46 46 46 44 44 44 44 44 42 42 40 39 39 38 38 38 38 38 38 38 38 38 38 38 38 38 38 38 38 38 38 38 38 38 38 41 48 55 59 60 60 58 55 51 46 42 40 39 40 40 38 40 42 42 41 39 37 35 33 32 32 32 30 29 29 30 30 29 28 28 28 28 27 27 27 28 28 28 28 28 28 28 28 28 28 28 28 28 28 28 28 28 28 28 28 28 29 31 32 33 34 35 41 51 59 63 67 71 74 76 76 74 72 74 73 68 61 53 52 51 55 56 50 40 34 32 32 30 29 29 27 25 26 27 26 25 25 25 25 25 25 26 27 27 27 27 27 25 25 25 25 25 25 25 25 25 25 25 25 26 26 26 28 30 31 31 32 33 33 33 33 31 31 32 32 32 32 32 32 32 32 32 32 35 38 42 47 51 56 60 62 61 60 59 56 53 50 45 40 35 32 30 27 25 25 25 25 25 25 25 25 25 25 25 29 35 39 45 51 56 58 60 62 65 65 63 60 60 61 61 61 60 54 50 48 47 46 44 43 41 37 33 29 26 23 20 18 17 17 18 20 21 19 16 14 16 18 19 21 20 15 8 3 4 4 8 11 11 11 11 12 12 14 15 18 21 24 27 28 28 27 25 24 24 24 25 27 29 31 33 34 34 34 34 33 33 32 31 30 28 27 27 26 24 22 21 18 17 17 16 16 16 16 16 16 16 17 17 18 20 21 22 24 24 25 25 24 24 24 24 24 24 24 24 23 22 21 20 20 19 19 17 17 17 18 17 17 14 14 14 14 13 13 13 13 12 12 11 11 11 11 13 13 13 13 13 14 14 15 16 17 20 21 21 21 20 19 19 19 18 18 17 17 17 17 16 16 16 16 17 18 18 20 22 22 22 21 19 19 18 18 18 18 17 17 17 16 16 16 15 15 15 14 14 13 13 13 12 12 12 12 12 12 13 14 16 16 14 14 14 14 15 15 13 12 12 11 11 10 10 9 9 9 8 8 8 8 8 8 8 8 7 6 6 4 4 4 4 4 3 3 3 3 2 2 2 2 2 2 2 2 3 4 4 4 3 3 3 3 3 3 3 2 2 2 2 2 2 2 2 2 2 2 2 2 2 1 1 1 1 1 1 3 4 2 2 1 1 1 1 1 1 1 1 1 1 1 1 1 1 1 1 1 1 1 1 1 0 0 0 0 0 0 1 1 1 1 1 1 1 1 1 1 1 2 2 2 2 2 2 3 1 1 0 0 0 0 0 0 0 0 0 0 0 0 0 0 0 0 0 0 0 0 0 0 0 0 0 0 0 0 0 0 0 0 0 0 0 0 0 0 0 0 0 0 0 0 0 0 0 0 0 0 0 0 0 0 0 0 0 0 0 0 0 0 0 0 0 0 0 0 0 0 0 0 0 0 0 0 0 0 0 0 0 0 0 0 0 0 0 0 0 0 0 0 0 0 0 0 0 0 0 0 0 0 0 0 0 0 0 0 0 0 0 0 0 0 0 0 0 0 0 0 0 0 0 0 0 0 0 0 0 0 0 0 0 0 0 0 0 0 0 0 0 0 0 0 0 0 0 0 0 0 0 0 0 0 0 0 0 0 0 0 0 0 0 0 0 0 0 0 0 0 0 0 0 0 0 0 0 0 0 0 0 0 0 0 0 0 0 0 0 0 0 0 0 0 0 0 0 0 0 0 0 0 0 0 0 0 0 0 0 0 0 0 0 0 0 0 0 0 0 0 0 0 0 0 0 0 0 0 0 0 0 0 0 0 0 0 0 0 0 0 0 0 0 0 0 0 0 0 0 0 0 0 0 0 0 0 0 0 0 0 0 0 0 0 0 0 0 0 0 0 0 0 0 0 0 0 0 0 0 0 0 0 0 0 0 0 0 0 0 0 0 0 0 0 0 0 0 0 0 0 0 0 0 0 0 0 0 0 0 0 0 0 0 0 0 0 0 0 0 0 0 0 0 0 0 0 0 0 0 0 0 0 0 0 0 0 0 0 0 0 0 0 0 0 0 0
47 49 50 50 52 52 52 52 52 52 52 53 54 53 52 50 47 45 44 44 44 42 42 42 43 43 43 43 43 43 43 43 43 43 44 45 45 45 44 43 43 43 43 42 41 40 39 39 38 38 38 38 38 37 37 37 38 38 38 39 39 39 38 38 38 38 38 38 38 37 39 47 53 58 59 59 60 57 52 46 40 40 38 38 38 38 37 41 38 40 40 39 39 36 33 32 32 29 28 28 29 32 33 32 31 29 28 28 28 28 28 28 28 28 28 28 28 28 28 28 32 33 32 31 30 28 28 28 27 27 27 28 30 32 32 33 34 38 45 52 56 60 64 69 71 72 72 69 69 70 66 59 51 48 49 52 54 49 40 34 32 32 30 29 28 27 25 25 26 27 26 26 25 25 25 25 26 26 26 26 26 26 25 25 25 25 25 25 25 25 25 25 25 26 26 26 26 27 28 29 29 30 32 32 32 32 30 30 31 31 31 31 31 31 32 32 32 32 32 33 37 42 48 54 59 62 62 61 60 58 55 50 46 41 36 33 31 29 27 25 25 24 25 25 25 25 24 24 25 25 30 35 40 46 51 53 53 54 56 56 54 53 53 57 57 57 56 53 49 48 47 45 42 42 40 38 33 30 28 24 19 17 16 16 17 20 21 18 15 14 15 17 19 20 17 12 5 3 4 7 9 12 11 11 10 11 12 13 14 16 18 22 24 24 23 22 20 18 19 19 20 21 23 25 27 29 30 30 30 31 31 31 30 30 28 27 26 25 24 22 20 17 17 17 16 16 16 16 16 17 17 17 17 19 21 23 25 26 26 25 25 24 23 23 23 24 24 24 24 22 21 20 19 19 18 18 17 17 17 17 17 16 14 13 13 13 13 13 13 12 12 12 11 11 11 11 12 12 12 12 13 14 14 15 16 17 20 20 20 20 19 19 19 18 17 17 17 16 17 16 15 16 16 16 17 17 18 20 21 22 22 21 19 19 18 18 18 17 17 17 17 16 15 15 15 14 14 14 13 13 13 13 12 12 11 11 11 11 13 14 16 15 13 13 13 14 15 14 13 11 11 11 11 10 10 9 9 9 8 7 7 7 8 8 8 8 7 6 6 5 4 4 3 3 3 3 2 2 2 2 2 2 2 2 4 4 5 6 5 4 4 4 3 3 2 2 2 2 2 2 2 2 2 2 2 2 2 2 2 2 1 1 1 1 1 1 1 2 2 2 2 1 1 1 1 1 1 1 1 1 1 1 1 1 1 1 1 1 1 1 1 1 0 0 0 0 0 0 0 1 1 1 1 1 1 1 1 1 1 2 2 2 2 2 2 3 1 0 0 0 0 0 0 0 0 0 0 0 0 0 0 0 0 0 0 0 0 0 0 0 0 0 0 0 0 0 0 0 0 0 0 0 0 0 0 0 0 0 0 0 0 0 0 0 0 0 0 0 0 0 0 0 0 0 0 0 0 0 0 0 0 0 0 0 0 0 0 0 0 0 0 0 0 0 0 0 0 0 0 0 0 0 0 0 0 0 0 0 0 0 0 0 0 0 0 0 0 0 0 0 0 0 0 0 0 0 0 0 0 0 0 0 0 0 0 0 0 0 0 0 0 0 0 0 0 0 0 0 0 0 0 0 0 0 0 0 0 0 0 0 0 0 0 0 0 0 0 0 0 0 0 0 0 0 0 0 0 0 0 0 0 0 0 0 0 0 0 0 0 0 0 0 0 0 0 0 0 0 0 0 0 0 0 0 0 0 0 0 0 0 0 0 0 0 0 0 0 0 0 0 0 0 0 0 0 0 0 0 0 0 0 0 0 0 0 0 0 0 0 0 0 0 0 0 0 0 0 0 0 0 0 0 0 0 0 0 0 0 0 0 0 0 0 0 0 0 0 0 0 0 0 0 0 0 0 0 0 0 0 0 0 0 0 0 0 0 0 0 0 0 0 0 0 0 0 0 0 0 0 0 0 0 0 0 0 0 0 0 0 0 0 0 0 0 0 0 0 0 0 0 0 0 0 0 0 0 0 0 0 0 0 0 0 0 0 0 0 0 0 0 0 0 0 0 0 0 0 0 0 0 0 0 0 0 0 0 0 0 0 0 0 0 0 0
45 47 49 49 50 51 51 51 51 51 52 53 53 53 53 51 48 46 44 44 43 43 43 43 42 43 43 43 42 42 42 43 43 43 44 45 45 45 44 43 42 42 42 42 41 40 39 39 38 37 37 38 38 37 37 37 38 38 38 38 38 38 38 38 38 39 38 38 38 37 38 43 50 54 56 58 60 58 55 48 41 40 38 36 36 38 36 38 34 38 39 39 39 37 35 34 32 28 28 28 28 31 36 34 32 33 32 30 29 29 29 28 28 29 28 28 28 28 29 33 36 36 36 36 34 29 28 28 27 27 27 28 28 30 31 31 31 35 40 44 50 53 56 60 65 67 67 65 64 66 64 57 48 45 48 48 49 47 40 34 32 31 30 28 28 27 25 25 27 27 27 27 26 25 25 25 25 25 25 25 25 25 26 25 25 25 25 25 25 26 26 26 26 26 26 26 26 27 27 28 28 28 28 28 29 29 29 30 31 31 31 31 31 31 32 32 32 32 32 32 34 38 44 50 56 61 61 61 61 59 55 50 46 42 38 35 34 31 29 26 25 24 25 25 25 25 24 24 25 25 26 30 35 42 46 48 48 48 47 46 45 44 46 49 51 52 52 51 48 46 45 43 40 39 39 37 33 30 27 24 19 16 14 12 15 17 18 17 14 13 15 17 19 17 14 8 4 4 4 7 8 9 10 10 10 10 11 13 14 15 16 18 19 18 18 15 14 15 17 17 18 19 19 20 22 24 26 27 28 29 30 31 30 29 28 26 26 25 23 21 18 17 17 17 16 16 16 16 17 17 17 18 18 20 22 24 26 26 26 25 25 24 23 23 23 24 24 24 23 21 20 19 18 17 17 16 16 16 16 16 15 15 13 13 13 13 13 13 13 12 11 11 11 11 11 11 12 12 12 12 14 14 14 16 16 17 18 19 19 19 19 18 18 17 17 17 17 15 15 15 15 15 15 16 16 17 17 19 21 21 22 20 19 19 18 17 17 17 17 17 16 15 15 15 14 14 14 14 13 13 13 13 12 12 11 11 11 11 13 13 14 13 12 13 13 14 14 14 13 11 11 11 10 10 10 10 9 9 8 7 7 7 8 8 8 8 6 6 6 5 4 4 3 3 3 3 3 2 2 2 2 3 3 4 5 7 8 7 5 5 4 4 4 3 2 2 2 2 2 2 2 2 2 2 2 2 2 2 2 2 1 1 1 1 1 1 1 1 2 2 2 1 1 1 1 1 1 1 1 1 1 1 1 1 1 1 1 1 1 1 1 1 0 0 0 0 0 0 0 1 1 1 1 1 1 1 1 1 1 2 2 2 2 2 2 3 1 0 0 0 0 0 0 0 0 0 0 0 0 0 0 0 0 0 0 0 0 0 0 0 0 0 0 0 0 0 0 0 0 0 0 0 0 0 0 0 0 0 0 0 0 0 0 0 0 0 0 0 0 0 0 0 0 0 0 0 0 0 0 0 0 0 0 0 0 0 0 0 0 0 0 0 0 0 0 0 0 0 0 0 0 0 0 0 0 0 0 0 0 0 0 0 0 0 0 0 0 0 0 0 0 0 0 0 0 0 0 0 0 0 0 0 0 0 0 0 0 0 0 0 0 0 0 0 0 0 0 0 0 0 0 0 0 0 0 0 0 0 0 0 0 0 0 0 0 0 0 0 0 0 0 0 0 0 0 0 0 0 0 0 0 0 0 0 0 0 0 0 0 0 0 0 0 0 0 0 0 0 0 0 0 0 0 0 0 0 0 0 0 0 0 0 0 0 0 0 0 0 0 0 0 0 0 0 0 0 0 0 0 0 0 0 0 0 0 0 0 0 0 0 0 0 0 0 0 0 0 0 0 0 0 0 0 0 0 0 0 0 0 0 0 0 0 0 0 0 0 0 0 0 0 0 0 0 0 0 0 0 0 0 0 0 0 0 0 0 0 0 0 0 0 0 0 0 0 0 0 0 0 0 0 0 0 0 0 0 0 0 0 0 0 0 0 0 0 0 0 0 0 0 0 0 0 0 0 0 0 0 0 0 0 0 0 0 0 0 0 0 0 0 0 0 0 0 0 0 0 0 0 0 0 0 0 0 0 0 0 0 0 0 0 0 0 0
43 45 47 47 48 49 49 50 50 51 51 52 53 53 53 52 50 48 46 44 43 42 42 42 42 43 43 43 42 42 42 42 43 43 43 44 44 44 44 43 42 42 41 41 41 39 39 39 38 37 37 37 38 38 38 38 38 38 38 38 38 38 37 38 38 38 38 38 38 38 38 39 44 48 51 55 59 59 56 50 43 40 38 35 35 35 34 35 32 34 37 38 38 37 37 35 33 30 29 28 28 28 29 30 31 33 33 32 31 31 32 31 31 30 30 29 29 31 34 35 36 36 37 37 35 34 30 28 28 28 28 28 28 28 28 30 30 32 34 38 42 46 48 52 55 57 57 57 57 58 58 54 46 43 45 44 43 42 36 32 30 30 29 28 27 27 26 25 27 28 27 27 27 25 25 25 25 25 25 25 25 25 25 25 25 25 25 25 25 26 25 26 26 26 26 26 26 27 27 29 28 28 28 28 29 29 29 30 31 31 31 31 31 31 32 32 32 32 32 32 33 36 40 45 51 56 58 60 62 60 56 51 48 44 41 38 35 32 30 27 25 25 25 25 25 25 25 25 25 25 25 27 33 37 40 42 42 41 40 40 40 40 41 43 45 47 48 47 45 43 43 40 38 37 35 34 32 29 26 24 19 16 13 10 11 13 14 14 13 12 15 18 19 16 12 7 4 4 4 4 5 6 7 8 9 10 11 12 13 14 15 15 15 15 13 12 12 14 16 16 17 16 17 18 20 22 23 25 28 29 30 30 29 29 27 26 25 24 22 20 17 17 17 17 16 16 16 16 17 17 18 19 21 24 26 26 26 26 26 25 25 24 23 23 23 24 24 24 22 20 19 18 18 17 16 15 15 15 15 15 15 14 12 12 12 12 12 13 13 12 11 11 11 11 11 11 12 12 12 12 14 14 14 16 16 16 17 18 18 18 18 17 17 17 17 17 16 15 15 15 15 15 15 16 16 17 17 19 20 21 21 20 19 19 18 17 17 17 17 17 16 15 14 14 14 14 14 13 12 12 12 12 11 11 11 10 11 11 12 12 12 12 12 13 13 13 13 13 13 11 11 11 10 10 10 10 9 9 9 7 6 6 7 7 8 7 6 5 5 5 4 4 3 3 3 3 4 4 4 4 5 5 5 6 7 8 8 6 5 5 4 4 4 2 2 2 2 2 2 2 2 2 2 2 2 2 2 2 2 2 1 1 1 1 1 1 1 1 1 1 1 1 1 1 1 1 1 1 1 1 1 1 1 1 1 1 1 1 1 1 1 1 0 0 0 0 0 0 0 0 0 0 0 1 1 1 1 1 1 1 2 2 2 2 2 3 1 0 0 0 0 0 0 0 0 0 0 0 0 0 0 0 0 0 0 0 0 0 0 0 0 0 0 0 0 0 0 0 0 0 0 0 0 0 0 0 0 0 0 0 0 0 0 0 0 0 0 0 0 0 0 0 0 0 0 0 0 0 0 0 0 0 0 0 0 0 0 0 0 0 0 0 0 0 0 0 0 0 0 0 0 0 0 0 0 0 0 0 0 0 0 0 0 0 0 0 0 0 0 0 0 0 0 0 0 0 0 0 0 0 0 0 0 0 0 0 0 0 0 0 0 0 0 0 0 0 0 0 0 0 0 0 0 0 0 0 0 0 0 0 0 0 0 0 0 0 0 0 0 0 0 0 0 0 0 0 0 0 0 0 0 0 0 0 0 0 0 0 0 0 0 0 0 0 0 0 0 0 0 0 0 0 0 0 0 0 0 0 0 0 0 0 0 0 0 0 0 0 0 0 0 0 0 0 0 0 0 0 0 0 0 0 0 0 0 0 0 0 0 0 0 0 0 0 0 0 0 0 0 0 0 0 0 0 0 0 0 0 0 0 0 0 0 0 0 0 0 0 0 0 0 0 0 0 0 0 0 0 0 0 0 0 0 0 0 0 0 0 0 0 0 0 0 0 0 0 0 0 0 0 0 0 0 0 0 0 0 0 0 0 0 0 0 0 0 0 0 0 0 0 0 0 0 0 0 0 0 0 0 0 0 0 0 0 0 0 0 0 0 0 0 0 0 0 0 0 0 0 0 0 0 0 0 0 0 0 0 0 0 0 0 0 0 0
43 42 45 46 47 48 48 49 50 50 51 51 52 52 53 52 51 49 47 45 43 42 42 42 42 42 42 42 42 41 41 41 42 42 43 43 44 43 43 42 42 42 41 40 40 39 39 39 38 37 37 37 37 38 38 38 38 38 38 38 38 38 37 38 38 38 38 38 38 38 38 38 38 41 46 53 58 59 56 51 45 40 38 35 34 34 33 33 32 32 35 37 37 37 38 36 34 32 31 31 29 28 28 28 29 28 28 30 30 31 31 31 31 30 30 31 31 32 34 35 35 35 36 36 35 35 34 32 28 28 28 28 28 28 28 29 29 30 31 33 36 38 41 44 45 47 48 50 49 49 49 47 42 40 41 39 37 36 33 30 29 28 28 27 26 26 26 25 27 28 28 28 27 25 25 25 25 25 25 25 25 25 25 25 25 25 25 25 25 25 25 26 26 26 26 26 27 27 28 30 31 30 29 29 29 29 29 30 31 31 31 31 31 32 32 32 32 32 32 32 32 33 37 41 45 51 54 59 62 61 57 54 51 48 43 39 37 33 30 28 27 25 25 25 25 25 25 25 25 25 25 25 29 33 35 36 35 34 35 36 37 38 39 40 42 44 45 44 43 42 41 39 37 35 32 31 29 27 24 22 18 15 12 9 9 10 11 12 11 11 16 18 17 13 10 7 4 4 4 5 6 6 6 6 7 8 10 11 12 13 13 14 13 13 12 11 12 13 14 14 15 16 16 17 19 21 23 25 27 29 30 30 29 29 27 26 25 23 21 18 17 17 17 17 17 17 17 17 18 19 21 22 25 25 25 25 25 25 25 24 24 24 23 23 23 24 24 23 21 19 18 17 16 16 15 14 14 14 15 14 14 14 11 11 11 11 11 12 12 12 11 11 11 11 11 11 12 12 12 12 13 14 14 15 15 15 16 16 17 17 17 17 17 17 17 17 15 14 14 14 14 15 15 15 16 16 17 18 20 20 20 20 18 18 18 17 17 17 17 17 16 15 14 14 14 14 14 13 12 12 12 12 11 11 10 10 10 11 11 11 12 12 12 12 12 13 13 13 12 11 11 11 10 10 10 10 9 9 8 7 6 6 5 6 7 6 5 5 5 5 4 4 4 3 4 5 5 6 6 6 6 6 6 7 8 8 8 6 6 6 4 3 3 2 2 3 3 2 2 2 2 2 2 2 2 4 3 3 3 2 1 1 1 1 1 1 1 1 1 1 1 1 1 1 1 1 1 1 1 1 1 1 1 1 1 1 1 1 1 1 1 1 1 1 0 0 0 0 0 0 0 0 0 0 0 1 1 1 1 1 2 2 2 2 2 3 1 0 0 0 0 0 0 0 0 0 0 0 0 0 0 0 0 0 0 0 0 0 0 0 0 0 0 0 0 0 0 0 0 0 0 0 0 0 0 0 0 0 0 0 0 0 0 0 0 0 0 0 0 0 0 0 0 0 0 0 0 0 0 0 0 0 0 0 0 0 0 0 0 0 0 0 0 0 0 0 0 0 0 0 0 0 0 0 0 0 0 0 0 0 0 0 0 0 0 0 0 0 0 0 0 0 0 0 0 0 0 0 0 0 0 0 0 0 0 0 0 0 0 0 0 0 0 0 0 0 0 0 0 0 0 0 0 0 0 0 0 0 0 0 0 0 0 0 0 0 0 0 0 0 0 0 0 0 0 0 0 0 0 0 0 0 0 0 0 0 0 0 0 0 0 0 0 0 0 0 0 0 0 0 0 0 0 0 0 0 0 0 0 0 0 0 0 0 0 0 0 0 0 0 0 0 0 0 0 0 0 0 0 0 0 0 0 0 0 0 0 0 0 0 0 0 0 0 0 0 0 0 0 0 0 0 0 0 0 0 0 0 0 0 0 0 0 0 0 0 0 0 0 0 0 0 0 0 0 0 0 0 0 0 0 0 0 0 0 0 0 0 0 0 0 0 0 0 0 0 0 0 0 0 0 0 0 0 0 0 0 0 0 0 0 0 0 0 0 0 0 0 0 0 0 0 0 0 0 0 0 0 0 0 0 0 0 0 0 0 0 0 0 0 0 0 0 0 0 0 0 0 0 0 0 0 0 0 0 0 0 0 0 0 0 0 0 0
43 41 42 44 45 46 47 48 49 49 50 51 52 52 52 52 52 50 48 47 45 43 41 41 41 42 42 42 41 41 40 39 39 39 40 41 41 42 42 42 42 41 41 40 40 39 38 38 38 38 38 38 37 38 38 38 37 37 38 38 38 38 38 38 38 38 38 38 38 37 38 38 38 38 43 50 56 57 56 52 46 41 38 35 34 34 32 32 32 31 32 32 33 34 35 35 33 32 32 32 31 28 28 28 28 28 28 28 28 28 27 28 28 28 29 30 31 31 32 32 33 33 33 33 33 34 34 32 28 28 28 28 28 28 28 29 29 29 31 32 33 35 36 37 38 39 40 41 41 41 41 40 37 37 37 35 33 33 31 28 27 27 26 25 25 25 25 25 27 28 28 28 27 25 25 25 25 25 25 25 25 25 25 25 25 25 25 26 26 25 26 26 26 26 26 26 27 28 29 32 33 33 32 30 29 29 29 31 32 32 32 32 32 33 34 33 32 32 32 32 32 32 34 38 41 45 48 54 58 58 56 54 51 47 43 39 37 34 31 28 28 25 25 25 25 25 25 25 25 25 25 25 26 29 30 30 29 29 30 33 35 36 37 37 39 41 42 42 41 41 39 38 36 33 30 28 26 24 21 19 17 15 12 9 9 9 9 10 10 11 15 15 13 10 9 6 4 4 5 9 12 12 10 6 6 7 9 10 10 10 11 11 11 11 11 11 11 12 12 12 13 16 17 19 22 24 25 26 27 29 30 30 29 28 27 25 25 22 19 17 17 17 17 17 17 17 18 20 21 22 23 24 24 23 23 23 23 23 23 23 24 23 23 23 23 24 24 22 19 18 17 16 15 14 14 14 14 14 15 14 14 14 11 11 11 11 11 11 11 12 11 11 11 11 11 11 12 12 12 12 12 14 14 14 14 14 15 15 15 16 16 16 16 17 17 16 15 14 14 14 14 15 15 15 16 16 17 18 20 20 20 19 18 18 18 17 17 17 16 16 16 15 15 15 15 14 14 13 12 12 12 11 11 10 9 9 10 10 11 11 11 11 11 12 12 12 12 12 12 11 11 10 10 10 10 9 8 8 7 7 6 5 5 5 5 5 5 5 5 5 5 5 6 6 7 7 7 9 8 8 8 8 9 9 9 8 7 6 6 5 4 3 3 3 5 6 6 4 2 2 2 2 3 3 4 5 5 4 3 3 2 1 1 1 1 1 1 1 1 1 1 1 1 1 1 1 1 1 1 1 1 1 1 1 1 1 1 1 1 1 1 1 1 1 1 0 0 0 0 0 0 0 0 0 0 1 1 1 1 1 2 2 2 2 2 3 1 0 0 0 0 0 0 0 0 0 0 0 0 0 0 0 0 0 0 0 0 0 0 0 0 0 0 0 0 0 0 0 0 0 0 0 0 0 0 0 0 0 0 0 0 0 0 0 0 0 0 0 0 0 0 0 0 0 0 0 0 0 0 0 0 0 0 0 0 0 0 0 0 0 0 0 0 0 0 0 0 0 0 0 0 0 0 0 0 0 0 0 0 0 0 0 0 0 0 0 0 0 0 0 0 0 0 0 0 0 0 0 0 0 0 0 0 0 0 0 0 0 0 0 0 0 0 0 0 0 0 0 0 0 0 0 0 0 0 0 0 0 0 0 0 0 0 0 0 0 0 0 0 0 0 0 0 0 0 0 0 0 0 0 0 0 0 0 0 0 0 0 0 0 0 0 0 0 0 0 0 0 0 0 0 0 0 0 0 0 0 0 0 0 0 0 0 0 0 0 0 0 0 0 0 0 0 0 0 0 0 0 0 0 0 0 0 0 0 0 0 0 0 0 0 0 0 0 0 0 0 0 0 0 0 0 0 0 0 0 0 0 0 0 0 0 0 0 0 0 0 0 0 0 0 0 0 0 0 0 0 0 0 0 0 0 0 0 0 0 0 0 0 0 0 0 0 0 0 0 0 0 0 0 0 0 0 0 0 0 0 0 0 0 0 0 0 0 0 0 0 0 0 0 0 0 0 0 0 0 0 0 0 0 0 0 0 0 0 0 0 0 0 0 0 0 0 0 0 0 0 0 0 0 0 0 0 0 0 0 0 0 0 0 0 0 0 0
45 42 41 40 42 44 46 47 48 49 49 51 51 51 52 51 52 52 50 48 46 43 41 41 41 41 41 41 41 41 40 38 38 38 38 38 38 39 41 40 41 40 40 40 40 39 38 38 38 38 38 38 38 38 38 38 37 37 38 37 37 37 37 38 38 38 38 38 38 37 37 37 37 38 40 47 53 56 56 53 46 42 39 36 34 34 32 32 33 32 32 32 32 32 32 33 33 32 32 32 32 31 28 28 28 28 28 28 28 28 27 28 28 28 28 28 28 29 29 30 31 32 31 31 32 32 33 32 29 28 28 28 28 28 28 28 28 29 30 32 33 34 34 36 35 35 34 36 36 36 37 36 35 35 34 33 33 32 31 28 27 26 25 25 25 25 25 26 28 29 28 28 27 26 26 25 25 25 25 25 25 25 25 25 25 25 25 26 26 26 26 26 26 26 27 27 27 28 30 32 35 35 34 32 31 29 30 32 33 33 32 32 32 34 36 37 35 32 32 32 32 32 33 37 39 41 44 49 53 53 52 51 49 46 43 39 37 35 32 29 28 26 25 25 25 25 25 25 25 25 25 25 25 25 25 25 25 25 26 29 32 34 36 36 37 38 40 40 39 39 38 37 35 31 29 27 24 22 21 18 17 16 13 9 8 8 8 9 8 9 14 13 10 10 7 4 4 4 7 13 15 14 14 9 7 7 7 9 9 10 10 10 10 10 10 10 11 11 12 12 14 18 20 24 27 28 29 28 29 30 30 29 28 27 26 25 24 22 18 17 17 17 17 17 17 19 21 22 22 23 24 23 23 23 22 22 22 22 23 22 23 22 22 22 22 24 22 20 18 17 16 15 14 14 14 14 14 15 14 13 13 14 11 11 11 11 11 11 11 11 11 11 11 11 11 11 11 11 11 11 12 13 13 13 13 14 14 14 14 15 15 15 16 17 16 15 15 14 14 14 14 14 14 14 15 16 17 19 19 19 20 19 18 18 18 17 17 17 16 16 16 16 15 15 15 14 14 13 12 11 11 10 10 9 8 8 9 10 11 11 11 11 11 11 11 11 12 12 12 10 10 10 9 9 9 9 8 7 6 5 5 5 5 5 5 5 5 5 5 5 6 6 7 7 7 8 9 10 10 10 9 8 9 9 8 7 6 5 5 5 4 3 3 5 6 6 6 4 2 2 2 4 4 5 5 5 5 4 3 3 2 2 1 1 1 1 1 1 1 1 1 1 1 1 1 1 1 1 1 1 1 1 1 1 1 1 1 1 1 1 1 1 1 1 1 1 0 0 0 0 0 0 0 0 0 1 1 1 1 1 2 2 2 2 2 3 1 0 0 0 0 0 0 0 0 0 0 0 0 0 0 0 0 0 0 0 0 0 0 0 0 0 0 0 0 0 0 0 0 0 0 0 0 0 0 0 0 0 0 0 0 0 0 0 0 0 0 0 0 0 0 0 0 0 0 0 0 0 0 0 0 0 0 0 0 0 0 0 0 0 0 0 0 0 0 0 0 0 0 0 0 0 0 0 0 0 0 0 0 0 0 0 0 0 0 0 0 0 0 0 0 0 0 0 0 0 0 0 0 0 0 0 0 0 0 0 0 0 0 0 0 0 0 0 0 0 0 0 0 0 0 0 0 0 0 0 0 0 0 0 0 0 0 0 0 0 0 0 0 0 0 0 0 0 0 0 0 0 0 0 0 0 0 0 0 0 0 0 0 0 0 0 0 0 0 0 0 0 0 0 0 0 0 0 0 0 0 0 0 0 0 0 0 0 0 0 0 0 0 0 0 0 0 0 0 0 0 0 0 0 0 0 0 0 0 0 0 0 0 0 0 0 0 0 0 0 0 0 0 0 0 0 0 0 0 0 0 0 0 0 0 0 0 0 0 0 0 0 0 0 0 0 0 0 0 0 0 0 0 0 0 0 0 0 0 0 0 0 0 0 0 0 0 0 0 0 0 0 0 0 0 0 0 0 0 0 0 0 0 0 0 0 0 0 0 0 0 0 0 0 0 0 0 0 0 0 0 0 0 0 0 0 0 0 0 0 0 0 0 0 0 0 0 0 0 0 0 0 0 0 0 0 0 0 0 0 0 0 0 0 0 0 0 0
46 43 41 40 41 42 43 44 47 47 48 50 50 50 51 51 51 52 50 49 46 44 42 41 40 41 41 41 41 40 40 38 38 38 38 37 37 37 38 38 39 39 40 40 40 39 38 38 37 38 38 37 38 38 38 38 37 37 38 37 37 37 37 38 38 39 38 38 38 37 37 37 37 37 37 42 48 53 54 52 47 42 39 36 34 34 34 33 36 35 33 33 32 32 32 32 32 33 33 33 32 32 29 28 28 28 28 28 28 28 28 28 28 28 28 28 28 28 28 28 29 30 30 30 31 31 31 31 30 28 28 28 28 28 28 28 28 29 28 28 28 30 33 36 37 36 34 33 33 34 35 35 34 33 32 31 30 31 31 28 26 25 25 25 26 27 27 28 29 29 29 28 27 26 26 26 26 26 26 26 25 25 25 25 25 25 26 26 26 26 26 26 26 27 27 28 29 30 31 32 35 36 35 34 32 31 31 32 33 34 34 34 34 35 37 38 38 35 32 32 32 32 32 35 38 39 43 47 49 50 50 49 48 47 47 44 41 39 37 33 29 27 25 25 25 25 25 25 24 24 24 25 25 25 25 25 25 25 25 27 29 33 36 35 35 35 34 34 35 35 35 35 33 31 29 27 25 23 21 18 17 16 13 10 7 7 7 7 7 10 13 12 10 8 5 4 4 4 9 14 15 14 14 10 7 7 7 8 8 8 8 8 8 8 9 10 10 11 12 12 16 21 25 29 31 31 31 30 30 30 29 28 27 27 25 24 24 21 18 18 18 17 17 17 17 20 22 23 23 24 24 24 23 23 22 21 21 21 21 21 21 21 22 22 22 22 20 18 17 16 15 15 14 14 14 14 15 15 14 13 13 14 11 11 11 11 11 11 11 11 11 11 11 11 11 11 11 11 11 11 12 12 12 12 12 13 13 13 13 13 14 14 14 14 14 14 14 14 14 14 14 14 14 14 14 16 17 19 19 19 20 19 19 19 18 18 18 17 16 16 16 16 16 16 15 14 14 13 12 11 11 10 9 9 8 8 8 10 10 10 10 11 11 11 11 11 12 12 11 10 10 9 8 8 8 8 7 7 6 5 5 5 5 5 5 5 6 6 6 7 8 8 8 9 10 10 11 11 11 10 9 9 9 8 6 6 5 5 5 4 4 4 4 5 6 6 5 4 2 2 2 5 5 5 4 4 4 4 3 3 3 2 2 2 1 1 1 1 1 1 1 1 1 1 1 1 1 1 1 1 1 1 1 1 1 1 1 1 1 1 1 1 1 1 1 1 1 1 0 0 0 0 0 0 0 1 1 1 1 1 2 2 2 2 2 3 1 0 0 0 0 0 0 0 0 0 0 0 0 0 0 0 0 0 0 0 0 0 0 0 0 0 0 0 0 0 0 0 0 0 0 0 0 0 0 0 0 0 0 0 0 0 0 0 0 0 0 0 0 0 0 0 0 0 0 0 0 0 0 0 0 0 0 0 0 0 0 0 0 0 0 0 0 0 0 0 0 0 0 0 0 0 0 0 0 0 0 0 0 0 0 0 0 0 0 0 0 0 0 0 0 0 0 0 0 0 0 0 0 0 0 0 0 0 0 0 0 0 0 0 0 0 0 0 0 0 0 0 0 0 0 0 0 0 0 0 0 0 0 0 0 0 0 0 0 0 0 0 0 0 0 0 0 0 0 0 0 0 0 0 0 0 0 0 0 0 0 0 0 0 0 0 0 0 0 0 0 0 0 0 0 0 0 0 0 0 0 0 0 0 0 0 0 0 0 0 0 0 0 0 0 0 0 0 0 0 0 0 0 0 0 0 0 0 0 0 0 0 0 0 0 0 0 0 0 0 0 0 0 0 0 0 0 0 0 0 0 0 0 0 0 0 0 0 0 0 0 0 0 0 0 0 0 0 0 0 0 0 0 0 0 0 0 0 0 0 0 0 0 0 0 0 0 0 0 0 0 0 0 0 0 0 0 0 0 0 0 0 0 0 0 0 0 0 0 0 0 0 0 0 0 0 0 0 0 0 0 0 0 0 0 0 0 0 0 0 0 0 0 0 0 0 0 0 0 0 0 0 0 0 0 0 0 0 0 0 0 0 0 0 0 0 0 0
46 45 42 41 41 41 42 44 44 45 47 48 49 50 50 50 51 51 50 50 48 45 43 42 40 40 40 40 40 40 39 38 38 38 38 38 38 38 38 38 38 38 39 39 39 39 38 38 37 38 38 37 38 38 38 38 37 37 37 37 37 37 37 37 38 38 38 38 37 36 36 36 36 37 37 38 42 47 50 51 47 42 38 36 35 35 34 34 37 37 36 35 34 32 32 32 33 33 33 33 33 32 31 29 28 28 28 28 28 28 27 28 28 28 28 28 28 28 28 28 28 28 29 30 30 30 30 29 29 29 29 28 28 28 28 28 28 28 28 28 29 29 31 33 35 37 35 30 30 31 31 31 32 32 31 28 27 29 30 27 25 25 25 25 27 28 28 29 30 30 29 29 28 27 27 26 26 26 26 26 25 25 25 25 26 26 26 26 26 26 26 27 27 27 28 31 32 32 32 33 34 35 36 36 34 33 32 33 34 35 36 37 38 38 38 39 39 37 33 32 32 32 32 32 34 36 39 43 47 51 54 55 56 55 55 52 49 47 44 40 33 29 27 25 25 25 25 25 24 24 24 25 25 25 25 25 25 25 25 27 30 33 36 35 35 33 32 32 32 33 33 33 32 31 30 29 27 25 22 19 17 16 14 10 7 7 6 6 7 10 10 10 9 6 3 3 4 7 13 15 15 15 14 10 8 8 8 8 8 8 8 8 8 8 9 10 10 11 12 14 20 26 30 31 32 32 31 31 30 29 28 27 26 26 25 24 23 21 17 17 17 17 17 17 17 20 22 23 24 25 25 24 23 23 22 21 20 20 19 19 19 20 21 21 21 20 18 17 16 15 14 14 14 14 14 14 14 14 13 12 12 14 13 11 11 11 11 11 11 11 11 11 11 11 11 11 11 11 11 11 11 11 11 11 12 12 12 12 12 13 13 14 13 13 13 13 13 13 13 13 14 14 14 14 14 16 17 19 19 20 20 20 19 19 18 18 18 17 16 16 16 16 16 16 15 14 14 14 12 12 12 11 10 9 8 8 8 10 10 10 10 10 10 10 10 11 11 11 10 10 9 9 7 7 7 7 7 6 6 5 5 5 7 7 7 6 7 7 7 9 10 10 9 11 11 12 11 11 10 9 8 8 7 6 5 5 5 4 4 4 4 4 4 5 5 5 5 4 4 4 4 5 5 5 4 3 3 3 2 2 2 2 2 2 1 1 1 1 1 1 1 1 1 1 1 1 1 1 1 1 1 1 1 1 1 1 1 1 1 1 1 1 1 1 1 1 1 1 0 0 0 0 0 0 0 0 1 1 1 1 2 2 2 2 2 3 2 0 0 0 0 0 0 0 0 0 0 0 0 0 0 0 0 0 0 0 0 0 0 0 0 0 0 0 0 0 0 0 0 0 0 0 0 0 0 0 0 0 0 0 0 0 0 0 0 0 0 0 0 0 0 0 0 0 0 0 0 0 0 0 0 0 0 0 0 0 0 0 0 0 0 0 0 0 0 0 0 0 0 0 0 0 0 0 0 0 0 0 0 0 0 0 0 0 0 0 0 0 0 0 0 0 0 0 0 0 0 0 0 0 0 0 0 0 0 0 0 0 0 0 0 0 0 0 0 0 0 0 0 0 0 0 0 0 0 0 0 0 0 0 0 0 0 0 0 0 0 0 0 0 0 0 0 0 0 0 0 0 0 0 0 0 0 0 0 0 0 0 0 0 0 0 0 0 0 0 0 0 0 0 0 0 0 0 0 0 0 0 0 0 0 0 0 0 0 0 0 0 0 0 0 0 0 0 0 0 0 0 0 0 0 0 0 0 0 0 0 0 0 0 0 0 0 0 0 0 0 0 0 0 0 0 0 0 0 0 0 0 0 0 0 0 0 0 0 0 0 0 0 0 0 0 0 0 0 0 0 0 0 0 0 0 0 0 0 0 0 0 0 0 0 0 0 0 0 0 0 0 0 0 0 0 0 0 0 0 0 0 0 0 0 0 0 0 0 0 0 0 0 0 0 0 0 0 0 0 0 0 0 0 0 0 0 0 0 0 0 0 0 0 0 0 0 0 0 0 0 0 0 0 0 0 0 0 0 0 0 0 0 0 0 0 0 0
47 45 44 42 41 41 42 43 43 43 44 46 47 49 49 49 49 50 51 51 49 46 44 42 41 40 40 40 39 38 38 38 38 38 38 38 38 38 38 38 38 38 38 38 38 39 38 38 38 38 38 38 38 38 38 38 37 37 37 37 37 37 37 37 37 38 37 37 37 36 36 36 36 36 36 36 37 42 46 48 46 41 37 35 35 35 35 37 37 38 36 35 35 33 33 33 33 34 34 34 33 33 33 31 28 28 28 28 28 28 27 28 28 28 28 28 28 28 28 28 28 28 28 28 29 30 30 29 29 29 29 29 29 29 29 28 28 28 29 29 30 32 35 34 32 29 32 29 29 28 28 29 30 29 27 25 25 26 27 26 25 25 26 27 29 30 30 30 30 30 30 30 29 27 27 27 26 26 26 26 26 26 26 26 26 26 26 27 27 26 27 27 27 27 28 31 32 32 33 33 34 34 35 35 35 34 33 34 35 35 36 38 39 39 39 39 39 38 36 32 32 32 32 32 32 33 36 42 49 53 57 62 63 63 62 60 56 53 51 47 41 33 29 26 25 25 25 25 25 25 25 25 25 25 25 25 25 25 26 30 32 35 36 36 35 34 32 32 32 32 32 32 32 31 31 30 28 26 24 20 17 16 14 10 7 7 6 6 7 8 8 7 5 4 3 3 5 11 14 15 15 15 14 10 8 8 8 9 8 8 8 8 8 8 9 10 10 12 15 20 24 29 33 34 33 33 32 31 29 27 27 26 25 25 24 23 22 20 17 17 17 17 17 17 18 21 22 22 24 25 25 24 23 23 23 21 20 20 19 18 18 19 20 20 20 19 17 16 15 14 14 14 14 14 14 14 14 14 12 11 11 13 14 12 11 11 11 11 11 11 11 11 11 11 11 11 11 11 11 11 11 11 11 11 12 12 11 11 12 12 12 12 12 13 12 12 12 13 13 13 14 14 14 14 15 16 16 19 21 21 21 20 19 19 19 18 18 17 17 17 16 16 15 15 15 14 14 14 13 13 13 12 11 11 10 8 8 11 9 9 9 10 10 10 10 11 10 10 9 8 8 8 7 6 6 6 6 6 5 5 5 6 8 7 7 7 8 9 10 11 11 11 11 11 12 12 12 10 9 8 8 8 7 5 5 5 4 4 4 4 4 4 4 4 5 5 5 5 5 5 4 4 4 4 3 3 3 3 2 2 2 2 2 2 1 1 1 1 1 1 1 1 1 1 1 1 1 1 1 1 1 1 1 1 1 1 1 1 1 1 1 1 1 1 1 1 0 0 0 0 0 0 0 0 0 0 1 1 1 1 2 2 2 2 2 3 2 0 0 0 0 0 0 0 0 0 0 0 0 0 0 0 0 0 0 0 0 0 0 0 0 0 0 0 0 0 0 0 0 0 0 0 0 0 0 0 0 0 0 0 0 0 0 0 0 0 0 0 0 0 0 0 0 0 0 0 0 0 0 0 0 0 0 0 0 0 0 0 0 0 0 0 0 0 0 0 0 0 0 0 0 0 0 0 0 0 0 0 0 0 0 0 0 0 0 0 0 0 0 0 0 0 0 0 0 0 0 0 0 0 0 0 0 0 0 0 0 0 0 0 0 0 0 0 0 0 0 0 0 0 0 0 0 0 0 0 0 0 0 0 0 0 0 0 0 0 0 0 0 0 0 0 0 0 0 0 0 0 0 0 0 0 0 0 0 0 0 0 0 0 0 0 0 0 0 0 0 0 0 0 0 0 0 0 0 0 0 0 0 0 0 0 0 0 0 0 0 0 0 0 0 0 0 0 0 0 0 0 0 0 0 0 0 0 0 0 0 0 0 0 0 0 0 0 0 0 0 0 0 0 0 0 0 0 0 0 0 0 0 0 0 0 0 0 0 0 0 0 0 0 0 0 0 0 0 0 0 0 0 0 0 0 0 0 0 0 0 0 0 0 0 0 0 0 0 0 0 0 0 0 0 0 0 0 0 0 0 0 0 0 0 0 0 0 0 0 0 0 0 0 0 0 0 0 0 0 0 0 0 0 0 0 0 0 0 0 0 0 0 0 0 0 0 0 0 0 0 0 0 0 0 0 0 0 0 0 0 0 0 0 0 0 0 0
48 45 44 43 41 41 41 42 42 42 42 43 44 46 47 48 49 50 50 50 50 48 46 44 42 40 40 40 38 38 38 38 38 38 39 39 40 39 39 39 38 38 38 38 38 39 38 38 38 38 38 38 37 37 37 37 37 37 37 37 37 37 37 37 37 37 37 37 37 36 35 35 35 35 35 35 36 38 42 44 43 40 36 35 35 35 35 38 38 38 36 36 35 34 33 33 34 34 34 34 33 33 33 32 31 29 28 28 28 28 28 28 28 28 28 28 28 28 28 28 28 27 27 27 28 29 29 29 29 29 29 28 28 28 29 28 28 28 29 31 33 35 35 30 29 29 29 29 29 28 28 28 28 27 25 25 25 25 25 25 25 26 28 30 31 32 31 31 31 31 30 30 29 28 27 27 26 26 26 26 26 26 26 26 27 27 26 26 26 26 26 27 27 27 28 30 31 31 32 32 33 33 34 35 35 34 34 34 35 35 36 38 39 39 39 39 39 38 37 35 32 32 32 32 32 32 34 41 48 53 58 64 67 67 66 64 62 60 57 52 46 39 32 28 26 25 25 25 25 25 25 25 25 25 25 25 25 25 27 32 35 38 39 39 37 34 32 32 32 32 32 32 32 31 31 30 29 28 26 23 19 16 14 11 8 6 5 5 6 6 5 4 4 4 3 3 6 12 14 15 15 14 13 10 8 8 10 11 10 10 9 9 9 9 10 10 11 14 19 25 30 34 37 38 38 35 33 31 28 27 25 25 24 24 23 22 21 19 17 17 17 17 17 17 18 21 22 23 24 24 24 24 23 23 23 21 20 20 19 17 16 17 18 19 19 17 16 15 14 14 14 14 13 14 14 15 14 14 11 11 11 13 14 12 12 12 11 11 11 11 11 11 11 11 11 11 11 11 11 11 11 11 11 10 11 11 11 11 11 12 12 12 12 12 12 12 12 12 13 13 13 14 14 15 16 16 17 20 21 21 21 19 19 19 18 18 18 17 16 16 16 16 15 15 15 14 14 14 13 13 13 12 11 11 10 9 9 11 8 8 9 9 10 10 10 10 10 9 8 7 7 7 6 5 5 5 5 5 5 5 5 5 6 6 6 7 8 10 12 12 11 11 11 11 12 12 12 10 8 8 8 8 7 5 5 5 4 3 3 3 5 5 5 3 4 5 4 5 4 4 3 3 3 3 2 2 2 3 3 3 3 3 3 2 1 1 1 1 1 1 1 1 1 1 1 1 1 1 1 1 1 1 1 1 1 1 1 1 1 1 1 1 1 1 1 1 0 0 0 0 0 0 0 0 0 0 1 1 1 1 2 2 2 2 2 3 2 0 0 0 0 0 0 0 0 0 0 0 0 0 0 0 0 0 0 0 0 0 0 0 0 0 0 0 0 0 0 0 0 0 0 0 0 0 0 0 0 0 0 0 0 0 0 0 0 0 0 0 0 0 0 0 0 0 0 0 0 0 0 0 0 0 0 0 0 0 0 0 0 0 0 0 0 0 0 0 0 0 0 0 0 0 0 0 0 0 0 0 0 0 0 0 0 0 0 0 0 0 0 0 0 0 0 0 0 0 0 0 0 0 0 0 0 0 0 0 0 0 0 0 0 0 0 0 0 0 0 0 0 0 0 0 0 0 0 0 0 0 0 0 0 0 0 0 0 0 0 0 0 0 0 0 0 0 0 0 0 0 0 0 0 0 0 0 0 0 0 0 0 0 0 0 0 0 0 0 0 0 0 0 0 0 0 0 0 0 0 0 0 0 0 0 0 0 0 0 0 0 0 0 0 0 0 0 0 0 0 0 0 0 0 0 0 0 0 0 0 0 0 0 0 0 0 0 0 0 0 0 0 0 0 0 0 0 0 0 0 0 0 0 0 0 0 0 0 0 0 0 0 0 0 0 0 0 0 0 0 0 0 0 0 0 0 0 0 0 0 0 0 0 0 0 0 0 0 0 0 0 0 0 0 0 0 0 0 0 0 0 0 0 0 0 0 0 0 0 0 0 0 0 0 0 0 0 0 0 0 0 0 0 0 0 0 0 0 0 0 0 0 0 0 0 0 0 0 0 0 0 0 0 0 0 0 0 0 0 0 0 0 0 0 0 0 0
48 46 44 42 41 41 41 41 41 41 41 41 42 43 46 47 48 48 49 49 49 48 46 45 43 41 41 40 39 39 39 40 40 41 42 42 42 42 42 41 40 40 38 37 37 39 39 38 38 38 38 37 37 37 37 37 37 37 37 37 37 37 37 37 37 37 37 36 36 36 35 35 35 35 35 35 35 35 38 41 41 40 36 35 35 35 35 37 37 38 37 36 36 35 34 34 34 34 34 34 34 34 34 33 33 32 30 29 28 28 28 28 28 28 28 28 28 28 28 28 28 27 27 27 28 28 28 28 28 29 29 28 28 28 29 29 29 29 29 30 31 32 33 29 29 29 29 29 29 28 28 28 27 26 25 25 25 25 25 25 25 26 29 30 31 32 32 32 32 31 30 30 30 29 29 28 27 27 27 27 27 27 27 26 26 26 26 26 26 26 26 26 26 27 28 28 29 30 30 31 32 33 33 34 34 34 34 35 36 36 37 38 39 39 39 39 39 38 37 36 34 34 33 32 32 32 32 37 46 53 58 63 68 69 70 68 67 64 62 57 51 43 35 30 27 25 25 25 25 25 25 25 25 25 25 25 25 25 27 33 39 42 41 40 38 35 33 33 32 32 31 31 31 31 31 31 30 28 27 24 20 17 15 11 9 6 4 4 4 4 4 4 4 4 4 5 9 13 15 15 15 14 13 10 8 10 11 12 12 12 12 12 12 11 10 11 12 15 22 29 34 38 41 43 42 39 35 31 28 27 25 23 23 22 22 21 19 18 17 17 17 17 17 17 19 21 22 23 25 24 24 24 24 24 23 21 20 19 19 17 15 15 17 18 18 16 15 14 14 13 13 13 13 13 14 14 14 13 11 11 12 14 14 13 13 13 11 11 11 11 11 11 11 11 11 11 11 11 11 11 11 11 11 10 10 10 10 11 11 11 11 11 11 11 11 11 11 12 13 13 13 15 15 15 16 17 17 19 20 20 21 19 19 19 18 17 17 17 16 16 16 16 16 16 15 15 15 14 13 13 13 13 12 12 11 9 9 10 8 8 8 9 9 9 9 9 9 9 7 5 5 5 5 5 5 5 5 5 5 5 5 5 6 6 6 8 9 11 12 12 11 11 11 10 12 12 11 9 8 7 7 7 6 5 5 5 3 3 3 3 4 4 4 2 3 3 4 4 4 4 4 3 3 3 2 2 2 3 3 3 4 4 3 2 2 1 1 1 1 1 1 1 1 1 1 1 1 1 1 1 1 1 1 1 1 1 1 1 1 1 1 1 1 1 1 0 0 0 0 0 0 0 0 0 0 1 1 1 1 1 2 2 2 2 2 3 2 0 0 0 0 0 0 0 0 0 0 0 0 0 0 0 0 0 0 0 0 0 0 0 0 0 0 0 0 0 0 0 0 0 0 0 0 0 0 0 0 0 0 0 0 0 0 0 0 0 0 0 0 0 0 0 0 0 0 0 0 0 0 0 0 0 0 0 0 0 0 0 0 0 0 0 0 0 0 0 0 0 0 0 0 0 0 0 0 0 0 0 0 0 0 0 0 0 0 0 0 0 0 0 0 0 0 0 0 0 0 0 0 0 0 0 0 0 0 0 0 0 0 0 0 0 0 0 0 0 0 0 0 0 0 0 0 0 0 0 0 0 0 0 0 0 0 0 0 0 0 0 0 0 0 0 0 0 0 0 0 0 0 0 0 0 0 0 0 0 0 0 0 0 0 0 0 0 0 0 0 0 0 0 0 0 0 0 0 0 0 0 0 0 0 0 0 0 0 0 0 0 0 0 0 0 0 0 0 0 0 0 0 0 0 0 0 0 0 0 0 0 0 0 0 0 0 0 0 0 0 0 0 0 0 0 0 0 0 0 0 0 0 0 0 0 0 0 0 0 0 0 0 0 0 0 0 0 0 0 0 0 0 0 0 0 0 0 0 0 0 0 0 0 0 0 0 0 0 0 0 0 0 0 0 0 0 0 0 0 0 0 0 0 0 0 0 0 0 0 0 0 0 0 0 0 0 0 0 0 0 0 0 0 0 0 0 0 0 0 0 0 0 0 0 0 0 0 0 0 0 0 0 0 0 0 0 0 0 0 0 0 0 0 0 0 0 0
49 47 44 42 41 41 41 41 41 41 41 41 41 41 44 46 47 47 47 47 47 47 46 45 44 41 41 40 40 40 40 41 42 43 44 44 44 44 43 43 42 41 40 38 37 39 39 38 38 38 38 37 37 37 37 37 38 38 37 37 36 36 37 37 37 37 37 36 36 36 35 35 34 34 34 34 34 34 35 39 40 40 36 35 35 35 35 36 38 39 37 36 36 35 35 35 34 34 34 34 34 34 34 34 33 33 33 32 31 29 28 27 27 27 28 28 28 28 28 28 28 28 28 28 28 28 28 28 28 28 28 28 29 29 29 29 29 29 29 29 29 28 28 28 28 28 28 28 29 28 28 28 27 26 25 25 25 25 25 25 25 26 29 29 30 31 30 31 32 32 31 31 30 30 29 28 27 27 27 26 26 26 26 26 26 26 26 26 26 25 26 26 26 27 27 28 28 29 30 30 32 33 33 34 35 35 35 36 36 36 37 38 38 39 40 40 40 38 37 36 35 35 34 33 32 32 32 34 41 49 56 62 67 69 71 72 70 68 65 61 56 47 39 32 29 27 25 25 25 25 25 25 25 25 25 24 24 24 26 32 40 42 41 40 37 35 33 33 32 31 31 31 31 31 31 30 30 29 27 25 21 18 15 11 9 7 4 4 4 4 4 4 4 4 6 11 14 15 15 16 15 14 13 9 8 11 12 12 13 14 14 14 14 13 11 11 13 17 25 32 37 42 45 47 47 43 38 33 29 27 25 23 21 21 20 19 19 18 17 17 18 19 19 19 20 21 23 23 25 24 24 24 24 24 23 21 20 18 18 16 15 14 15 16 15 15 14 14 14 13 13 13 13 13 13 14 13 12 11 11 12 14 13 13 13 12 12 11 11 11 11 11 11 11 11 11 11 11 11 10 10 10 10 9 9 9 9 10 10 10 10 10 10 11 11 11 11 12 13 13 13 14 14 15 16 17 17 19 20 20 21 20 19 19 18 17 17 16 15 15 15 15 15 15 15 15 15 14 13 13 13 13 12 12 11 10 10 10 8 8 8 8 8 8 8 8 8 8 7 5 5 5 5 5 5 5 5 5 5 5 5 5 7 7 7 9 11 12 12 11 11 11 9 10 11 11 10 8 7 7 6 6 5 4 4 4 3 2 2 2 2 2 2 2 2 3 3 4 4 4 5 5 5 4 3 2 2 3 4 4 4 3 2 2 2 2 2 1 1 1 1 1 1 1 1 1 1 1 1 1 1 1 1 1 1 1 1 1 1 1 1 1 1 1 1 0 0 0 0 0 0 0 0 0 0 1 1 1 1 1 2 2 2 2 2 3 2 0 0 0 0 0 0 0 0 0 0 0 0 0 0 0 0 0 0 0 0 0 0 0 0 0 0 0 0 0 0 0 0 0 0 0 0 0 0 0 0 0 0 0 0 0 0 0 0 0 0 0 0 0 0 0 0 0 0 0 0 0 0 0 0 0 0 0 0 0 0 0 0 0 0 0 0 0 0 0 0 0 0 0 0 0 0 0 0 0 0 0 0 0 0 0 0 0 0 0 0 0 0 0 0 0 0 0 0 0 0 0 0 0 0 0 0 0 0 0 0 0 0 0 0 0 0 0 0 0 0 0 0 0 0 0 0 0 0 0 0 0 0 0 0 0 0 0 0 0 0 0 0 0 0 0 0 0 0 0 0 0 0 0 0 0 0 0 0 0 0 0 0 0 0 0 0 0 0 0 0 0 0 0 0 0 0 0 0 0 0 0 0 0 0 0 0 0 0 0 0 0 0 0 0 0 0 0 0 0 0 0 0 0 0 0 0 0 0 0 0 0 0 0 0 0 0 0 0 0 0 0 0 0 0 0 0 0 0 0 0 0 0 0 0 0 0 0 0 0 0 0 0 0 0 0 0 0 0 0 0 0 0 0 0 0 0 0 0 0 0 0 0 0 0 0 0 0 0 0 0 0 0 0 0 0 0 0 0 0 0 0 0 0 0 0 0 0 0 0 0 0 0 0 0 0 0 0 0 0 0 0 0 0 0 0 0 0 0 0 0 0 0 0 0 0 0 0 0 0 0 0 0 0 0 0 0 0 0 0 0 0 0 0 0 0 0 0
50 47 45 43 41 41 41 41 41 41 41 41 41 41 42 44 46 47 46 46 46 46 46 45 43 42 42 40 40 40 41 43 44 45 45 46 46 45 45 45 44 43 42 41 39 39 38 38 38 38 38 38 37 37 37 37 37 37 37 37 36 36 37 37 37 37 36 36 35 35 35 35 34 34 34 34 34 33 33 36 39 39 36 35 35 35 35 36 39 39 37 35 35 35 35 35 35 35 35 35 35 35 35 34 34 33 33 32 32 31 29 27 27 27 28 28 28 28 28 28 28 28 28 28 28 28 28 28 28 28 28 28 29 29 30 30 30 29 29 29 29 29 28 28 28 28 28 28 29 28 28 28 27 27 27 27 27 28 27 26 26 26 28 28 29 30 29 29 30 32 32 32 31 30 30 29 27 27 27 26 26 26 26 26 26 26 26 26 26 25 26 26 26 26 27 27 27 29 30 31 32 33 34 34 34 34 35 36 37 37 37 38 38 39 40 40 40 38 37 37 37 37 35 35 33 32 32 32 36 44 52 60 65 69 71 73 73 71 68 65 59 51 43 37 32 29 25 25 25 25 25 25 25 25 25 24 24 24 26 30 36 39 39 38 36 34 32 31 31 31 30 30 30 30 30 30 30 29 29 26 21 18 15 12 9 7 5 5 7 5 4 4 4 5 10 14 14 16 16 16 15 14 13 9 8 10 12 14 14 14 15 16 16 15 13 13 14 19 27 33 39 44 48 50 50 46 41 34 29 27 25 23 22 21 20 20 19 19 19 20 20 20 20 20 21 22 23 23 25 25 25 24 24 24 24 21 19 18 16 15 14 14 14 14 14 14 13 13 13 13 13 13 12 13 13 13 11 11 11 11 12 13 13 13 13 12 12 12 12 11 11 11 11 11 10 10 10 11 11 10 10 10 10 9 9 9 8 8 8 9 10 10 10 10 11 11 11 12 13 13 13 14 14 15 16 17 17 19 20 21 21 20 19 19 18 17 17 16 15 15 14 14 15 15 15 15 15 14 13 13 13 13 12 11 11 11 10 10 8 8 8 8 7 7 7 7 6 6 5 5 5 5 5 5 5 5 5 5 5 5 5 6 7 9 9 10 12 12 12 10 10 10 8 9 11 10 8 6 6 6 6 6 5 4 3 3 2 2 2 2 2 2 2 2 2 3 4 4 5 5 6 6 5 5 3 3 3 4 4 4 4 2 2 2 2 2 2 2 1 1 1 1 1 1 1 1 1 1 1 1 1 1 1 1 1 1 1 1 1 1 1 1 1 1 1 0 0 0 0 0 0 0 0 0 0 1 1 1 1 1 2 2 2 2 2 3 2 0 0 0 0 0 0 0 0 0 0 0 0 0 0 0 0 0 0 0 0 0 0 0 0 0 0 0 0 0 0 0 0 0 0 0 0 0 0 0 0 0 0 0 0 0 0 0 0 0 0 0 0 0 0 0 0 0 0 0 0 0 0 0 0 0 0 0 0 0 0 0 0 0 0 0 0 0 0 0 0 0 0 0 0 0 0 0 0 0 0 0 0 0 0 0 0 0 0 0 0 0 0 0 0 0 0 0 0 0 0 0 0 0 0 0 0 0 0 0 0 0 0 0 0 0 0 0 0 0 0 0 0 0 0 0 0 0 0 0 0 0 0 0 0 0 0 0 0 0 0 0 0 0 0 0 0 0 0 0 0 0 0 0 0 0 0 0 0 0 0 0 0 0 0 0 0 0 0 0 0 0 0 0 0 0 0 0 0 0 0 0 0 0 0 0 0 0 0 0 0 0 0 0 0 0 0 0 0 0 0 0 0 0 0 0 0 0 0 0 0 0 0 0 0 0 0 0 0 0 0 0 0 0 0 0 0 0 0 0 0 0 0 0 0 0 0 0 0 0 0 0 0 0 0 0 0 0 0 0 0 0 0 0 0 0 0 0 0 0 0 0 0 0 0 0 0 0 0 0 0 0 0 0 0 0 0 0 0 0 0 0 0 0 0 0 0 0 0 0 0 0 0 0 0 0 0 0 0 0 0 0 0 0 0 0 0 0 0 0 0 0 0 0 0 0 0 0 0 0 0 0 0 0 0 0 0 0 0 0 0 0 0 0 0 0 0 0
50 47 45 43 41 41 41 41 41 41 41 41 41 41 41 41 44 45 45 45 44 45 46 44 42 43 43 43 43 42 42 44 45 46 46 47 48 47 47 47 47 46 44 43 42 40 39 38 38 38 38 38 38 38 38 37 37 37 37 37 37 37 37 37 37 37 36 35 35 35 35 35 35 34 33 33 33 33 33 33 36 38 37 35 35 35 35 37 39 38 36 35 35 35 35 35 35 35 35 35 35 35 35 35 34 33 33 32 31 31 30 28 28 28 27 28 28 28 27 27 28 28 28 28 28 28 28 28 28 28 28 28 28 29 31 30 30 30 29 29 29 29 29 29 29 29 29 29 29 28 28 28 27 27 27 28 28 28 28 28 27 27 28 28 28 29 28 28 30 32 32 32 31 30 30 29 28 27 27 26 26 26 26 25 26 26 26 26 26 26 25 26 26 26 27 27 27 29 30 32 33 34 35 34 34 34 35 36 37 37 38 38 38 39 40 40 40 38 37 37 38 38 36 35 34 32 32 32 33 39 47 56 62 67 70 73 74 74 71 68 63 55 48 41 35 32 28 25 25 25 25 25 25 24 24 24 24 24 26 29 32 35 37 37 36 34 31 30 30 30 29 29 29 29 29 29 30 29 29 26 21 19 17 13 10 7 5 7 8 9 7 5 5 8 13 14 15 16 16 16 15 14 13 10 9 11 12 14 14 15 15 16 16 15 15 15 16 20 27 33 39 44 48 51 51 48 42 36 30 27 25 24 23 21 21 21 21 21 21 21 21 21 21 21 22 23 24 24 25 25 25 24 24 24 24 21 19 17 15 14 14 14 13 13 13 13 13 13 13 13 13 12 12 12 12 12 11 11 11 11 12 12 13 12 12 12 11 11 11 12 11 11 11 10 10 10 10 10 10 10 10 10 10 9 9 9 8 8 8 8 9 10 10 10 10 10 11 12 13 13 13 14 14 14 15 16 17 19 21 21 21 20 19 19 18 17 17 16 15 15 14 14 14 14 14 14 14 14 13 12 12 12 11 11 11 11 11 11 9 8 8 7 7 6 6 6 5 5 5 6 6 6 6 6 6 6 5 5 5 5 6 7 8 9 10 11 12 12 11 10 9 8 8 7 7 7 7 6 6 6 6 6 5 4 3 3 2 2 2 2 2 2 2 2 3 3 4 4 4 5 5 5 4 4 3 3 3 4 3 3 3 1 1 1 2 2 2 2 1 1 1 1 1 1 1 1 1 1 1 1 1 1 1 1 1 1 1 1 1 1 1 1 1 1 1 0 0 0 0 0 0 0 0 0 0 1 1 1 1 1 2 2 2 2 2 3 2 0 0 0 0 0 0 0 0 0 0 0 0 0 0 0 0 0 0 0 0 0 0 0 0 0 0 0 0 0 0 0 0 0 0 0 0 0 0 0 0 0 0 0 0 0 0 0 0 0 0 0 0 0 0 0 0 0 0 0 0 0 0 0 0 0 0 0 0 0 0 0 0 0 0 0 0 0 0 0 0 0 0 0 0 0 0 0 0 0 0 0 0 0 0 0 0 0 0 0 0 0 0 0 0 0 0 0 0 0 0 0 0 0 0 0 0 0 0 0 0 0 0 0 0 0 0 0 0 0 0 0 0 0 0 0 0 0 0 0 0 0 0 0 0 0 0 0 0 0 0 0 0 0 0 0 0 0 0 0 0 0 0 0 0 0 0 0 0 0 0 0 0 0 0 0 0 0 0 0 0 0 0 0 0 0 0 0 0 0 0 0 0 0 0 0 0 0 0 0 0 0 0 0 0 0 0 0 0 0 0 0 0 0 0 0 0 0 0 0 0 0 0 0 0 0 0 0 0 0 0 0 0 0 0 0 0 0 0 0 0 0 0 0 0 0 0 0 0 0 0 0 0 0 0 0 0 0 0 0 0 0 0 0 0 0 0 0 0 0 0 0 0 0 0 0 0 0 0 0 0 0 0 0 0 0 0 0 0 0 0 0 0 0 0 0 0 0 0 0 0 0 0 0 0 0 0 0 0 0 0 0 0 0 0 0 0 0 0 0 0 0 0 0 0 0 0 0 0 0 0 0 0 0 0 0 0 0 0 0 0 0 0 0 0 0 0 0
50 47 46 44 42 41 43 44 42 41 41 41 41 41 41 41 42 45 45 44 43 43 43 41 41 41 41 43 43 43 43 44 45 46 47 48 49 49 48 49 48 47 46 45 44 42 40 38 38 38 38 38 38 38 38 37 36 36 36 36 36 36 37 37 37 36 35 35 35 35 35 35 34 34 33 33 33 33 33 32 33 37 36 34 35 35 35 38 36 35 35 35 35 35 35 35 35 35 36 36 36 36 35 35 35 34 34 33 32 31 31 29 28 28 27 28 28 28 27 27 28 28 28 28 28 28 28 28 28 28 28 28 28 28 29 31 30 30 30 30 30 29 29 29 29 29 29 29 28 28 28 28 27 27 27 28 28 28 28 28 28 28 28 28 28 28 28 28 30 32 32 32 31 30 30 30 29 28 27 27 26 26 26 25 26 26 26 26 26 26 25 26 26 26 26 26 27 29 31 33 34 36 36 34 34 34 35 36 37 37 38 39 39 40 40 40 40 38 38 38 38 38 37 36 34 32 32 32 32 35 42 50 59 65 69 72 74 76 74 70 66 60 53 46 40 34 30 27 25 25 25 25 24 24 24 24 24 24 24 28 29 32 35 35 35 33 30 29 29 29 28 28 29 29 29 29 29 29 28 26 21 18 16 13 10 6 5 7 9 10 11 11 11 12 14 14 15 16 16 16 14 13 12 11 11 11 12 14 14 15 16 16 16 17 17 17 18 20 27 32 38 44 48 51 53 50 45 38 32 28 27 25 24 24 23 23 23 23 23 22 22 22 23 23 23 24 24 24 25 25 25 24 24 24 24 21 19 17 15 14 14 14 13 13 13 13 13 13 13 13 13 11 12 12 12 12 11 11 12 13 13 13 13 12 12 12 11 11 11 12 11 11 11 10 10 10 10 10 10 11 11 11 11 12 12 12 9 8 8 8 9 9 9 9 10 10 10 12 13 13 13 13 13 14 15 15 15 18 20 20 20 20 19 19 18 17 17 16 15 15 14 14 14 14 14 14 14 13 12 12 12 11 11 11 11 11 11 11 10 9 8 7 6 6 6 5 5 6 8 9 9 8 7 6 6 6 5 5 5 5 6 7 8 9 10 11 12 11 10 9 8 8 8 7 7 7 6 6 6 6 5 5 5 4 3 3 2 2 3 3 2 2 2 2 2 3 4 3 4 4 4 3 3 3 3 3 2 2 2 2 1 1 1 1 2 2 2 2 2 2 1 1 1 1 1 1 1 1 1 1 1 1 1 1 1 1 1 1 1 1 1 1 1 1 1 0 0 0 0 0 0 0 1 1 1 1 1 1 1 1 2 2 2 2 2 3 2 0 0 0 0 0 0 0 0 0 0 0 0 0 0 0 0 0 0 0 0 0 0 0 0 0 0 0 0 0 0 0 0 0 0 0 0 0 0 0 0 0 0 0 0 0 0 0 0 0 0 0 0 0 0 0 0 0 0 0 0 0 0 0 0 0 0 0 0 0 0 0 0 0 0 0 0 0 0 0 0 0 0 0 0 0 0 0 0 0 0 0 0 0 0 0 0 0 0 0 0 0 0 0 0 0 0 0 0 0 0 0 0 0 0 0 0 0 0 0 0 0 0 0 0 0 0 0 0 0 0 0 0 0 0 0 0 0 0 0 0 0 0 0 0 0 0 0 0 0 0 0 0 0 0 0 0 0 0 0 0 0 0 0 0 0 0 0 0 0 0 0 0 0 0 0 0 0 0 0 0 0 0 0 0 0 0 0 0 0 0 0 0 0 0 0 0 0 0 0 0 0 0 0 0 0 0 0 0 0 0 0 0 0 0 0 0 0 0 0 0 0 0 0 0 0 0 0 0 0 0 0 0 0 0 0 0 0 0 0 0 0 0 0 0 0 0 0 0 0 0 0 0 0 0 0 0 0 0 0 0 0 0 0 0 0 0 0 0 0 0 0 0 0 0 0 0 0 0 0 0 0 0 0 0 0 0 0 0 0 0 0 0 0 0 0 0 0 0 0 0 0 0 0 0 0 0 0 0 0 0 0 0 0 0 0 0 0 0 0 0 0 0 0 0 0 0 0 0 0 0 0 0 0 0 0 0 0 0 0 0 0 0 0 0 0 0 0
