ncols         746
nrows         32
xllcorner     -72.4103611111
yllcorner     42.51145
cellsize      1.0E-5
NODATA_value  -9999
251 250 249 247 245 243 238 233 233 233 234 234 234 234 235 237 238 241 247 252 257 262 264 264 263 259 252 245 239 234 231 228 229 233 237 240 242 240 239 239 239 239 238 235 233 233 233 233 234 234 233 231 228 224 220 216 212 206 199 191 184 178 175 174 172 169 165 161 158 156 154 154 152 153 159 168 176 179 180 179 179 180 179 175 171 172 178 189 199 207 211 214 215 215 214 214 217 220 222 224 226 229 230 230 228 227 229 232 234 236 237 238 238 238 237 237 236 236 238 245 255 263 269 275 276 278 280 283 287 289 292 295 298 300 300 300 300 301 302 301 300 302 305 307 306 306 306 304 302 299 301 303 306 310 312 314 316 319 324 328 328 325 321 316 313 315 319 325 332 337 340 343 345 347 349 353 353 351 352 356 357 360 363 365 368 369 371 371 371 371 373 375 378 382 385 389 391 392 393 391 389 386 383 377 370 362 352 342 332 323 316 310 309 315 323 327 326 323 325 331 340 347 350 349 350 357 365 372 376 380 381 379 376 370 363 356 347 338 329 319 308 307 310 314 318 322 329 332 338 344 352 358 365 368 369 364 358 345 335 330 325 328 335 341 347 352 356 360 362 365 367 368 371 372 372 370 369 369 369 369 368 367 367 367 368 369 372 372 367 364 362 361 359 358 357 357 358 358 360 362 364 365 363 361 359 357 355 354 352 351 350 349 348 347 346 344 344 342 341 341 340 340 340 341 341 341 343 343 345 346 347 349 350 351 353 354 356 358 360 359 360 361 361 361 359 359 359 359 360 363 364 366 366 367 369 369 368 367 367 365 362 359 356 354 354 352 349 343 336 329 322 315 305 294 285 275 267 258 249 245 247 254 262 269 269 265 262 259 259 256 253 250 247 243 237 232 229 227 226 224 222 218 214 211 210 210 210 211 211 214 217 219 222 224 229 236 241 247 252 258 264 268 272 274 278 281 285 288 290 292 293 294 297 301 305 310 312 313 316 317 316 315 314 314 314 315 316 317 316 314 313 312 310 306 303 302 300 297 296 294 292 289 285 281 279 279 279 277 274 268 262 260 260 263 265 268 273 278 286 293 299 306 313 322 329 336 343 349 353 358 363 366 366 364 363 362 362 362 364 365 366 367 367 369 371 370 366 362 359 357 357 356 353 351 351 348 346 343 340 337 333 330 329 330 328 325 322 317 312 306 305 306 308 312 312 312 312 310 309 308 307 306 305 304 303 302 298 295 293 292 293 295 299 302 305 307 307 304 299 296 296 296 296 296 296 296 296 295 295 295 295 296 296 296 296 296 296 297 297 297 297 298 299 299 299 299 299 299 299 299 303 307 310 313 314 315 316 316 317 317 319 321 323 324 324 325 324 325 326 327 327 326 325 325 326 328 327 325 324 323 323 323 323 323 322 321 319 319 319 319 318 317 315 315 313 311 310 308 306 305 302 302 301 301 301 301 302 302 303 303 303 302 302 303 302 302 299 298 297 296 293 291 287 287 287 290 290 291 291 291 290 287 285 283 283 282 282 283 283 285 286 287 290 292 293 293 292 290 289 287 287 287 288 289 289 287 283 279 276 276 279 275 269 269 269 269 271 273 275 278 279 279 281 286 290 292 292 294 298 301 305 308 308 307 307 307 307 309 312 313 314 314 318 321 323 325 322 322 322 322 323 323 323 320 317 315
254 252 251 249 245 242 238 234 235 237 237 238 237 237 238 238 238 239 242 247 252 257 259 260 260 256 250 245 240 235 231 229 230 234 238 241 243 243 242 243 243 243 241 238 235 234 235 235 235 235 235 232 229 226 223 219 215 211 205 197 187 180 179 178 176 172 167 162 158 156 154 154 152 152 157 167 176 179 181 182 185 187 185 180 175 173 178 188 198 206 210 213 215 214 213 213 215 218 219 221 224 226 227 227 226 226 227 229 231 233 234 235 235 235 234 234 233 233 237 245 254 263 270 275 276 276 280 283 286 287 288 293 296 298 297 297 296 298 299 298 298 299 302 303 303 303 304 302 299 298 298 300 302 305 308 311 314 318 322 325 326 324 321 317 312 312 316 322 328 333 337 340 343 345 348 351 351 348 350 353 354 357 362 365 367 369 371 371 370 370 371 374 377 381 385 389 392 393 394 393 390 387 384 378 371 364 355 346 337 328 321 315 310 309 314 319 320 319 321 325 331 340 343 343 345 352 359 365 369 372 373 372 368 362 356 348 339 331 322 313 305 306 311 315 320 325 332 335 342 350 358 364 369 373 373 367 361 347 336 330 327 331 337 343 348 353 358 362 365 368 369 371 373 373 372 369 368 366 366 365 364 363 364 365 367 368 368 367 364 361 360 360 358 357 356 356 357 358 359 361 363 363 362 359 357 355 354 352 351 350 349 348 347 346 345 344 343 342 341 341 340 340 340 341 341 341 343 343 344 346 346 348 349 351 353 354 355 357 359 358 358 359 359 359 359 359 359 359 360 362 363 366 366 367 369 370 370 369 368 366 363 360 359 358 358 356 352 346 340 332 325 318 308 298 289 281 272 262 253 245 243 248 258 267 268 264 261 259 257 254 252 249 246 242 236 231 227 225 225 223 219 216 213 209 210 210 210 211 211 213 216 219 221 224 229 236 241 245 251 258 264 268 272 275 278 281 286 289 292 295 295 295 298 302 308 313 313 314 318 318 318 318 318 317 316 316 317 318 317 315 313 312 312 307 303 303 301 297 295 294 292 288 285 281 279 277 278 276 272 267 261 260 261 264 266 269 274 280 287 294 302 309 316 324 332 339 346 352 355 361 366 368 367 365 364 364 365 364 364 365 365 367 367 368 369 368 365 361 359 358 357 356 353 351 350 348 345 342 339 336 333 331 332 333 332 329 325 320 315 307 304 305 306 309 310 310 310 309 308 308 306 305 303 301 300 299 297 294 291 291 294 298 302 305 307 308 309 306 303 299 296 296 296 297 297 295 295 295 295 295 295 295 295 296 296 296 296 297 297 297 298 299 299 299 299 299 299 299 299 301 304 307 310 313 314 316 318 319 320 321 322 324 325 326 327 326 325 327 328 329 329 328 327 327 329 330 330 328 325 324 326 326 326 325 324 322 321 320 320 320 319 318 316 315 314 313 311 309 307 305 302 301 300 300 300 301 301 301 302 302 302 303 303 303 302 302 300 299 298 296 293 291 287 286 286 290 290 291 291 291 290 288 285 284 282 282 281 282 283 285 285 287 290 293 295 294 292 290 289 288 289 290 291 290 289 287 284 280 277 274 276 276 271 269 268 269 270 273 276 280 280 280 281 282 284 286 288 292 297 301 305 308 307 306 305 305 305 307 309 310 311 314 318 320 323 325 322 322 322 322 323 323 323 321 318 316
256 254 252 249 245 241 238 237 239 241 242 241 241 241 242 242 242 242 242 244 248 252 255 257 257 254 249 243 239 235 232 231 231 234 239 243 246 246 246 247 248 247 243 240 238 237 237 238 238 237 236 234 232 229 226 222 218 214 208 201 191 183 182 182 180 175 169 163 159 157 154 154 153 152 156 167 175 178 180 183 188 192 190 186 179 175 177 187 197 203 207 210 212 211 211 211 213 215 216 217 220 223 224 224 224 224 225 228 230 231 232 233 233 232 232 231 230 229 235 242 252 261 269 273 273 275 282 285 286 287 288 294 298 298 297 295 293 294 295 295 296 297 299 300 302 303 301 299 298 298 298 298 299 304 308 311 314 316 319 322 323 323 320 317 311 309 313 319 324 329 335 340 342 345 346 348 348 347 349 352 352 357 362 364 366 368 370 369 369 369 370 372 375 380 384 389 392 394 396 394 391 388 385 378 372 367 362 356 348 339 330 323 315 308 307 310 313 315 318 321 325 331 336 336 339 346 352 358 363 365 366 364 361 355 349 341 332 324 315 307 305 307 311 316 320 326 334 338 346 355 363 369 374 379 378 370 362 350 338 331 329 333 338 344 349 355 361 364 367 369 371 373 375 375 372 369 366 364 363 361 360 360 362 365 366 365 364 363 361 358 358 358 357 355 353 354 356 357 359 360 361 360 359 357 356 354 353 351 349 349 347 347 346 346 345 343 343 342 341 341 340 340 340 341 341 341 343 343 344 346 346 348 349 350 353 354 355 356 356 356 357 358 358 358 358 358 359 359 360 362 364 366 366 366 368 370 371 371 369 367 364 361 361 361 361 359 354 349 343 334 327 321 312 301 293 285 276 267 258 249 242 242 254 265 266 264 261 261 258 254 251 248 244 240 234 231 226 223 223 222 218 213 210 209 210 210 210 211 211 212 215 218 221 223 229 235 239 244 251 257 264 269 273 275 279 281 286 289 293 296 296 296 299 304 311 313 313 316 320 321 322 322 322 321 319 319 320 319 317 315 313 312 312 308 303 303 301 298 295 293 290 287 284 281 278 275 276 274 270 266 260 260 262 265 268 271 275 281 288 296 304 312 319 326 334 341 347 353 356 362 368 369 367 366 366 368 369 367 365 365 366 367 367 368 367 366 363 360 358 359 358 355 352 350 350 348 344 341 338 335 332 332 333 335 334 332 327 322 316 307 304 304 305 307 307 307 308 308 308 307 306 304 301 300 298 297 295 293 292 292 295 300 303 307 310 312 313 310 307 303 299 298 299 298 296 295 295 295 295 295 295 295 295 296 296 296 296 297 297 298 299 299 300 300 299 299 299 299 299 301 305 307 310 313 314 316 319 321 323 325 326 328 329 329 329 329 328 328 329 330 331 330 329 329 331 333 332 330 327 327 329 329 329 328 326 324 323 322 322 322 321 319 318 318 317 315 312 310 308 306 303 301 300 299 299 300 300 300 301 302 303 304 304 304 303 302 301 299 298 295 293 290 287 285 286 289 290 290 291 291 291 289 287 285 283 282 281 281 282 285 285 287 290 293 295 294 293 291 290 290 291 293 292 291 290 288 284 281 277 274 275 278 274 269 268 268 269 273 277 281 283 281 281 280 280 283 285 290 295 299 303 305 305 304 303 303 305 307 308 309 312 315 318 319 322 323 322 323 323 323 323 324 324 322 319 316
258 255 253 249 245 240 239 241 244 245 245 244 244 245 246 246 246 246 246 246 246 249 252 254 254 252 248 242 237 233 232 231 231 234 239 243 246 248 250 252 252 251 247 242 239 239 239 240 240 239 238 236 234 232 228 224 221 216 211 204 195 187 186 185 182 177 170 164 161 158 155 154 153 152 153 163 171 174 177 181 187 192 192 189 182 178 179 186 195 199 201 205 207 207 206 206 209 211 212 212 216 219 222 222 222 221 223 226 228 229 230 230 231 231 230 229 227 226 232 238 246 256 264 268 269 272 280 286 286 287 289 293 296 297 295 292 290 290 291 292 293 295 296 300 304 305 300 297 296 297 297 298 300 304 308 311 313 313 315 319 319 320 319 316 310 307 310 315 321 326 335 341 342 344 345 347 348 346 345 348 351 356 361 364 365 365 367 367 367 367 368 370 374 379 383 388 391 394 396 396 392 389 385 380 376 372 369 366 360 353 342 332 322 312 305 305 307 311 314 317 320 323 327 329 333 340 346 351 356 359 359 357 354 348 342 333 325 317 309 304 305 308 311 316 319 327 335 340 349 358 366 372 378 382 382 372 364 353 340 332 331 335 340 345 351 357 362 366 369 372 374 376 377 377 373 370 365 362 360 358 357 357 360 364 366 364 362 360 359 357 357 356 355 353 353 354 357 358 359 359 359 359 357 355 354 353 351 350 348 347 347 346 345 345 344 343 342 342 341 340 340 340 340 341 341 341 342 343 344 345 346 347 348 350 353 353 354 354 354 354 355 357 357 357 357 358 358 358 359 361 364 366 366 365 366 369 372 372 371 368 366 364 364 363 363 361 357 351 344 337 329 323 315 305 296 289 281 272 263 253 243 239 248 261 265 265 264 264 260 254 249 247 243 238 233 230 224 221 222 222 218 214 210 209 209 209 210 211 211 211 214 218 221 223 228 234 238 243 250 257 263 269 273 275 278 281 285 289 293 296 296 296 299 306 312 313 314 319 324 325 326 326 325 324 322 322 322 320 317 315 312 312 312 308 303 302 301 298 295 291 288 285 283 280 277 273 273 271 268 265 260 261 264 267 270 273 278 283 290 298 308 315 321 328 336 342 347 352 357 362 368 370 369 368 370 373 373 370 366 366 368 368 368 369 368 366 363 359 358 358 358 354 350 349 349 346 343 340 336 333 331 332 333 335 334 333 328 322 316 308 305 304 303 304 305 306 306 306 306 305 304 302 300 298 296 295 295 294 292 292 296 300 304 309 314 316 316 314 312 308 305 303 301 299 296 295 295 295 295 295 295 295 295 296 296 296 297 297 298 299 300 300 300 300 299 299 299 299 299 301 304 307 310 312 313 317 320 323 326 329 331 333 334 333 331 330 330 330 331 332 333 333 331 331 333 334 334 332 330 330 332 332 332 331 329 327 325 324 324 323 322 321 320 320 319 317 315 314 312 310 307 305 302 299 299 299 299 299 300 302 303 305 304 304 303 303 301 299 297 294 291 289 287 284 285 288 289 290 290 290 290 289 289 286 284 282 281 281 282 285 286 287 290 293 295 294 293 292 292 292 294 295 293 292 290 287 284 280 277 274 274 278 275 268 267 268 270 274 278 282 284 284 283 282 282 283 284 287 292 296 299 302 303 303 302 303 305 307 309 310 313 317 319 320 321 322 324 325 324 323 325 328 327 324 320 316
259 256 254 249 244 239 241 245 247 248 248 248 248 249 250 250 251 251 251 250 249 248 249 251 251 249 246 241 237 233 232 232 232 234 239 243 246 250 253 255 256 254 250 245 241 240 241 242 242 241 240 238 236 234 231 227 223 218 213 207 198 191 190 188 184 178 172 167 164 161 157 155 154 152 151 157 166 171 175 178 183 188 191 190 184 181 184 188 194 193 193 197 199 199 197 198 202 204 205 208 211 215 218 219 219 219 220 223 226 227 227 228 228 228 227 226 224 223 228 234 240 248 256 261 265 270 278 283 286 288 288 291 293 294 292 290 288 287 288 289 291 293 295 299 304 304 299 296 295 295 296 299 302 305 307 309 311 310 312 315 316 317 316 315 309 305 307 312 319 326 334 339 341 343 344 346 347 345 342 345 349 355 360 363 364 363 365 366 366 364 365 368 372 377 381 386 391 394 396 396 394 391 387 384 380 376 373 370 366 360 351 338 328 318 309 303 301 305 309 312 313 315 318 321 327 334 339 344 348 352 352 350 346 341 334 327 319 311 305 303 306 308 313 316 320 326 337 341 352 361 368 374 378 383 383 375 364 355 343 334 333 336 341 345 351 358 363 367 370 373 375 377 378 377 374 370 365 362 358 356 354 355 358 362 364 363 360 357 356 355 354 353 353 351 352 356 358 359 358 357 357 357 356 354 352 351 350 349 347 346 345 345 344 343 343 342 342 341 340 340 340 340 340 340 340 341 342 342 343 345 345 347 348 349 352 352 352 353 353 353 354 354 355 356 357 357 358 358 359 360 363 365 365 364 365 368 372 372 372 370 369 368 367 365 364 363 358 352 346 339 332 325 318 309 300 292 285 277 267 256 245 239 243 256 265 266 265 263 259 254 248 245 240 235 231 227 222 220 221 220 217 214 211 209 209 209 210 210 210 210 213 217 220 223 228 234 237 242 250 256 263 268 272 274 277 280 284 288 293 296 296 296 299 307 313 313 316 322 327 329 329 329 327 324 323 321 321 319 316 314 312 312 312 308 303 300 299 298 295 292 288 283 281 279 277 273 271 268 265 262 260 262 266 270 273 276 281 286 293 300 310 317 323 330 337 342 346 352 357 362 368 371 371 372 374 377 377 371 368 368 370 370 370 371 368 366 362 359 358 356 355 352 347 348 348 345 342 339 335 331 329 332 334 334 333 332 328 322 316 309 305 304 303 302 302 303 303 303 303 302 301 299 297 297 293 292 293 293 293 294 297 301 307 313 317 319 320 318 316 314 311 306 303 300 296 295 295 295 295 295 295 295 295 296 296 296 297 298 298 300 302 301 301 301 299 299 299 299 299 299 302 306 309 312 314 318 322 326 329 333 335 338 339 338 335 333 332 332 332 333 334 334 334 333 334 335 335 334 332 333 334 335 335 334 332 330 328 326 326 325 324 323 323 322 321 320 318 317 316 314 312 308 305 301 299 298 298 298 300 302 303 305 305 304 303 302 301 299 297 293 290 288 286 283 285 287 288 289 290 290 290 289 288 286 285 283 280 280 282 285 286 287 290 293 296 295 295 294 294 294 296 295 295 292 290 286 282 280 276 273 273 277 274 268 267 267 272 277 281 284 285 285 285 284 284 286 287 288 291 294 296 299 300 302 302 304 307 309 310 312 315 319 322 323 324 326 328 328 325 325 328 331 329 324 320 317
260 256 253 248 243 241 244 248 250 250 251 251 251 252 253 253 255 256 256 255 254 252 250 249 249 247 244 241 238 235 233 233 234 235 238 242 246 251 255 258 258 255 251 246 243 242 243 244 245 244 243 241 239 236 233 229 225 220 215 209 202 197 195 190 185 179 174 171 168 165 160 158 155 152 151 153 162 169 173 176 179 182 184 186 186 186 190 193 193 190 185 187 189 190 188 189 193 196 199 204 208 212 214 216 216 216 217 221 223 225 225 225 226 226 225 223 221 221 225 230 235 242 251 259 267 273 278 282 286 288 288 288 291 291 291 289 287 287 287 287 288 291 294 296 299 298 296 294 294 294 297 300 303 305 305 306 308 308 309 311 314 314 312 311 308 303 304 310 318 325 332 335 339 343 344 345 346 343 340 342 347 353 359 361 361 362 364 366 365 363 363 367 371 375 380 385 390 393 395 397 395 394 391 387 383 379 375 372 368 363 354 343 334 324 314 304 298 299 303 306 307 307 309 315 322 328 332 337 341 344 345 343 340 335 329 322 314 308 304 303 306 309 313 317 320 325 336 341 353 362 369 375 379 382 382 375 365 356 344 335 334 336 341 346 351 358 363 368 371 373 376 378 378 377 374 370 364 361 358 354 352 353 356 360 362 361 359 355 353 352 352 352 351 350 352 355 358 359 358 356 356 355 353 352 351 351 349 347 347 346 345 345 344 343 343 342 342 341 340 340 340 340 340 340 340 341 342 342 343 345 345 347 348 349 350 351 352 352 352 352 353 353 354 356 356 357 358 358 359 359 361 362 362 363 365 368 372 372 372 371 371 371 370 368 367 365 360 354 347 341 334 328 321 313 304 295 288 281 273 260 248 240 238 249 262 266 264 260 257 253 248 243 238 233 229 224 221 219 218 217 215 213 211 209 209 209 209 210 210 210 213 216 219 223 228 233 236 242 250 255 262 268 271 274 277 280 284 287 292 295 295 296 300 307 313 314 316 322 327 330 329 329 327 324 323 319 318 317 314 313 312 312 312 309 304 298 297 296 294 292 289 284 278 277 276 273 270 268 263 259 260 264 268 272 275 279 283 290 295 302 311 318 324 330 337 341 345 351 357 362 369 372 374 377 382 383 381 375 371 371 371 371 371 371 369 366 361 358 358 355 352 349 345 346 346 343 340 338 334 330 328 331 334 333 332 330 327 321 316 309 307 305 305 303 302 302 302 301 301 300 299 298 295 293 290 291 292 292 293 295 298 305 311 316 320 322 324 324 322 317 314 309 305 301 296 295 295 295 295 295 295 295 295 296 296 296 298 298 298 301 303 302 301 301 299 299 299 299 299 299 301 305 308 312 315 319 323 327 332 336 341 344 345 344 339 335 333 333 334 335 336 336 336 335 335 336 337 336 334 335 336 336 336 336 335 333 331 329 328 327 326 326 325 324 323 322 321 320 319 317 315 311 308 303 300 298 298 298 301 303 304 306 305 304 302 300 300 299 297 293 289 287 284 283 283 287 288 289 290 290 290 289 288 286 286 284 280 280 281 284 285 287 291 293 297 298 297 295 294 294 296 295 295 293 290 286 283 280 277 273 273 277 274 268 267 267 272 279 283 285 285 285 286 285 287 289 290 292 294 296 297 299 300 302 303 306 309 310 312 314 318 321 323 325 327 329 331 330 328 328 330 332 330 324 320 317
261 256 253 248 245 245 248 251 252 253 253 254 254 255 257 257 258 259 260 260 260 256 253 251 250 248 246 242 240 237 234 235 237 237 238 241 245 250 255 258 258 256 252 247 244 244 245 246 247 248 247 245 242 238 234 230 226 221 216 211 206 202 200 194 187 181 178 175 172 168 163 160 156 153 151 153 161 167 171 173 176 178 179 182 185 188 192 192 191 187 181 180 181 182 181 182 186 191 196 201 205 209 210 212 212 213 214 218 221 222 223 224 224 224 224 222 220 220 224 227 233 241 251 261 270 276 281 282 285 287 287 287 288 289 289 289 287 286 286 286 286 289 292 293 294 294 293 293 294 294 297 299 302 303 304 304 306 307 306 307 310 310 308 306 304 301 303 309 317 324 329 332 337 342 344 345 344 342 339 339 345 350 355 357 359 360 362 363 363 361 361 365 369 373 377 382 387 391 394 398 398 398 395 391 385 380 377 373 370 363 356 346 337 328 318 308 299 294 297 300 301 300 302 309 315 321 325 330 334 336 338 336 334 329 323 316 309 305 303 303 306 310 313 317 320 325 335 341 353 362 369 374 379 381 380 374 365 357 345 335 334 336 342 346 351 358 363 368 372 373 376 378 378 377 374 369 364 360 357 353 351 352 355 359 360 359 356 353 351 350 349 349 348 349 351 354 357 359 357 356 354 354 353 351 350 350 348 347 346 345 345 344 343 343 342 341 341 340 340 339 339 339 339 340 340 340 342 342 343 345 345 347 347 348 349 350 351 352 352 352 353 353 354 356 356 357 357 357 358 359 359 360 360 361 365 368 371 372 372 371 372 372 370 369 369 367 363 355 348 342 336 329 323 317 309 299 291 284 278 266 253 242 236 241 254 263 263 259 255 252 245 239 235 232 228 223 219 218 218 217 215 213 210 209 209 209 209 209 209 209 212 215 218 222 228 232 236 241 249 254 261 268 271 274 277 279 284 287 291 293 294 296 301 308 313 314 316 320 325 328 328 328 327 324 323 320 318 317 314 313 312 312 312 310 305 298 294 294 292 291 289 285 277 275 274 271 269 267 261 259 261 265 270 274 277 282 287 293 299 305 312 319 324 331 337 341 345 350 357 363 372 377 381 386 390 388 384 379 374 372 371 370 370 371 369 365 361 358 358 355 352 348 344 344 346 342 338 336 333 329 327 330 334 333 331 329 326 320 316 310 308 308 307 306 305 303 301 300 300 299 298 295 292 290 290 291 291 291 294 295 302 309 315 318 322 325 328 329 326 320 316 310 305 301 297 295 295 295 295 295 295 296 296 296 297 297 298 299 299 301 304 303 302 301 299 299 299 299 298 298 300 305 309 313 316 321 324 329 334 339 344 347 348 347 342 337 335 335 336 337 337 337 337 336 336 338 338 339 338 337 338 338 338 338 337 336 334 333 330 329 329 329 327 326 325 324 323 323 321 319 317 314 310 305 301 299 298 298 301 302 304 306 306 304 300 299 299 298 296 292 288 286 283 283 283 287 288 289 290 290 290 288 288 287 286 285 281 280 280 283 284 287 290 293 297 298 298 296 295 295 296 295 295 294 291 287 284 282 278 274 272 274 273 269 267 267 272 279 283 285 285 285 286 286 288 292 293 295 297 299 300 301 303 303 305 307 309 311 313 316 320 323 324 326 328 331 331 331 329 329 331 332 329 324 320 317
261 258 256 253 251 251 252 254 255 255 256 258 258 259 260 261 261 262 264 264 264 261 258 255 254 252 250 247 244 240 237 237 239 239 239 240 244 248 253 257 258 257 253 249 246 245 245 248 250 251 251 249 245 241 237 232 228 223 218 214 210 208 205 199 191 187 184 181 176 171 166 163 158 155 152 153 159 165 169 172 174 177 178 180 183 186 187 188 186 183 179 178 178 178 177 179 183 189 195 199 203 206 207 208 209 211 213 215 219 221 221 221 222 221 220 219 217 220 224 228 235 244 253 263 271 276 280 281 283 285 285 285 286 286 287 288 288 286 284 284 285 287 290 291 291 291 293 293 294 294 294 297 299 301 303 304 306 305 303 303 305 305 303 301 301 299 300 305 313 321 326 330 337 342 343 344 344 343 339 336 341 346 350 354 356 359 360 360 360 358 358 361 365 369 373 379 383 388 393 398 401 401 398 394 388 382 378 373 369 363 356 348 339 331 322 312 303 295 292 293 294 294 298 304 308 312 315 320 324 327 330 329 327 323 316 309 304 302 303 306 310 311 314 318 320 325 334 340 352 360 367 373 377 379 378 373 365 357 346 336 334 336 342 346 351 357 363 369 372 373 376 378 378 377 373 368 362 358 355 351 349 351 354 357 356 355 352 350 348 347 346 346 346 348 350 353 356 358 357 355 353 352 352 350 349 349 347 346 346 345 344 344 342 342 341 340 340 339 339 338 338 338 338 339 339 340 342 342 343 344 345 346 347 347 348 349 350 351 351 352 353 353 354 356 356 356 357 357 358 359 359 359 359 361 364 367 370 372 372 373 372 372 370 370 370 367 364 357 349 343 337 332 326 320 313 304 296 287 281 272 260 247 236 235 243 255 259 256 252 248 242 236 232 229 225 221 218 216 217 217 215 213 210 209 209 209 209 209 209 209 210 213 216 221 227 232 235 241 247 253 260 267 271 274 277 279 283 287 289 292 294 297 302 308 313 314 315 318 322 324 325 325 326 325 324 321 318 317 314 313 313 312 312 312 306 299 294 291 289 289 288 284 277 272 271 270 267 264 259 260 264 268 273 277 281 286 291 297 303 309 316 321 326 332 337 340 343 350 357 366 379 388 394 397 395 390 386 382 376 372 371 368 369 370 368 364 360 358 358 355 352 347 343 342 344 342 336 334 331 327 325 328 330 331 330 327 323 319 316 312 311 311 310 308 306 304 301 299 298 297 296 294 291 290 290 291 291 292 294 297 305 313 318 321 325 329 331 332 329 322 316 311 305 300 298 296 296 296 296 296 296 296 296 296 297 297 298 299 300 302 305 304 303 302 299 299 299 299 298 298 300 305 309 315 319 323 327 331 336 342 346 350 351 350 345 339 337 337 337 338 339 340 340 339 338 339 341 342 342 341 340 341 341 340 339 338 337 336 333 333 333 332 331 328 327 327 327 326 323 321 318 316 312 307 303 300 298 298 300 301 303 305 306 305 300 298 296 296 294 291 288 285 283 283 283 287 288 289 290 290 290 288 288 286 286 285 282 280 280 282 284 286 289 291 295 298 298 297 297 296 296 296 296 295 293 290 286 283 279 276 272 270 270 268 267 267 271 276 280 283 283 284 284 286 288 292 294 296 299 301 303 304 306 306 307 308 310 312 314 318 320 323 326 328 329 330 331 331 330 330 331 331 328 323 319 317
264 264 263 262 260 259 257 258 259 259 259 261 262 263 264 264 264 266 267 268 267 266 263 261 260 258 256 252 248 243 240 240 240 240 239 241 244 247 251 255 258 258 255 250 247 245 246 250 251 252 252 251 248 244 239 234 230 225 221 219 217 214 210 204 198 195 191 186 181 174 168 165 159 155 152 153 160 166 170 173 175 178 179 180 181 180 181 182 181 179 177 177 176 176 176 179 183 188 192 196 199 202 203 205 207 209 211 213 216 218 219 219 219 218 216 214 217 220 225 230 236 244 254 264 271 275 277 279 282 284 284 285 286 286 287 287 288 286 283 282 283 286 288 289 289 289 293 293 294 293 293 295 298 301 303 303 304 304 302 300 299 300 299 299 299 297 297 302 309 318 326 332 337 342 343 343 344 343 338 334 336 341 346 351 355 356 358 357 356 354 355 358 361 365 369 376 380 386 392 398 402 404 401 397 391 385 378 372 367 362 355 347 339 332 326 317 309 299 292 288 288 290 294 299 301 303 306 308 312 317 320 320 318 314 309 303 299 301 305 309 313 314 315 317 320 324 333 339 349 358 365 370 373 375 374 371 364 356 346 337 334 337 342 346 351 357 362 368 372 373 376 377 378 376 372 367 361 357 353 349 347 349 352 353 352 350 349 347 346 345 345 345 346 347 349 352 353 355 356 354 353 351 351 349 349 348 347 346 346 344 344 343 342 342 341 340 340 339 338 337 337 337 338 339 339 340 342 342 343 344 344 345 346 347 348 349 349 351 351 352 354 354 354 355 355 356 357 357 357 358 358 359 359 361 363 365 369 372 372 373 372 372 370 370 370 367 365 358 350 344 339 334 328 322 317 309 300 291 284 277 267 255 242 233 233 243 251 250 248 243 239 233 229 226 224 221 218 215 215 217 216 213 210 209 209 209 209 209 209 208 208 210 214 219 226 232 235 240 247 252 260 266 271 274 277 279 283 285 288 291 294 297 301 308 313 314 315 318 320 321 322 323 325 325 323 321 318 317 314 314 314 312 312 311 306 300 294 288 287 287 287 283 277 269 268 268 266 261 259 262 267 271 276 281 285 291 296 302 309 315 321 325 330 334 337 340 344 351 359 373 387 396 401 402 397 390 386 382 376 372 370 367 367 368 367 363 360 359 358 354 351 346 342 340 341 339 335 331 329 326 323 324 327 329 328 324 320 317 315 313 314 314 312 309 307 305 305 301 299 296 296 294 292 290 290 290 291 292 295 298 308 316 321 324 328 332 333 333 329 321 315 311 305 300 298 296 296 296 296 296 296 296 296 296 296 297 298 299 301 304 305 304 303 301 299 299 299 299 299 299 300 305 309 315 320 324 328 334 338 344 347 352 354 352 347 341 338 338 338 339 341 342 342 341 340 341 344 345 345 345 343 343 343 343 342 341 340 338 337 337 337 336 335 331 331 331 331 329 325 322 320 317 313 309 305 301 297 297 298 299 302 304 306 305 301 298 295 295 293 291 287 285 283 283 284 287 288 289 290 290 290 288 288 287 285 285 282 280 280 281 283 285 288 290 294 297 298 297 298 298 297 297 297 295 293 291 287 283 280 276 272 269 268 268 267 267 269 273 277 280 282 283 284 285 288 291 293 296 299 301 304 307 308 309 309 310 311 313 315 318 320 323 327 328 329 328 330 331 331 331 331 330 326 322 318 317
269 270 270 271 270 269 266 264 264 263 263 264 266 267 268 268 269 269 271 271 271 270 268 266 265 264 261 258 253 247 244 244 243 242 241 242 244 247 249 253 258 259 255 250 248 247 247 250 252 252 253 252 251 246 241 236 232 229 227 225 223 220 215 211 206 201 197 191 184 177 171 168 160 154 152 153 161 167 171 173 176 176 178 178 177 175 176 176 176 176 175 175 174 175 176 180 182 186 188 191 194 196 200 202 206 209 210 210 212 216 216 216 216 214 211 212 218 223 229 233 237 244 256 267 274 277 279 280 282 284 284 285 286 286 287 288 288 286 283 281 281 284 287 287 286 288 292 293 293 292 292 295 299 304 303 301 300 300 299 296 296 297 299 299 299 298 297 300 307 317 327 334 339 341 342 342 342 341 336 331 333 338 343 349 354 355 355 354 353 351 352 354 357 361 366 373 378 384 391 396 402 404 404 399 394 387 378 371 366 360 354 347 340 334 329 322 314 305 296 288 286 287 289 293 295 297 298 300 301 306 310 310 309 306 302 299 300 305 309 312 315 317 317 317 320 324 332 337 347 354 361 366 369 370 370 367 361 354 345 337 335 337 342 346 350 356 362 367 371 373 375 376 376 375 371 364 359 354 350 347 346 349 349 349 348 347 346 345 344 344 343 344 345 347 348 352 353 354 354 354 353 351 349 348 348 348 347 346 346 344 343 343 342 342 341 339 339 339 337 336 336 336 337 339 339 340 342 342 342 343 344 345 346 347 348 349 349 350 351 352 353 353 354 355 355 356 356 356 357 358 358 359 360 361 363 364 369 372 372 372 372 371 370 370 370 367 365 359 351 346 341 336 331 325 320 313 304 295 287 281 273 264 252 240 230 233 240 243 242 239 235 230 226 223 222 220 217 214 213 214 215 213 210 209 209 209 209 209 209 208 208 208 213 218 225 231 235 240 246 252 259 265 270 273 276 279 282 284 287 290 293 296 300 308 312 313 315 316 318 319 321 322 324 324 322 320 318 316 314 314 314 312 312 310 304 299 294 288 284 284 284 281 275 268 265 266 264 260 261 265 271 275 280 285 290 296 301 309 315 320 325 329 333 336 340 343 348 354 363 379 393 399 403 405 399 390 385 381 374 370 368 366 365 366 365 362 360 360 358 353 349 345 344 342 338 336 332 329 326 323 321 321 323 325 325 322 319 316 314 315 317 316 312 310 308 309 310 306 302 299 298 296 293 290 290 290 291 292 295 301 310 317 322 327 331 334 335 332 325 317 311 307 303 300 298 296 296 296 296 296 296 296 296 296 296 296 298 300 303 305 304 303 301 301 299 299 299 299 299 299 299 303 309 315 321 326 330 335 340 344 350 355 355 352 347 343 340 340 340 340 341 343 344 343 342 343 346 348 348 348 347 347 346 346 344 344 343 342 341 341 341 340 339 335 334 334 334 332 328 324 321 318 315 311 306 302 298 297 297 298 301 303 305 305 301 297 293 293 292 290 287 284 283 284 284 287 288 289 290 290 290 288 288 287 286 284 281 281 281 281 282 285 288 289 292 296 296 297 298 301 300 297 297 294 292 290 287 284 280 275 271 269 269 268 267 267 267 270 275 278 281 282 283 285 287 290 292 295 298 301 304 307 308 309 311 311 312 314 316 318 321 323 326 327 327 327 329 331 331 331 331 330 325 321 318 317
273 275 276 277 277 275 273 270 268 267 266 267 269 270 271 272 272 273 274 274 274 274 273 271 270 269 266 262 258 254 250 248 246 244 242 243 244 247 249 252 257 258 255 251 249 248 249 249 251 252 253 252 251 246 242 238 236 234 233 231 229 225 221 217 213 207 202 194 187 179 173 170 163 156 153 153 158 163 167 171 172 172 174 174 173 170 170 172 172 172 172 172 173 175 176 180 181 183 184 186 189 192 197 201 205 208 209 207 208 213 214 214 212 211 208 211 218 226 234 238 240 247 259 270 278 282 282 283 283 283 285 286 287 288 289 289 288 286 283 280 280 282 283 284 285 288 290 292 291 291 292 295 299 302 300 296 294 295 294 294 295 297 299 299 300 299 299 300 306 315 324 331 335 340 342 342 340 338 333 329 330 335 340 345 350 352 352 350 350 348 348 351 354 360 365 371 377 382 388 394 400 404 404 402 396 388 378 371 366 360 355 349 341 336 331 324 317 309 300 292 286 284 285 287 289 290 291 294 295 298 301 302 302 299 296 297 304 311 314 315 316 317 318 318 320 323 331 335 344 350 356 361 364 365 365 362 357 351 343 336 335 337 342 346 350 355 361 366 370 372 374 375 374 372 367 361 356 352 349 345 345 348 348 346 345 345 344 343 343 342 342 343 344 347 349 352 353 354 354 354 353 351 349 348 347 347 347 346 346 344 343 343 342 342 341 339 339 338 336 336 335 336 337 338 339 340 341 341 342 342 343 344 346 347 348 349 349 350 350 351 353 353 354 355 355 355 355 355 356 357 357 359 360 361 363 364 368 371 371 371 371 371 370 370 369 367 365 359 351 347 343 338 333 328 322 316 308 300 290 284 277 270 261 249 234 227 230 236 237 235 232 228 223 220 220 219 216 213 210 211 212 210 210 209 209 209 209 209 209 209 209 209 213 218 224 230 235 239 245 251 257 263 268 271 275 277 280 284 287 290 292 295 298 306 311 312 312 314 316 317 319 321 322 322 321 320 317 314 313 313 313 312 312 308 302 298 293 288 284 281 280 278 273 268 264 264 262 260 262 268 274 278 283 289 294 301 307 315 319 324 328 332 334 338 342 346 352 358 370 385 396 402 404 406 400 390 383 378 372 368 366 364 362 363 363 361 360 360 358 354 350 348 345 342 338 335 330 327 324 321 320 320 320 320 321 320 319 315 314 315 317 315 311 310 309 312 315 311 303 300 298 295 292 290 290 290 290 291 295 301 310 317 322 328 334 335 333 328 320 312 307 303 300 298 297 296 296 296 296 296 296 296 296 296 296 296 298 300 304 304 304 303 301 301 299 299 299 299 299 299 299 301 308 315 322 326 330 335 341 346 350 355 354 351 347 344 342 342 341 341 342 344 345 345 345 346 348 350 351 351 351 350 349 348 347 346 345 346 346 345 345 345 343 339 337 337 337 335 331 328 323 319 316 312 307 303 300 297 296 297 299 302 304 303 301 296 292 291 290 289 286 284 283 284 284 286 288 289 290 290 289 288 288 287 286 284 281 280 280 281 282 285 287 289 292 295 296 296 297 301 300 297 297 294 292 290 287 283 279 274 271 272 271 270 267 267 266 268 273 277 280 282 283 285 286 289 291 294 297 300 303 305 307 309 311 312 314 316 318 320 321 323 325 325 325 327 329 331 331 331 332 330 325 320 318 317
276 279 281 281 281 280 278 276 273 270 269 269 271 272 274 275 275 276 277 277 277 277 276 275 274 273 271 268 264 260 256 252 248 245 244 245 245 247 248 251 254 255 254 251 250 250 250 250 251 253 253 252 251 247 244 242 240 239 238 236 233 230 227 223 219 213 205 197 188 181 176 173 168 162 154 153 155 158 162 165 167 166 168 169 168 167 167 167 168 169 169 170 172 174 176 179 180 180 180 181 183 187 192 196 200 203 204 203 205 209 210 210 209 208 208 210 218 227 235 239 241 245 259 272 281 286 286 285 282 283 285 289 291 291 291 290 289 287 284 280 278 278 279 281 283 287 289 289 288 289 292 294 294 294 292 291 291 292 292 294 297 298 299 299 300 300 300 300 304 311 318 324 330 336 340 341 339 336 332 328 328 331 336 341 346 348 348 347 346 345 345 349 352 359 364 370 375 380 385 391 397 401 403 401 396 388 378 370 365 359 354 349 342 336 331 324 318 312 305 296 289 284 283 282 283 284 285 288 291 293 294 294 294 293 294 300 309 316 319 319 318 318 318 317 317 320 327 331 340 346 352 355 358 359 359 357 353 348 341 335 335 337 342 345 349 354 359 364 368 371 372 373 371 368 363 357 353 349 347 344 344 347 347 345 344 343 343 341 340 341 341 342 345 348 350 353 354 354 355 355 354 351 349 348 347 347 347 346 346 344 344 344 342 342 341 339 339 338 336 335 335 336 336 338 338 339 340 340 341 342 342 343 345 346 347 348 348 349 350 351 353 353 354 355 355 355 355 354 354 355 357 358 359 360 362 364 366 368 370 371 371 371 370 370 369 367 364 358 351 347 345 340 335 330 324 318 311 304 294 287 280 274 266 254 240 229 225 229 231 231 228 225 221 218 217 216 215 211 209 209 209 209 209 209 209 209 209 209 209 209 209 209 213 218 223 229 234 238 244 249 254 260 266 269 273 275 278 283 287 289 291 294 297 303 310 312 312 314 315 316 316 318 321 320 320 320 317 314 313 312 312 312 312 305 300 296 292 287 283 279 277 275 271 267 263 262 261 261 265 271 276 280 284 290 297 304 311 318 322 326 330 333 336 339 343 349 356 365 378 390 399 404 404 406 400 389 382 375 370 367 365 362 361 360 360 360 359 358 357 354 350 348 346 343 341 339 334 329 327 325 323 321 320 318 318 318 316 314 314 314 315 313 311 310 310 312 314 312 304 300 298 295 292 291 291 289 289 291 294 300 309 317 322 328 333 333 329 322 315 309 304 301 298 297 297 296 296 296 296 296 297 297 297 296 296 296 297 300 303 303 303 302 301 300 300 299 299 299 299 299 299 301 307 315 322 327 331 335 341 346 350 355 353 350 347 344 344 344 343 343 343 345 346 346 347 349 351 353 354 354 354 352 351 350 350 348 349 350 351 351 350 349 347 343 341 340 340 338 335 331 327 322 318 314 309 304 301 298 295 295 298 300 301 301 299 296 292 289 288 287 284 284 284 284 284 285 287 288 291 291 289 288 288 287 287 285 282 280 280 280 282 284 286 288 291 293 294 296 297 298 298 297 297 294 291 289 285 282 278 275 274 275 273 271 268 267 266 266 270 275 279 283 283 285 286 288 289 293 296 299 302 304 305 308 310 312 315 317 319 321 321 322 323 323 324 327 328 331 331 331 332 329 325 321 319 318
280 283 285 286 286 285 283 281 278 274 273 273 273 275 276 278 279 280 280 280 280 280 280 279 278 277 275 272 269 266 261 257 252 248 247 247 247 249 250 251 252 253 253 251 251 251 250 251 252 254 254 253 252 250 248 246 245 244 242 240 237 234 232 228 223 217 209 199 190 184 181 179 174 168 158 153 154 155 158 161 161 161 163 163 163 163 163 164 165 166 167 168 171 172 174 176 177 177 177 178 181 185 187 191 194 197 197 199 201 204 206 206 206 206 207 209 216 224 233 237 236 241 254 269 279 285 287 284 280 281 284 291 293 293 292 292 292 290 287 283 277 274 275 278 282 284 286 286 286 288 290 290 288 286 287 288 291 292 293 297 299 299 300 300 300 301 300 300 302 306 312 318 326 331 336 341 339 336 332 327 327 329 333 337 340 343 344 343 342 342 343 347 351 356 361 366 371 376 381 387 393 398 400 399 395 386 377 370 365 360 355 350 344 339 334 326 319 312 307 301 293 287 283 280 279 279 280 283 287 289 288 287 290 293 297 304 312 320 324 323 321 320 318 317 316 317 322 327 335 342 347 351 353 353 353 352 348 344 338 334 335 337 341 345 349 353 357 360 364 367 369 369 367 364 359 354 350 347 344 341 342 344 344 342 342 342 341 339 339 339 340 343 346 349 351 353 354 354 354 354 353 351 349 348 347 347 347 347 346 345 344 344 342 342 341 340 339 338 336 335 335 336 336 337 338 339 339 340 340 342 342 342 342 344 346 347 347 349 349 351 353 353 354 354 354 354 354 354 354 354 355 356 358 359 361 362 364 366 368 370 370 370 369 369 368 366 362 357 351 348 345 342 337 331 325 320 314 307 297 290 283 276 269 258 246 236 226 223 225 225 224 222 220 216 214 212 211 209 208 209 209 209 209 209 209 209 209 209 209 209 209 209 212 217 222 228 233 238 241 246 251 256 262 265 269 271 276 281 284 287 291 293 296 300 306 308 311 313 314 314 313 316 318 318 320 319 316 313 313 313 312 311 308 301 296 293 289 286 282 279 276 273 268 265 262 260 260 262 267 274 278 282 286 292 299 306 313 318 323 328 332 336 339 341 345 352 361 372 384 393 402 404 404 405 398 385 378 373 369 366 365 362 361 359 358 357 357 357 355 353 351 349 347 347 345 343 338 333 330 328 326 324 323 321 320 318 316 314 314 314 314 313 311 311 311 310 310 309 307 302 300 297 295 295 294 290 289 290 293 299 309 316 321 326 330 329 324 318 313 309 304 301 298 297 297 297 297 297 297 297 297 297 297 296 296 296 296 299 301 303 302 301 300 300 299 299 299 299 299 299 299 301 307 314 322 328 332 335 341 345 350 353 352 349 346 344 346 346 344 344 344 345 346 348 349 351 353 356 357 357 356 354 352 352 351 352 353 354 355 356 355 353 351 349 345 344 344 342 339 335 331 326 321 317 312 306 302 298 294 293 296 298 300 300 297 295 291 288 287 284 283 283 283 284 284 285 286 288 290 290 290 288 288 288 287 286 283 281 279 279 280 282 284 286 289 292 293 296 297 297 297 297 297 294 290 288 284 281 277 276 277 277 273 271 268 267 266 265 267 272 278 283 283 284 286 288 289 292 295 299 302 302 304 306 309 311 314 317 319 321 321 322 323 323 324 327 328 330 331 331 331 328 325 321 319 318
283 286 288 289 290 289 288 287 283 279 278 275 275 276 278 280 281 282 283 283 282 283 283 282 282 280 278 276 273 270 266 262 256 251 250 250 250 251 253 253 254 254 254 253 254 254 253 253 254 255 255 255 254 253 252 251 249 248 246 243 240 237 234 231 227 220 211 202 195 190 187 184 179 171 163 155 154 155 156 157 159 159 160 161 161 161 161 162 163 164 167 168 170 171 173 173 174 174 177 180 184 187 189 192 195 197 197 199 200 201 202 203 204 205 206 208 213 220 227 231 230 236 245 259 270 277 280 277 276 279 283 292 293 293 293 293 294 291 289 285 278 274 274 277 280 282 283 284 285 286 287 286 285 285 288 290 291 292 295 299 299 300 300 301 301 301 300 300 302 304 307 314 321 327 333 338 339 337 333 327 326 330 333 333 334 337 340 339 340 340 342 346 349 354 358 363 368 372 377 383 389 394 396 396 392 385 379 373 368 363 358 353 347 341 337 331 323 314 305 301 296 290 284 281 280 279 279 281 283 284 284 287 291 296 302 308 315 322 327 327 322 319 318 317 314 314 318 321 330 337 342 346 347 348 348 347 344 340 335 333 335 337 340 344 347 351 354 357 360 363 364 364 362 359 355 352 349 347 342 340 341 342 342 340 340 340 339 337 337 339 341 343 346 349 351 353 354 354 353 353 352 350 348 348 347 347 347 347 347 345 344 344 343 343 342 340 340 338 335 335 335 335 335 337 337 338 339 339 340 342 342 341 341 343 344 346 347 349 349 350 352 353 353 354 354 354 353 353 353 353 353 354 357 359 361 362 363 365 367 368 368 368 368 367 367 364 360 357 352 349 345 342 337 331 326 321 316 309 300 292 284 277 270 261 250 243 229 220 220 221 221 220 219 215 212 209 208 208 208 208 208 208 208 208 208 208 208 208 208 208 209 209 210 216 222 226 232 236 239 243 248 253 258 261 266 269 274 279 281 285 289 293 295 297 300 303 307 311 312 312 312 314 315 316 318 317 314 312 312 314 314 311 303 297 293 290 286 283 280 278 275 273 269 265 262 260 260 263 269 274 279 282 286 293 300 307 314 319 324 329 334 338 341 343 348 355 364 377 388 395 403 403 402 404 396 383 375 373 370 367 365 362 362 360 359 357 356 355 355 352 352 350 350 350 350 347 341 335 331 329 327 326 325 323 322 320 318 314 314 314 314 313 312 312 310 309 308 307 308 305 303 300 298 298 297 293 289 289 292 298 308 314 319 323 326 324 319 316 312 307 303 301 298 298 298 297 297 297 297 297 297 297 297 297 296 296 296 297 299 300 300 300 299 299 298 298 298 298 299 299 299 301 307 314 321 328 333 335 340 344 349 352 351 348 344 342 346 347 346 345 345 346 347 349 351 353 356 358 360 360 359 356 354 353 353 354 355 357 358 360 360 359 357 354 351 349 347 345 342 338 334 330 324 319 314 309 304 300 295 293 294 297 299 299 297 294 290 288 286 284 283 283 283 284 284 285 286 288 290 290 289 288 288 287 287 287 284 281 279 278 279 281 283 285 289 292 293 296 296 295 296 297 297 293 290 288 283 280 278 278 278 277 273 270 267 267 266 265 266 271 277 280 281 283 286 288 289 291 294 298 300 301 303 306 309 311 314 317 319 321 321 322 323 323 324 326 328 330 331 331 330 327 324 321 320 317
286 289 292 293 294 294 293 292 289 285 281 278 278 278 280 282 284 285 285 285 285 285 285 285 285 284 282 279 276 273 270 266 260 254 253 253 253 255 256 258 257 257 256 256 257 258 257 257 257 258 257 257 257 256 255 254 253 251 249 246 242 239 236 233 229 222 214 208 202 197 192 189 181 174 165 158 156 158 157 158 158 158 159 160 160 160 160 162 163 164 166 167 169 170 171 171 172 174 180 184 189 192 195 198 200 202 203 204 203 204 204 204 204 205 206 207 209 215 220 223 224 230 237 246 257 264 268 269 272 278 283 290 292 292 292 292 293 291 288 284 278 273 273 275 277 279 281 282 283 284 283 283 284 287 291 292 291 292 295 298 299 299 300 301 302 302 301 301 303 303 304 309 316 324 329 333 336 336 332 326 325 331 334 331 329 332 336 337 338 339 341 344 348 351 356 360 364 368 373 378 384 390 393 392 390 387 384 379 372 366 360 356 350 344 339 335 327 317 307 300 296 291 287 284 282 280 280 280 281 280 283 289 294 299 304 310 317 324 329 329 322 318 316 314 312 310 313 316 324 331 337 340 342 343 343 343 340 336 332 332 335 337 340 343 346 349 351 354 356 358 359 359 357 355 353 351 348 346 342 339 339 339 339 337 337 337 336 335 336 339 342 343 346 349 350 352 353 354 353 352 350 348 348 348 347 347 347 347 347 346 345 345 343 343 342 341 340 338 335 335 335 335 335 336 336 337 338 339 340 342 342 340 340 341 342 345 347 348 348 349 351 352 353 353 353 353 353 352 352 352 352 353 356 359 360 361 362 364 366 366 367 367 366 366 365 363 359 356 352 349 346 343 337 333 330 326 321 313 304 295 287 279 273 265 255 245 233 222 218 217 216 217 217 215 210 208 208 208 208 208 208 208 208 208 208 208 208 208 208 208 208 208 209 213 219 225 229 233 237 240 245 250 255 258 263 266 271 276 278 282 286 290 292 293 295 298 303 309 312 309 312 312 313 314 316 315 312 312 312 313 313 310 301 295 289 286 283 281 278 276 275 274 272 268 263 260 260 264 271 275 279 282 286 294 301 308 314 321 326 331 335 338 341 345 351 360 369 381 390 397 402 402 399 400 392 380 373 373 371 368 365 363 363 362 359 359 357 355 355 354 354 353 352 353 352 349 343 337 333 331 329 328 327 325 322 322 319 315 314 314 314 314 313 312 311 311 309 307 306 305 304 302 301 300 299 296 290 289 291 297 306 312 316 320 321 319 316 314 311 307 303 301 299 299 298 297 297 297 297 297 297 297 297 297 296 296 296 296 297 298 298 298 298 298 297 297 297 298 298 298 299 301 306 313 321 328 333 335 339 341 346 350 350 347 342 340 345 347 347 347 346 347 349 351 353 355 358 360 362 363 362 358 355 355 355 356 357 359 360 362 363 364 362 359 357 354 351 348 346 342 337 333 327 322 316 311 306 301 296 292 293 296 299 298 296 292 289 287 286 284 283 283 283 283 283 284 285 287 289 289 289 288 288 286 286 286 284 281 279 278 279 280 282 285 289 292 293 294 294 293 294 297 297 294 290 287 283 280 280 280 279 276 273 270 267 267 266 265 265 270 275 278 279 282 286 288 288 290 293 296 298 301 303 307 309 312 315 317 319 321 321 322 323 323 323 324 326 329 330 330 328 325 323 321 319 316
289 293 295 297 298 298 297 296 294 290 286 282 281 281 283 285 287 288 288 288 288 288 288 288 288 288 285 283 279 276 272 268 263 257 256 256 258 260 262 262 262 260 259 260 261 261 261 260 260 261 261 260 260 260 259 257 256 254 252 248 244 241 238 235 232 226 220 215 209 202 194 191 183 175 168 161 159 161 162 163 162 160 161 163 163 163 162 162 162 164 166 166 167 168 169 171 173 177 183 189 193 196 198 201 204 206 209 210 210 209 208 206 206 206 206 207 207 210 214 217 220 225 230 235 242 250 256 263 272 277 281 287 289 289 290 289 290 290 286 281 275 272 273 274 275 277 280 282 282 282 281 282 284 288 292 292 290 291 293 295 297 298 300 302 304 303 303 303 303 303 303 304 311 321 325 329 332 333 331 326 323 329 333 329 327 330 334 336 336 338 340 342 346 349 353 357 361 364 369 373 379 384 387 388 388 389 388 384 377 369 362 357 352 346 341 336 331 322 311 302 296 291 289 286 283 281 279 279 279 280 285 290 296 301 306 311 317 324 329 328 323 318 314 312 310 308 310 312 319 326 331 335 337 338 338 337 334 330 328 331 334 336 339 341 344 346 348 349 351 353 354 354 353 352 351 348 346 344 341 338 337 336 336 334 333 333 331 333 336 339 341 343 345 348 350 351 352 352 352 350 349 348 348 348 348 348 348 348 348 346 345 345 343 343 343 341 340 338 335 335 335 335 335 336 336 336 336 338 340 342 342 340 340 340 342 344 346 347 347 348 349 351 351 352 352 351 351 350 350 350 351 353 356 359 359 358 360 362 363 365 365 366 365 365 364 362 359 356 353 350 347 346 342 338 335 332 326 318 309 299 291 283 277 270 259 247 237 227 221 216 214 214 214 213 210 209 209 209 208 208 208 208 208 208 208 208 208 208 208 207 207 207 208 211 216 222 226 230 234 238 243 247 252 255 260 263 266 271 275 279 283 286 289 290 293 295 299 306 308 306 311 312 312 313 314 313 311 311 312 312 312 308 300 293 287 284 282 280 278 277 277 277 276 271 265 261 261 266 272 276 279 283 286 295 301 309 317 326 330 334 337 339 343 347 354 363 374 383 391 397 401 400 397 394 386 377 374 374 371 368 365 363 362 361 359 358 357 355 355 357 357 356 354 353 352 349 344 339 335 332 331 330 329 326 323 323 321 317 314 314 315 316 315 314 313 313 312 310 305 303 302 300 299 300 299 295 290 289 291 297 304 309 313 315 317 315 313 312 311 309 305 301 300 299 299 297 297 297 297 297 297 297 297 297 297 297 296 296 296 296 296 296 296 296 296 297 297 298 298 298 299 300 305 311 319 327 332 334 336 338 343 347 348 345 341 339 344 346 347 347 347 347 349 351 353 357 359 362 364 366 364 360 357 357 357 359 360 361 363 364 365 366 366 364 362 359 356 352 349 346 341 335 330 325 319 314 307 302 297 292 291 294 297 297 293 289 286 285 285 284 283 283 283 283 283 284 284 286 288 288 288 288 288 286 286 286 283 282 280 278 278 279 281 284 289 291 292 292 293 293 293 296 297 294 291 287 284 283 283 282 280 277 274 270 267 267 265 265 265 269 274 276 278 281 285 286 287 289 292 295 299 302 305 308 310 312 316 318 319 321 321 322 323 323 323 324 325 329 329 328 326 324 322 319 318 315
291 295 298 300 301 301 300 299 297 293 288 285 284 284 286 289 291 293 293 292 292 293 294 294 294 293 290 286 282 278 275 270 265 260 259 260 263 266 268 268 267 264 263 263 265 266 265 263 264 265 265 265 264 263 261 260 258 256 254 250 246 243 240 238 235 230 225 220 214 205 195 191 183 177 171 165 162 164 166 168 168 168 167 169 170 169 165 164 163 164 165 166 166 167 169 171 174 179 185 190 194 198 198 200 203 206 209 210 212 212 211 209 209 208 208 207 207 209 213 217 221 224 227 231 236 241 250 262 272 276 280 283 285 286 287 285 286 285 282 279 274 272 273 274 274 276 278 280 279 280 280 282 284 287 289 289 288 288 290 294 297 299 302 304 305 304 304 303 302 302 302 302 306 315 322 325 327 329 329 325 321 325 330 326 325 328 333 334 335 338 341 344 346 349 351 355 359 361 364 368 374 378 382 384 386 389 389 386 380 372 363 357 352 348 343 337 333 325 316 306 298 291 287 286 284 282 279 278 280 283 288 293 298 302 306 312 317 323 327 327 324 320 314 310 308 306 307 309 315 321 326 329 331 332 331 329 327 324 326 330 333 336 338 340 342 343 345 346 347 348 349 350 350 349 348 346 344 342 339 337 335 334 334 331 330 330 329 332 335 338 341 342 344 347 348 349 351 351 350 348 348 348 348 348 348 348 348 348 348 346 345 345 343 343 342 341 340 337 335 334 334 335 335 335 335 335 335 337 339 341 341 340 339 339 341 342 344 345 346 347 347 348 349 350 351 349 349 348 348 349 351 354 355 356 356 356 358 360 361 363 365 365 365 364 364 362 360 358 354 351 348 348 347 344 340 335 329 321 312 302 293 285 278 271 260 249 240 232 224 218 215 213 211 210 210 209 208 208 208 208 208 208 208 208 208 208 208 208 208 207 207 207 208 209 213 218 223 227 231 236 240 245 250 252 256 258 261 265 271 274 279 282 285 288 292 295 297 301 303 302 309 312 312 312 313 312 310 308 312 311 311 305 298 292 286 284 284 282 280 279 280 280 277 272 267 261 261 266 272 276 279 282 286 295 301 309 321 330 334 336 339 341 345 349 355 365 375 383 390 397 399 397 394 388 381 375 373 373 370 367 365 362 361 360 359 358 357 356 358 361 362 359 356 352 351 348 344 339 336 334 333 332 331 328 323 322 320 316 314 313 315 318 317 317 316 315 314 312 307 302 301 298 296 296 295 292 289 289 291 297 302 306 309 311 313 312 312 313 313 311 308 303 300 299 299 298 298 297 297 297 297 297 297 297 297 297 296 296 296 296 296 296 296 296 296 297 297 298 298 298 299 299 302 308 315 324 329 332 333 335 339 344 345 344 339 337 342 345 347 346 347 347 349 351 353 357 360 363 366 368 366 361 359 358 359 361 362 363 365 366 367 368 368 367 365 362 359 355 351 348 343 337 332 328 322 316 309 303 298 293 291 292 294 294 290 287 285 284 284 284 283 283 283 283 283 284 284 286 287 287 287 287 287 286 285 285 283 282 280 279 279 279 281 284 287 289 290 291 291 292 292 295 296 293 291 287 286 287 286 283 281 278 274 271 267 267 265 264 264 268 272 275 277 280 283 284 284 287 292 296 299 303 305 309 311 312 316 317 319 320 321 322 324 324 324 324 325 328 328 327 325 323 319 316 315 313
294 297 300 303 304 304 303 302 299 296 291 287 286 287 289 293 295 297 297 297 297 297 299 300 299 297 295 290 285 281 277 272 267 263 262 264 268 271 273 273 272 269 267 267 269 270 268 267 268 269 269 268 267 266 264 263 261 258 255 252 249 246 243 241 238 234 229 225 219 209 199 195 187 181 176 171 165 166 168 170 171 172 173 174 175 174 171 168 164 164 164 164 166 167 169 172 176 180 186 189 193 196 197 199 201 204 208 210 213 214 214 212 212 211 211 209 209 211 214 218 223 226 229 233 238 243 252 263 271 274 277 279 281 283 283 281 281 281 279 278 276 275 274 274 274 275 276 277 277 278 281 283 285 287 288 288 287 287 288 295 299 301 304 306 306 306 304 303 302 302 302 302 302 310 318 322 324 326 326 324 320 321 325 323 324 327 330 333 336 339 344 347 349 351 352 355 358 359 363 366 369 373 378 382 385 387 389 386 381 374 365 358 351 349 344 339 334 327 319 311 302 294 286 283 282 281 278 277 281 287 293 298 302 305 308 312 317 322 326 326 324 320 314 309 306 304 304 306 311 316 321 324 325 325 323 321 319 320 324 329 332 335 337 339 340 341 342 344 345 345 347 348 348 346 345 343 342 340 338 335 333 332 331 329 328 328 328 331 334 336 341 342 344 346 347 348 349 349 348 348 348 348 348 348 348 348 348 348 348 346 345 344 343 343 342 340 339 336 335 334 334 334 334 334 334 334 334 336 338 341 341 339 337 338 340 341 342 343 344 345 346 346 348 349 349 347 347 347 347 348 351 353 353 353 353 354 357 359 360 363 364 364 363 363 363 362 360 357 354 350 349 349 350 348 342 336 329 322 313 303 294 286 278 271 261 252 244 236 228 220 216 214 210 209 209 208 208 208 208 208 208 208 208 208 208 208 208 208 208 207 206 206 207 208 211 216 221 224 228 233 237 242 247 249 253 254 256 259 266 270 274 278 281 286 291 295 298 299 299 300 306 310 310 309 310 311 307 305 312 311 309 302 295 290 286 286 286 283 279 279 280 280 277 272 267 260 260 266 271 275 278 281 286 295 302 309 320 331 335 337 340 343 346 349 356 366 375 382 389 395 397 395 391 385 379 374 372 371 370 367 364 361 361 360 360 361 360 358 360 363 363 360 356 352 350 347 344 340 337 335 334 333 332 328 323 320 318 316 314 313 314 318 319 319 318 317 315 312 308 304 301 298 294 292 290 289 289 289 291 295 299 302 306 309 310 310 311 314 314 312 309 305 301 299 299 298 298 298 298 298 298 298 298 298 297 297 297 297 297 297 297 297 296 296 296 297 297 298 298 298 299 299 299 303 309 319 326 329 329 331 335 340 342 341 338 335 339 343 345 345 346 347 349 351 353 357 360 363 367 368 366 362 361 360 361 362 363 365 366 368 369 370 371 369 367 364 361 357 354 350 345 339 334 330 324 318 311 304 299 295 291 290 291 291 288 287 286 286 285 284 283 283 283 283 283 284 284 285 286 286 287 287 286 285 284 284 283 282 279 278 278 279 281 283 286 287 288 289 290 290 291 294 294 291 289 287 288 290 288 285 281 279 274 271 268 267 266 263 263 266 270 274 276 279 281 282 283 286 292 296 299 304 305 308 311 312 316 317 318 320 321 322 324 324 325 325 326 327 327 326 324 321 317 314 313 313
297 300 303 305 306 306 306 304 301 298 294 290 289 290 292 296 299 301 302 301 301 302 302 303 302 300 297 292 287 283 279 274 269 266 267 269 273 276 278 278 276 273 272 273 274 274 272 271 272 273 272 272 271 270 268 266 264 261 258 255 253 250 248 244 241 237 232 227 221 214 205 201 195 188 182 176 170 167 169 171 173 175 177 177 178 180 179 175 168 164 164 164 166 167 169 173 177 181 186 188 191 193 195 198 201 204 208 212 214 215 216 216 216 215 214 212 210 211 214 218 222 226 230 234 238 245 255 263 268 271 273 275 276 278 278 277 276 276 278 280 281 278 274 273 273 274 274 274 276 279 282 285 286 287 288 288 287 287 288 296 301 303 305 307 308 307 305 304 302 302 302 302 302 306 313 318 321 324 324 323 318 318 321 320 322 325 327 332 337 341 346 350 352 354 355 357 359 360 363 364 367 371 376 381 384 385 386 384 380 375 367 358 352 350 346 340 335 328 321 315 307 299 289 282 279 278 276 277 282 289 297 303 309 311 311 312 316 321 323 323 323 319 313 308 305 301 301 303 307 311 316 318 318 316 314 314 315 319 324 329 332 334 336 337 338 339 340 343 343 345 347 347 347 343 341 340 339 338 337 335 332 330 329 327 327 328 328 331 334 337 341 342 343 345 346 348 349 349 348 348 348 348 348 348 348 348 348 348 348 347 345 344 342 342 341 339 337 336 335 334 334 333 333 333 333 333 334 336 338 340 340 338 335 336 338 338 340 341 342 344 345 347 349 350 349 347 347 347 347 348 349 350 351 351 352 353 357 360 361 362 362 362 362 362 362 361 359 356 352 350 350 351 352 350 343 337 329 321 313 304 296 288 280 273 265 257 249 241 231 223 218 216 212 209 209 208 208 208 207 207 207 207 207 207 208 208 208 208 208 207 206 206 206 207 210 215 220 222 225 229 234 239 244 246 249 251 251 255 261 266 270 275 279 285 291 296 298 299 299 299 303 305 305 305 307 309 306 304 310 311 305 298 293 288 287 287 287 283 279 278 279 278 276 272 266 260 260 265 269 273 276 281 287 295 303 309 320 331 335 338 341 344 347 349 355 364 375 382 388 394 395 393 389 383 377 373 371 370 370 366 363 361 360 361 362 362 362 360 362 364 363 359 355 351 349 346 344 342 339 336 334 334 331 327 322 318 316 315 314 313 313 317 320 319 318 317 315 311 307 303 301 297 293 290 289 289 289 289 290 293 296 300 304 307 309 309 311 314 314 312 309 306 302 299 299 299 299 298 298 298 298 298 298 298 298 298 297 297 297 297 297 297 297 297 297 297 297 298 298 298 299 299 298 299 304 313 322 325 326 327 330 335 337 338 335 333 334 339 342 344 346 347 348 350 353 357 361 363 368 368 367 363 362 361 362 363 365 366 368 369 371 373 374 372 369 366 363 359 356 352 347 342 335 331 326 320 312 305 299 295 291 289 289 289 288 289 289 289 287 285 283 283 283 283 283 283 283 284 285 286 287 286 285 284 283 283 282 280 278 278 278 279 282 283 285 286 287 288 288 289 290 292 291 289 286 284 285 288 287 285 283 279 274 271 269 268 267 263 263 264 269 273 275 277 279 281 282 287 292 296 299 303 305 308 311 313 316 317 318 320 321 322 324 324 325 326 326 327 326 325 323 320 316 313 312 312
300 302 305 307 308 308 308 305 303 300 296 292 292 293 295 300 303 304 305 304 304 304 305 305 304 302 299 294 289 284 281 275 271 269 271 275 278 281 282 282 280 277 277 278 279 278 276 275 275 276 276 275 274 273 271 269 267 264 261 259 256 254 251 248 244 240 235 230 224 218 211 209 203 196 189 181 175 170 169 171 173 177 180 181 181 185 186 183 177 168 164 164 166 166 169 174 178 182 186 187 189 191 193 197 200 204 208 212 214 217 218 219 219 218 217 215 213 212 214 217 222 226 229 234 237 243 254 261 265 267 269 270 272 275 275 274 273 274 277 281 281 278 274 272 272 273 274 274 276 279 283 286 286 288 288 288 288 288 288 295 302 305 305 307 310 310 307 304 302 302 302 302 302 304 308 314 318 321 322 321 317 317 317 318 320 323 326 332 337 342 348 352 354 357 358 360 362 363 365 366 367 370 374 378 382 382 382 382 379 375 368 359 352 349 345 340 335 328 322 317 311 303 294 285 278 275 274 277 282 291 299 308 314 316 315 315 317 319 321 320 320 316 312 307 303 299 298 298 304 307 311 312 312 308 308 311 316 321 325 329 331 333 334 334 336 338 340 342 342 343 345 346 344 340 338 336 336 336 336 334 331 329 327 326 326 328 329 333 334 337 340 341 343 344 345 348 348 348 348 348 348 348 348 348 348 348 349 348 348 347 346 344 341 340 339 338 336 336 334 334 333 333 332 332 332 332 333 335 338 339 338 336 334 334 336 336 338 340 341 344 346 348 351 352 351 347 346 346 347 347 348 348 349 350 352 353 356 359 359 359 359 359 360 361 361 360 358 354 351 351 350 352 353 350 343 337 328 321 313 306 298 291 284 278 271 262 252 243 234 226 220 216 213 210 210 210 209 208 207 207 207 207 207 207 208 208 208 208 208 207 207 207 206 206 210 214 218 221 223 227 232 236 241 242 246 248 247 251 258 263 267 273 279 285 290 295 298 299 298 299 302 303 304 305 307 307 306 302 306 308 301 296 291 288 288 288 287 282 279 277 278 277 274 270 264 259 260 264 268 272 276 281 287 296 303 310 320 330 336 339 342 345 348 350 354 362 373 382 388 392 394 392 389 382 376 372 370 368 368 365 363 361 359 361 362 362 362 362 364 364 362 358 353 351 349 347 346 344 341 336 334 333 330 326 320 318 315 315 314 313 313 316 318 318 317 316 314 310 305 301 299 296 294 292 292 292 290 289 289 291 294 298 302 306 307 308 312 314 314 313 310 307 304 300 299 299 299 299 299 299 298 298 298 298 298 298 298 298 298 298 298 298 299 299 299 299 299 298 298 298 299 299 298 299 302 308 316 321 321 323 328 331 334 335 332 331 332 336 339 344 346 346 348 350 353 356 361 363 368 368 367 363 362 362 363 363 366 367 369 371 373 375 376 374 371 368 364 360 357 354 349 344 338 332 327 321 314 305 298 293 290 289 289 289 291 292 292 291 289 286 283 283 283 283 283 283 283 284 284 286 287 286 285 284 283 282 280 278 278 279 279 279 282 283 284 286 286 287 287 287 289 290 289 287 284 282 282 283 284 284 281 278 273 271 269 269 267 264 263 263 267 270 274 276 278 280 282 287 293 295 299 303 305 309 311 314 316 318 318 319 321 322 323 323 325 326 326 326 325 323 321 318 315 312 311 311
303 304 306 308 309 310 310 306 303 301 298 295 295 296 299 303 306 308 309 308 308 307 308 308 306 304 300 296 289 284 281 276 273 273 277 281 283 286 286 286 284 282 281 283 283 281 279 278 278 279 278 277 276 275 274 273 270 267 264 263 260 257 255 251 247 243 238 233 228 224 218 215 209 202 195 187 179 173 171 171 173 179 183 186 186 189 192 190 185 176 168 165 166 166 168 174 178 182 185 187 189 191 193 196 199 202 207 211 213 216 219 221 221 221 220 218 215 213 214 217 221 226 230 234 239 245 253 259 263 264 266 267 268 270 271 270 270 272 275 277 277 275 272 271 271 273 274 274 275 279 283 285 286 287 287 287 287 287 287 292 301 304 303 306 310 311 309 304 303 302 302 302 302 304 306 310 314 318 320 319 317 316 316 317 318 321 326 332 337 343 349 353 357 359 362 364 365 366 368 369 370 370 372 375 378 379 379 379 377 374 368 360 352 347 344 340 334 328 322 318 313 306 297 287 279 274 273 276 282 292 302 311 318 321 320 318 318 319 319 318 316 313 309 305 302 298 296 296 299 303 306 306 304 303 308 314 319 322 325 328 329 331 331 331 333 337 339 340 339 338 339 340 339 337 334 334 336 336 334 332 329 327 325 324 325 328 330 333 334 337 339 340 341 344 345 348 348 348 348 348 348 347 347 347 349 349 349 349 348 347 346 344 341 340 338 336 336 335 334 334 332 332 331 331 331 331 333 335 336 337 337 334 334 334 335 335 337 340 342 343 346 349 353 353 351 347 345 345 346 346 347 347 348 350 351 352 354 356 356 356 356 356 358 358 358 357 355 353 351 351 351 351 352 349 343 336 329 322 316 309 301 294 289 283 276 266 254 244 236 228 221 216 213 212 212 211 209 208 206 206 206 207 207 207 207 207 208 208 210 211 209 207 206 206 209 213 216 219 220 224 229 233 238 239 241 242 244 248 255 261 268 274 278 283 288 293 298 298 298 299 303 304 304 305 304 305 304 301 302 303 298 295 291 288 288 288 286 282 278 276 277 276 272 268 263 259 260 264 268 272 278 283 288 296 305 311 321 331 337 340 344 346 349 350 353 360 371 381 388 392 394 392 388 382 376 371 368 367 365 362 362 360 358 359 361 362 363 364 364 364 362 358 353 352 351 349 348 346 341 337 334 331 327 323 319 318 315 314 314 313 313 314 315 315 315 313 311 309 304 301 300 300 298 298 298 298 296 291 289 289 292 296 300 304 307 309 312 314 314 314 312 309 306 303 300 300 300 299 299 299 299 298 298 298 298 298 298 298 298 298 298 299 300 300 301 301 301 300 299 299 299 299 298 298 300 305 312 317 319 321 326 329 330 331 329 330 332 336 339 343 345 346 348 349 351 355 360 363 367 368 367 364 362 362 363 363 366 368 370 372 374 375 376 376 373 369 365 361 358 355 350 346 340 334 329 322 315 304 297 292 290 290 291 292 294 294 293 292 291 288 286 286 286 284 283 283 284 284 284 285 287 287 285 283 283 282 280 278 278 279 279 280 281 283 284 285 285 287 287 287 288 289 286 284 283 281 280 279 281 280 279 276 273 271 270 269 268 265 263 263 265 267 272 275 277 279 281 286 292 296 299 303 306 309 312 315 317 317 318 318 320 321 323 323 325 326 326 325 323 320 318 316 314 311 310 311
306 305 307 308 308 310 310 306 304 301 300 298 299 300 303 307 311 313 315 314 314 312 311 310 308 306 301 296 289 285 281 279 277 278 282 286 288 290 290 290 288 286 286 287 287 285 283 283 282 281 281 280 278 277 276 275 273 270 268 266 263 260 257 253 250 247 242 237 233 229 223 220 214 207 200 191 182 174 172 172 173 179 184 188 190 192 196 195 189 183 175 168 166 167 169 173 176 180 184 187 189 191 193 196 198 200 205 209 212 215 218 221 223 224 223 221 218 214 214 216 220 225 230 236 241 248 254 258 261 261 262 263 265 267 267 268 268 269 272 272 272 271 269 271 271 273 274 274 274 277 281 284 286 287 287 287 286 286 286 287 295 298 300 304 309 311 309 305 303 302 302 302 302 304 304 307 311 315 318 318 317 316 316 316 317 320 325 332 337 342 349 354 359 361 364 367 369 370 370 372 372 372 372 373 376 376 377 377 375 372 367 360 352 346 343 339 333 327 322 318 313 306 299 288 280 274 273 275 283 294 304 313 320 324 323 320 319 318 318 316 313 310 306 302 299 296 294 294 296 299 301 300 298 301 310 315 321 323 325 327 328 329 328 328 331 334 337 338 336 333 333 334 333 332 332 334 335 335 332 329 327 325 323 323 325 328 329 332 333 335 338 339 341 344 345 348 348 348 347 347 347 347 347 347 349 349 350 349 349 347 346 345 342 340 338 335 335 335 334 334 332 331 331 329 329 330 333 335 336 336 336 334 334 334 335 335 337 341 342 344 347 350 353 353 350 346 345 344 344 345 345 347 349 351 350 350 352 352 353 352 352 353 355 356 356 355 353 351 350 350 350 350 350 347 342 336 329 323 318 312 305 299 292 287 280 271 257 245 238 230 222 216 214 213 212 211 209 208 206 206 206 207 207 207 207 207 208 210 216 216 211 207 206 206 207 211 214 217 218 222 227 231 235 236 237 238 242 247 254 263 269 274 278 281 286 290 295 296 297 299 303 304 303 303 303 302 301 299 299 298 296 293 291 290 289 289 286 281 278 275 274 273 269 266 261 259 261 265 269 273 278 283 288 297 305 312 323 333 339 342 346 348 350 350 353 359 369 381 388 393 393 391 387 382 376 370 368 366 362 360 360 359 358 358 360 362 362 363 364 364 363 358 354 354 353 350 348 345 341 337 334 331 326 321 319 317 314 314 314 313 313 313 313 313 313 311 310 307 305 305 306 305 303 303 303 303 301 296 291 289 290 294 298 303 308 311 313 314 314 314 314 311 309 306 303 301 300 300 299 299 299 299 299 298 298 298 298 298 298 299 299 299 300 301 302 302 302 302 301 301 301 299 298 298 298 303 311 316 319 321 324 327 328 327 328 330 333 337 339 343 345 345 347 349 350 353 358 362 365 367 367 364 362 361 363 364 367 369 370 373 374 375 376 376 374 369 366 361 359 355 350 348 342 336 331 323 316 304 295 291 290 291 293 295 296 295 294 294 293 291 289 289 288 286 284 284 285 284 284 285 286 287 285 283 282 282 281 278 278 279 279 280 281 282 283 285 285 287 287 287 287 287 285 282 281 280 278 277 278 278 277 274 271 271 270 270 269 266 264 263 263 265 270 273 275 278 281 285 292 296 300 304 306 310 313 315 316 317 317 317 319 320 322 323 324 325 325 323 321 317 315 314 313 311 309 309
308 307 307 308 308 308 308 306 304 301 300 301 302 304 307 312 316 318 320 320 319 317 314 312 309 306 301 296 290 286 284 283 281 282 286 289 291 293 293 293 291 290 290 291 290 288 287 287 286 284 284 283 281 280 278 276 275 274 272 269 266 263 259 256 252 249 246 241 237 232 228 225 219 212 203 194 184 176 174 174 175 177 182 188 192 192 195 195 191 185 180 171 166 168 169 173 176 179 183 186 189 192 193 196 198 200 203 207 210 214 217 220 224 226 227 226 222 216 214 215 220 224 230 235 242 249 255 257 258 258 258 259 262 264 264 265 265 266 267 267 268 268 270 271 272 273 274 274 274 276 279 282 284 286 287 287 285 285 285 285 288 292 297 302 308 311 310 306 303 303 302 302 302 303 304 306 309 313 315 316 315 315 315 315 317 320 325 331 337 342 349 355 360 362 365 369 371 372 372 373 373 374 375 375 376 376 377 376 372 369 364 359 352 345 340 337 332 326 322 317 312 306 299 289 280 274 273 276 284 296 305 314 322 326 325 322 320 318 317 315 311 308 303 299 296 294 293 292 294 296 297 295 295 301 309 315 321 324 325 326 326 326 325 325 328 331 334 335 333 329 328 329 329 330 331 334 333 332 329 326 324 322 322 322 325 328 329 332 333 335 338 339 341 343 345 347 348 348 347 347 347 347 347 347 349 349 350 349 349 348 346 345 342 340 338 335 335 334 333 333 332 331 331 329 329 330 332 334 335 336 335 335 335 335 335 335 338 341 342 344 346 349 352 351 349 346 344 343 343 343 344 347 351 353 350 348 349 349 348 348 350 352 353 354 354 353 352 350 350 350 350 349 348 345 341 336 330 325 320 315 308 302 296 290 283 273 259 246 238 231 223 217 214 213 212 210 209 208 206 206 206 207 207 207 207 207 210 215 219 217 211 207 206 206 206 209 213 215 216 219 224 228 231 233 234 236 242 247 255 262 269 274 278 280 284 288 293 296 298 300 303 303 302 302 302 301 299 297 297 296 295 292 291 291 290 289 286 281 278 274 272 270 267 264 260 259 262 266 269 273 278 283 288 297 306 313 325 334 340 345 348 350 351 351 353 357 366 381 389 394 394 391 385 380 375 370 368 366 361 359 359 358 358 358 359 360 361 362 363 364 363 359 355 354 353 350 347 343 340 337 334 331 326 321 319 317 315 315 315 314 314 313 313 313 312 312 311 308 308 310 311 310 309 309 308 308 305 300 294 289 289 293 298 303 308 311 313 314 314 314 314 313 311 309 306 302 301 300 300 300 299 299 299 299 299 299 298 299 299 299 299 300 301 301 302 303 303 303 302 302 302 299 298 298 298 303 313 317 319 320 322 324 325 326 328 331 334 337 339 343 345 345 347 348 350 353 357 361 364 367 366 363 361 360 362 364 366 368 370 373 374 375 375 375 373 369 366 361 359 355 350 348 343 337 331 324 316 304 295 290 290 292 296 298 297 296 296 296 294 293 292 291 289 287 285 286 286 284 283 283 285 287 287 284 282 281 281 278 278 279 280 280 281 282 283 284 285 287 287 287 286 286 284 281 279 278 276 275 276 277 276 273 271 271 271 271 270 266 264 263 263 264 267 271 273 279 281 286 292 296 300 305 307 310 314 315 316 316 316 317 318 320 322 322 323 324 324 323 319 315 313 313 312 310 308 308
310 309 308 307 307 307 307 305 304 302 302 303 305 308 311 316 319 322 324 324 324 321 317 315 312 307 301 295 291 288 288 287 286 286 289 293 295 297 298 297 296 294 293 294 294 293 291 290 289 288 287 286 283 282 280 278 277 276 275 273 270 266 262 258 255 251 248 245 241 236 231 228 222 215 206 196 186 179 178 178 178 176 179 187 193 192 190 190 189 186 181 174 167 168 170 173 175 178 182 185 188 191 193 195 198 200 203 206 208 212 216 220 225 227 228 227 225 220 217 217 220 224 229 234 241 248 253 255 255 255 255 255 258 260 260 260 261 262 263 264 267 270 273 274 274 273 275 275 275 276 279 280 282 284 285 285 284 284 284 285 285 288 295 302 308 311 311 307 304 303 303 303 303 303 304 306 308 311 313 314 313 313 314 314 316 319 324 330 336 342 348 355 360 362 365 369 371 372 373 374 375 376 377 378 377 377 376 373 370 366 362 358 352 345 339 335 331 326 322 317 312 306 299 289 281 274 272 276 284 296 305 314 323 328 328 324 320 317 316 313 310 306 301 296 293 291 290 290 291 292 292 291 293 300 307 314 320 323 325 325 324 323 323 323 325 328 330 331 329 326 325 327 328 329 330 331 331 329 327 324 321 319 320 321 325 328 329 332 333 335 338 339 341 342 344 346 347 347 347 347 347 347 347 348 349 350 350 350 350 348 347 345 342 340 338 335 335 334 333 333 332 331 331 329 329 329 330 332 334 335 334 334 334 334 335 335 338 341 342 344 346 347 348 348 347 345 344 343 342 342 343 347 350 353 349 346 346 345 345 346 349 351 352 352 353 352 352 352 350 350 349 348 347 344 340 336 331 326 322 317 311 305 300 294 287 275 261 248 239 231 224 217 215 213 212 210 208 208 207 206 206 206 206 207 207 209 213 218 217 212 209 207 206 206 206 208 212 215 214 217 221 224 227 228 231 236 241 247 255 261 268 274 277 279 283 288 293 296 298 300 302 302 300 300 302 301 298 295 295 295 294 292 291 291 290 289 286 281 278 274 272 270 266 262 259 259 263 266 270 274 278 282 287 298 306 315 327 335 342 347 350 350 351 351 352 355 363 380 391 394 394 390 384 378 374 370 368 367 363 360 358 358 358 359 359 359 360 361 362 364 363 359 355 354 353 349 344 341 338 336 333 330 325 321 320 319 317 317 316 315 315 315 315 313 313 314 313 311 311 314 315 315 314 314 313 311 308 303 297 290 288 291 297 303 307 311 313 314 314 314 314 314 312 311 308 305 304 302 300 300 299 299 299 299 299 299 299 299 299 300 300 301 301 302 302 303 303 303 302 303 303 300 298 298 299 303 312 317 318 319 321 323 324 326 330 333 335 337 339 342 344 345 346 348 349 352 356 360 363 365 365 363 360 359 361 363 366 368 369 372 373 374 375 374 373 369 365 361 359 355 350 347 343 337 332 325 316 305 295 291 290 293 298 301 299 298 298 298 297 295 294 292 290 288 287 288 288 286 284 283 283 285 286 284 282 280 279 278 278 279 280 280 280 280 282 283 285 286 286 286 285 285 284 281 278 276 274 273 274 275 275 273 272 272 273 273 270 266 265 263 263 263 265 269 273 279 281 286 293 297 301 305 308 311 314 315 315 315 315 316 317 319 321 321 322 324 325 323 319 314 312 311 310 309 308 308
311 309 307 305 305 305 305 304 304 304 304 305 307 310 314 318 321 324 326 328 328 326 322 318 315 309 301 295 293 292 293 292 291 291 293 296 299 301 303 302 299 297 296 297 297 296 295 294 293 291 289 288 286 284 283 280 279 278 277 275 272 269 265 260 257 253 250 247 244 240 235 232 225 217 208 197 188 183 184 184 183 179 179 186 193 191 187 185 185 184 181 176 169 168 170 173 174 177 179 183 186 190 192 195 198 199 203 206 207 212 216 220 224 227 228 227 226 224 222 222 221 224 227 232 239 245 249 252 252 252 252 253 255 256 256 255 256 258 260 264 269 274 277 279 276 275 276 276 277 278 280 280 280 283 284 285 285 285 285 285 285 286 292 299 305 310 311 309 306 304 303 303 303 303 303 305 306 308 310 312 311 312 314 314 316 318 322 328 334 340 347 353 358 362 364 367 370 372 374 374 375 378 379 381 380 378 374 371 368 364 361 358 354 347 341 336 331 327 322 318 312 306 299 290 282 275 272 275 283 293 302 311 321 328 331 327 321 316 314 311 308 304 299 293 290 289 288 287 287 288 287 288 291 297 305 312 318 323 324 325 323 322 321 321 323 324 326 326 324 323 323 325 327 328 328 329 330 328 325 322 319 317 319 321 326 329 329 332 333 335 337 339 340 341 342 344 345 346 347 347 347 347 347 349 350 351 352 351 350 348 347 345 342 340 338 335 335 334 333 333 332 331 331 330 330 329 329 330 332 333 333 333 333 333 334 335 337 341 342 343 345 346 346 346 346 345 343 343 341 341 342 345 347 349 346 345 343 342 343 346 348 349 350 351 351 351 352 352 350 350 348 347 346 344 339 337 332 328 324 319 314 308 303 298 289 277 263 249 238 230 224 219 215 214 213 211 210 208 207 207 206 206 206 207 207 212 218 217 212 209 207 207 206 206 206 208 211 213 212 215 218 221 223 224 229 236 241 247 254 260 265 271 275 278 283 289 294 297 298 299 300 299 299 299 299 299 297 294 294 294 294 293 293 292 290 289 286 281 278 275 273 271 268 263 258 259 263 267 271 274 278 281 287 298 307 317 328 336 342 348 350 350 351 351 352 354 361 378 391 394 394 390 384 377 373 369 369 368 365 361 358 358 358 359 359 359 359 359 361 363 363 358 355 354 352 347 343 341 338 336 332 328 324 321 321 320 319 319 318 317 317 317 317 316 317 316 315 313 314 317 318 319 319 317 315 313 310 307 301 294 288 289 294 301 306 311 313 314 314 314 314 314 313 312 310 309 308 306 303 300 300 299 299 299 299 299 299 299 299 300 301 302 303 304 303 303 304 304 304 304 304 302 298 298 299 303 310 314 316 318 321 323 325 327 331 333 335 337 338 341 343 344 346 347 349 352 356 360 362 363 364 363 360 358 360 363 365 367 369 371 372 373 373 373 371 368 364 361 358 354 349 346 342 337 332 325 316 306 295 292 292 294 300 302 301 300 300 300 299 297 295 294 292 290 289 289 289 287 285 283 283 283 284 283 282 280 277 276 276 277 278 278 278 279 280 283 284 285 284 284 285 284 283 281 278 274 272 272 273 274 273 272 271 272 274 274 271 267 265 264 263 263 264 267 273 279 281 286 292 297 302 306 309 312 314 314 315 314 313 314 317 319 320 320 321 324 325 323 318 313 310 309 309 307 307 307
312 308 305 304 304 303 303 302 303 304 305 307 309 312 316 319 323 326 328 330 330 328 325 321 317 310 302 297 296 296 296 296 295 294 296 300 302 305 306 306 304 301 300 301 301 301 299 298 296 294 292 291 289 287 285 283 281 280 278 277 274 272 268 263 259 255 252 249 246 242 238 235 227 219 209 198 192 192 192 192 189 185 181 184 188 187 184 182 182 181 179 174 169 168 170 173 174 176 178 181 184 188 191 194 197 199 202 206 208 212 216 219 223 226 227 228 228 226 225 225 224 224 226 229 234 240 246 248 249 249 249 250 253 253 253 253 253 255 259 266 271 276 281 281 278 276 276 277 278 280 281 281 282 284 286 288 289 289 287 285 284 285 290 296 302 308 311 309 307 305 303 303 303 303 303 304 305 305 307 309 310 312 314 314 315 316 320 326 332 337 344 350 355 360 363 367 370 372 374 375 376 378 380 382 383 380 376 371 368 365 362 359 355 349 343 336 332 328 323 319 314 309 301 293 284 277 272 273 282 290 299 307 317 326 331 329 322 317 314 310 307 303 297 291 287 286 286 285 285 286 285 286 290 295 303 310 318 324 326 324 323 322 319 319 320 321 321 320 320 322 323 325 326 327 327 328 328 326 324 321 317 316 318 321 325 327 329 331 333 335 336 337 339 341 341 343 345 345 347 347 347 347 347 349 351 352 353 352 351 349 347 346 342 340 338 335 335 334 333 333 332 331 331 330 330 329 329 329 330 331 332 332 332 333 334 335 337 340 342 343 343 344 345 345 344 344 343 342 341 341 341 343 345 345 344 342 340 340 341 344 346 347 348 349 350 351 351 352 350 349 348 346 345 343 339 337 332 329 325 320 316 310 305 300 291 278 265 250 238 230 224 220 217 214 214 212 212 209 208 207 207 206 206 206 207 213 217 212 209 207 207 207 206 206 205 208 211 211 211 214 216 219 220 222 228 235 241 246 253 259 263 268 273 278 285 291 294 297 298 299 298 297 298 297 297 297 295 294 294 294 294 293 293 292 290 289 286 281 278 276 274 272 269 263 258 259 263 267 271 274 277 281 287 298 308 318 329 337 342 348 350 350 350 350 351 352 360 376 390 392 393 389 383 377 372 370 371 370 367 363 360 359 359 359 359 359 359 359 360 362 361 356 353 353 350 346 344 343 338 336 332 329 324 322 323 322 321 321 320 319 318 319 319 320 319 318 316 315 317 320 321 322 322 320 317 314 312 309 304 298 291 288 290 298 305 310 312 313 313 314 314 314 313 312 312 311 311 308 306 303 301 300 299 299 299 299 299 299 299 300 301 302 303 304 303 304 304 305 305 305 304 301 298 298 299 304 309 311 314 317 320 322 326 327 331 332 334 337 337 339 342 344 346 347 349 352 356 360 361 362 362 362 360 357 359 362 364 365 367 369 371 371 371 370 369 366 363 360 357 353 349 345 340 335 330 323 316 306 296 292 292 295 301 303 303 301 301 301 300 298 296 294 293 292 290 289 289 288 286 285 284 283 283 282 280 279 277 276 275 275 276 276 276 277 279 282 284 283 283 283 284 283 281 279 277 274 272 271 272 273 272 271 270 271 274 274 271 267 265 264 263 263 263 267 272 278 280 285 292 297 302 307 310 312 313 314 314 313 312 312 315 317 318 319 320 322 323 320 316 312 309 308 307 306 306 307
313 308 305 303 302 301 300 300 301 304 305 308 311 313 317 321 323 327 329 330 331 330 327 323 319 312 303 300 299 300 300 301 299 298 300 303 306 309 311 310 308 304 303 305 305 304 303 301 299 297 295 293 292 290 288 286 284 282 280 278 276 274 270 266 261 257 254 250 247 244 240 237 229 219 209 202 202 203 203 201 197 192 187 183 183 182 180 178 177 177 175 172 169 169 170 173 174 177 180 183 185 187 189 192 195 198 201 206 209 213 216 219 222 225 227 227 228 228 228 227 226 227 228 229 231 236 241 244 245 245 245 248 250 251 251 251 251 256 261 268 273 278 281 280 278 278 278 278 279 280 281 283 284 286 288 292 293 293 290 285 284 286 290 296 301 306 309 309 307 305 303 303 303 303 303 303 304 304 304 306 309 312 313 313 315 316 318 323 328 334 341 346 352 358 362 367 370 373 375 376 376 377 379 381 383 382 379 373 368 365 361 358 355 348 343 337 333 330 326 322 317 311 303 296 287 280 273 273 280 287 294 303 312 322 328 330 324 317 313 310 306 302 297 291 287 284 284 284 283 284 284 285 288 294 302 312 321 328 328 324 323 322 318 317 318 318 317 316 318 323 324 324 324 325 325 325 325 323 321 318 316 316 318 320 323 325 328 330 332 334 335 336 338 341 341 343 345 346 347 347 347 347 348 350 352 353 353 352 351 349 347 346 343 340 338 335 335 335 334 334 332 332 332 330 330 330 329 329 329 330 330 330 331 331 333 335 336 338 340 341 342 342 343 343 343 343 342 342 340 340 341 342 343 343 342 340 337 338 340 342 344 345 346 348 349 350 350 349 348 346 345 344 343 341 339 337 333 330 326 321 316 311 307 301 291 278 265 250 239 231 225 221 217 214 214 214 213 210 208 208 208 207 206 206 206 209 210 208 207 206 206 206 206 206 205 207 209 209 210 213 215 217 219 221 228 235 240 245 250 256 260 264 271 279 287 291 294 297 298 299 298 296 296 297 297 295 295 294 293 293 293 294 294 293 290 288 286 281 278 277 276 273 268 263 258 258 263 267 270 273 277 280 287 298 309 320 331 338 344 349 350 350 349 349 350 351 358 373 387 390 391 387 380 375 371 371 372 372 370 365 362 359 359 359 359 359 359 360 360 360 358 354 352 352 350 347 345 343 338 336 332 330 326 324 325 324 323 323 323 321 320 322 322 322 321 319 317 318 320 322 323 324 325 322 318 315 313 310 306 300 294 289 288 293 302 307 310 312 312 313 313 313 313 313 313 313 311 310 309 306 304 302 300 299 299 299 299 299 299 300 300 301 302 302 302 304 304 306 306 306 304 300 298 298 301 305 309 313 314 316 318 321 325 327 330 332 335 337 337 339 342 345 347 348 349 353 356 359 361 361 360 360 360 357 357 361 363 364 366 368 369 369 368 368 366 363 361 358 355 351 347 342 338 333 328 323 316 308 298 293 293 297 302 305 304 303 303 301 300 299 297 296 295 293 291 290 290 289 286 285 284 285 284 283 281 279 276 275 275 275 275 275 275 276 278 281 281 282 282 282 284 282 279 277 275 274 272 270 271 271 271 270 269 271 272 273 272 268 266 265 263 263 263 266 271 277 279 284 291 296 302 308 310 311 311 312 312 311 311 311 313 315 316 318 320 319 318 317 315 312 308 306 305 305 308 308
314 309 305 302 301 299 299 299 301 304 306 309 312 314 318 321 323 327 329 330 331 330 327 323 320 313 305 302 303 304 304 305 304 303 303 306 310 313 315 314 312 308 308 309 309 308 306 304 302 300 297 295 294 292 290 288 286 284 282 280 278 276 273 268 263 259 255 251 247 244 240 239 231 220 213 210 212 212 212 210 206 200 194 187 182 179 178 175 174 173 171 171 170 170 171 173 175 180 184 187 189 190 191 192 194 196 200 205 209 212 215 218 221 223 225 227 228 230 230 230 228 229 230 232 234 236 239 240 242 243 243 246 248 249 250 250 251 257 263 268 273 277 279 278 277 277 279 279 280 280 281 284 284 287 290 293 295 295 292 286 284 287 292 296 300 304 307 308 307 306 303 302 302 302 302 302 303 303 304 306 309 311 313 313 315 315 317 321 325 330 337 344 350 357 362 367 371 374 377 377 376 376 377 380 382 382 379 374 369 365 361 357 353 348 344 340 336 332 328 324 319 313 306 299 292 283 275 274 278 283 290 297 306 316 324 330 326 317 312 309 305 301 296 291 287 284 283 283 282 282 282 285 289 295 304 315 324 329 329 324 321 319 316 315 315 314 314 316 319 323 323 323 323 323 323 323 322 321 319 316 315 316 317 319 322 324 327 330 331 333 335 336 338 341 341 343 346 347 347 347 348 348 349 351 353 353 353 353 352 350 348 346 343 341 339 336 335 335 334 334 332 332 332 331 331 330 329 329 329 330 330 330 330 330 332 334 335 336 338 340 341 342 342 343 342 342 342 341 339 338 339 341 341 342 340 338 335 336 337 340 342 342 344 347 348 349 349 348 346 344 343 341 340 339 338 337 333 331 327 322 316 312 307 299 288 276 264 250 241 232 225 221 217 215 215 215 215 211 209 210 210 209 206 206 206 206 207 206 206 206 206 206 206 206 205 205 207 208 210 211 213 215 218 220 227 233 238 242 247 253 256 261 269 278 286 290 293 296 298 299 297 296 296 296 296 295 294 293 293 293 293 294 294 293 290 288 285 281 279 279 276 272 268 264 259 257 262 266 269 273 277 279 287 299 311 322 332 340 347 351 351 349 348 349 347 349 356 370 384 387 389 384 377 373 370 372 373 373 372 368 364 361 359 359 359 359 359 360 360 358 355 353 353 353 352 349 346 343 339 336 334 331 327 327 327 327 326 326 325 323 322 324 324 324 322 321 319 320 322 323 323 324 325 324 320 318 315 311 307 302 296 291 288 290 297 303 307 310 311 312 312 312 313 314 314 313 313 312 311 308 306 304 301 299 299 299 299 299 299 300 300 301 302 302 302 303 304 305 306 306 303 299 298 298 302 306 311 315 317 317 319 321 324 327 330 332 335 337 337 340 343 345 347 348 349 353 356 358 360 360 359 359 359 356 356 359 361 363 364 366 367 366 366 365 363 361 359 356 352 348 344 339 336 332 327 323 316 307 298 293 295 298 302 306 306 305 303 302 301 301 299 298 297 294 292 290 290 289 287 285 285 286 286 284 282 280 278 276 275 275 275 275 275 275 277 278 279 280 280 281 282 281 279 276 274 273 272 270 269 270 271 269 268 269 270 271 271 268 267 265 263 263 263 266 271 276 278 283 290 295 302 307 310 310 310 310 310 310 310 310 311 313 314 316 317 315 314 315 313 310 307 305 305 308 311 311
315 310 306 302 300 299 298 299 301 304 306 309 312 314 318 322 323 326 328 329 329 328 325 322 319 313 306 304 305 306 308 309 309 307 307 310 314 318 320 319 316 313 312 313 313 312 310 307 305 302 299 297 296 295 293 290 288 286 284 282 280 278 275 271 265 261 257 253 248 245 240 238 232 223 220 220 220 219 218 215 213 208 201 194 188 182 179 175 173 172 171 171 171 172 172 173 177 181 187 190 193 194 194 196 197 198 200 203 207 211 214 216 219 221 224 227 228 231 233 233 232 232 232 234 238 242 243 242 243 243 243 245 246 247 248 249 251 256 263 268 272 273 275 275 275 277 279 281 281 281 282 284 285 287 290 293 296 297 294 289 285 287 292 296 299 302 305 307 306 305 303 302 302 302 302 302 303 303 304 305 308 311 313 313 315 315 316 320 323 328 336 342 350 356 361 365 370 374 375 375 375 376 378 380 381 381 379 376 372 368 363 358 354 350 347 343 339 334 330 326 321 316 311 305 298 288 278 273 275 280 285 292 299 308 318 326 324 317 311 307 303 299 295 290 287 284 282 281 281 281 283 285 290 296 307 317 325 329 329 324 320 317 315 313 312 311 312 317 320 322 322 321 320 320 320 320 319 319 317 315 315 315 316 317 321 324 326 330 331 333 335 336 338 341 342 344 346 347 349 349 350 350 351 352 354 354 354 353 352 351 349 346 344 342 340 338 336 335 334 334 333 332 332 331 330 330 330 330 330 330 330 330 330 330 332 333 333 335 337 339 340 341 342 341 341 341 340 339 338 336 336 338 340 340 338 336 334 334 335 338 340 340 344 348 348 349 348 347 345 343 341 338 337 338 336 335 333 331 328 322 318 312 306 296 285 274 263 250 240 232 225 220 216 215 215 216 216 213 211 212 212 211 208 206 206 206 206 206 206 206 206 206 206 206 205 205 207 210 210 210 212 213 216 218 225 231 234 238 244 250 253 259 267 275 283 289 292 295 297 296 296 296 295 296 295 294 292 292 292 292 292 294 294 293 291 288 284 280 280 280 276 272 267 264 259 256 259 263 267 272 276 278 287 301 312 323 334 342 349 352 350 346 345 347 345 347 355 366 380 384 384 380 375 371 370 372 373 375 374 372 367 362 360 359 359 359 359 360 360 357 353 352 354 355 354 351 348 345 340 338 336 332 328 330 330 329 329 328 327 326 325 325 326 326 324 323 322 322 323 323 322 323 324 324 322 320 317 313 307 302 298 292 289 289 293 299 303 307 310 311 311 311 313 314 314 314 314 313 311 309 307 304 303 300 299 299 299 299 299 300 301 302 302 302 302 303 304 305 305 305 302 298 298 299 302 307 313 317 319 319 320 322 324 326 330 332 335 337 338 340 343 345 346 348 349 353 355 357 358 358 358 357 357 356 356 356 358 360 363 365 365 364 363 362 361 359 357 353 349 345 341 337 334 330 325 322 314 305 298 295 296 299 303 307 307 305 303 303 303 303 301 300 297 295 293 291 291 290 287 286 286 287 287 285 282 281 278 276 276 275 275 275 275 275 276 276 277 279 279 279 280 279 278 275 273 272 271 269 268 269 269 269 267 267 268 269 269 268 267 265 263 263 263 265 270 275 278 283 290 295 301 306 309 309 308 308 308 308 308 309 310 311 312 313 314 312 311 312 310 308 305 305 307 311 313 313
315 310 306 302 300 299 298 298 300 304 306 309 312 314 318 321 323 325 326 327 326 325 322 319 316 312 308 306 307 308 310 312 313 312 312 313 318 323 324 324 320 317 317 317 316 314 312 310 307 304 302 299 298 297 295 292 290 288 286 284 282 280 277 273 268 263 259 254 249 244 240 237 233 229 229 228 227 224 223 220 218 213 206 199 193 187 181 178 176 175 174 172 171 172 173 175 179 182 187 191 194 197 199 201 203 203 202 204 207 211 213 214 219 221 224 227 229 233 235 236 236 236 234 236 243 248 250 247 246 246 245 245 246 246 248 248 250 255 261 266 269 271 272 274 275 278 281 281 282 282 283 285 285 287 290 293 297 298 296 292 287 287 292 295 298 302 303 307 308 305 303 302 302 302 302 302 303 303 304 305 307 311 313 313 315 315 316 320 324 329 337 342 349 355 360 363 367 371 372 372 375 377 378 379 381 382 380 378 376 372 367 360 355 352 349 345 341 336 331 328 325 321 316 310 303 292 281 273 273 277 282 287 293 301 310 318 319 315 309 306 301 296 293 290 286 283 281 280 280 280 283 286 291 297 307 317 324 328 327 323 320 316 314 311 310 311 313 318 319 321 320 319 318 317 317 317 318 318 317 314 314 314 315 317 320 323 326 329 330 332 334 336 337 340 342 345 347 348 349 349 350 351 352 353 354 354 354 354 353 353 350 347 345 343 341 339 337 335 334 334 333 332 332 331 330 330 330 330 330 330 330 330 330 330 332 333 333 335 335 337 340 341 341 340 340 340 339 338 336 335 335 336 337 337 336 334 333 333 334 336 339 341 346 348 349 349 346 344 343 341 339 336 335 335 334 333 331 329 326 321 317 312 304 294 283 273 262 250 240 232 224 220 216 215 215 216 217 215 212 212 212 211 208 206 206 207 207 207 207 206 206 206 206 206 206 206 208 212 212 210 211 212 214 215 221 227 231 235 239 246 251 258 265 273 279 286 289 292 293 294 296 296 295 294 294 293 292 291 291 292 292 294 294 294 291 289 283 278 280 280 276 272 268 264 259 255 256 261 265 271 274 277 288 302 313 323 335 343 350 351 347 343 343 345 343 345 353 363 374 379 379 376 373 370 370 372 374 376 376 374 370 365 361 359 359 359 359 359 359 356 351 350 353 355 354 352 348 343 340 338 336 333 330 332 332 332 331 330 329 328 327 328 328 328 326 325 324 323 323 323 321 321 321 322 322 321 317 312 307 302 298 292 289 289 291 294 299 304 307 308 309 310 312 313 314 315 315 314 311 309 307 304 303 300 299 299 298 299 300 302 303 305 303 302 302 303 304 305 305 305 301 298 298 299 303 307 314 317 319 320 321 324 325 327 330 333 335 337 338 341 342 343 345 347 349 353 354 356 357 356 356 356 356 356 355 353 354 357 361 364 363 362 360 360 359 356 354 350 347 345 341 337 333 328 323 319 311 304 299 297 297 300 304 307 307 306 304 304 304 304 302 300 298 295 293 293 292 290 287 286 286 287 287 285 283 281 279 277 276 275 275 275 275 275 275 275 275 277 277 278 278 278 278 275 272 271 270 268 267 268 269 268 267 267 267 267 267 266 266 265 263 263 263 264 268 274 277 283 290 294 300 305 307 307 307 306 307 306 306 307 308 309 310 311 312 310 309 310 308 306 304 305 309 314 314 315
314 310 306 302 300 299 298 298 300 303 305 308 311 313 316 319 322 324 324 324 323 322 319 316 313 311 308 307 308 310 311 314 317 317 318 318 321 326 329 329 324 321 321 321 320 317 315 313 310 307 305 302 300 299 298 295 293 290 289 287 284 282 279 275 270 265 260 255 249 243 238 237 236 237 236 234 232 229 227 225 222 218 210 202 195 189 184 181 180 179 177 174 172 172 174 177 181 184 186 189 194 198 202 205 208 209 207 207 208 211 214 216 220 222 224 227 231 234 238 240 242 242 240 239 245 253 255 253 249 248 247 246 246 247 248 248 249 253 259 263 266 268 270 273 275 278 280 281 283 283 283 285 286 287 290 293 298 300 298 294 290 289 292 296 299 302 304 308 310 307 303 302 302 302 302 302 302 303 304 305 307 311 313 313 315 315 316 320 324 329 337 342 349 355 358 361 363 366 368 370 373 376 377 378 381 382 382 381 379 375 369 362 356 352 349 346 342 338 334 332 329 325 320 314 306 295 283 273 271 274 279 283 288 294 302 310 313 312 308 304 299 295 291 288 285 282 280 279 279 280 282 286 291 297 306 315 321 325 324 321 318 315 312 311 310 311 313 317 318 319 319 318 316 315 314 315 317 318 317 313 312 313 314 317 319 322 325 328 329 331 333 335 337 339 342 344 347 348 349 349 350 352 353 353 354 354 355 355 355 353 351 348 346 344 342 339 337 335 334 334 333 332 332 331 330 330 329 329 329 330 330 330 330 330 332 333 333 335 335 337 339 339 340 339 338 338 337 337 335 334 334 335 335 335 334 333 331 332 333 335 339 342 345 347 348 347 344 342 341 340 338 335 333 333 333 331 327 326 322 318 314 309 301 291 282 271 261 250 240 232 225 220 217 216 216 218 219 216 212 211 211 209 208 208 208 210 210 208 207 206 206 206 205 205 205 205 208 212 213 210 209 210 212 213 218 222 228 233 237 243 250 258 264 270 275 280 285 288 290 293 295 296 295 293 292 291 291 291 291 292 292 294 294 294 291 289 283 278 278 280 276 272 268 265 261 255 255 259 265 270 272 277 288 301 312 323 335 343 350 350 344 340 340 342 341 343 350 359 368 373 373 372 371 371 371 372 374 376 377 376 372 368 363 360 359 359 359 358 357 354 350 350 353 354 354 351 345 341 339 339 337 335 332 333 334 334 334 333 331 330 329 330 330 329 329 328 327 325 324 323 321 320 320 319 320 319 316 312 308 303 299 294 291 290 291 292 295 299 302 305 307 309 310 312 313 315 315 314 312 310 306 304 303 300 299 299 298 299 301 303 304 307 306 303 303 303 303 305 305 304 300 298 298 299 304 307 313 316 318 319 321 324 326 328 332 334 336 338 338 341 342 342 345 347 349 353 354 356 356 355 354 354 354 354 354 353 353 355 358 361 361 360 358 357 356 353 350 347 345 343 341 337 332 327 322 316 309 304 301 298 297 302 306 308 308 306 305 306 306 305 304 301 299 297 295 293 291 289 287 287 287 287 287 285 284 282 280 277 277 275 275 275 275 275 275 275 275 275 276 276 277 277 277 275 272 269 268 267 267 267 267 267 267 266 266 266 266 266 266 265 263 263 263 263 266 273 277 283 290 294 299 303 305 305 305 304 305 305 305 306 307 307 308 309 310 308 307 307 307 304 303 305 308 312 314 314
311 309 305 302 300 298 297 297 299 302 305 308 310 312 315 317 319 321 321 321 320 319 317 314 311 310 308 306 307 311 313 316 319 322 324 325 326 329 332 333 329 326 326 326 324 321 318 315 312 309 307 304 302 301 300 297 295 293 291 289 286 284 281 278 272 267 262 256 250 243 239 239 241 242 241 239 236 233 230 228 225 221 214 206 198 193 189 187 186 183 181 177 173 172 174 178 183 187 188 189 192 196 201 206 209 210 210 210 211 212 215 218 221 223 224 228 231 236 240 244 247 247 247 246 248 255 260 259 254 251 250 248 248 248 249 249 249 251 255 259 262 265 269 272 275 278 280 281 282 283 283 285 286 288 290 293 297 300 299 295 292 291 294 298 300 303 305 309 311 309 304 302 302 302 302 302 302 303 304 306 308 311 312 313 315 315 316 320 324 329 336 342 348 354 356 359 360 362 364 368 371 373 375 378 381 383 384 383 381 377 370 364 357 353 350 347 344 341 338 335 332 327 322 316 308 298 287 275 270 271 275 279 284 289 295 302 307 308 307 304 299 295 290 286 283 280 278 278 278 279 282 286 290 298 306 313 318 322 321 319 316 314 312 311 310 310 313 317 317 318 318 317 315 313 312 313 315 317 316 313 311 311 313 316 318 321 323 326 328 330 333 334 336 339 340 343 346 348 348 349 351 353 353 354 354 355 355 355 355 353 351 349 346 345 342 340 338 336 334 334 332 332 332 331 330 330 329 329 329 330 330 330 330 330 331 332 333 334 335 337 338 339 339 338 337 336 336 335 334 333 333 334 334 333 332 331 329 330 333 336 339 342 343 345 346 345 342 341 340 338 337 334 331 331 332 330 325 322 319 313 309 305 298 288 279 269 260 251 241 234 226 221 217 216 216 220 221 217 213 211 210 209 210 211 213 211 208 207 207 206 205 205 205 205 205 205 206 211 214 211 208 208 210 212 216 220 226 231 235 241 249 256 262 267 270 275 280 284 287 291 294 294 294 293 291 290 290 290 291 292 292 293 294 293 291 288 283 277 278 279 276 272 268 266 263 256 254 258 264 268 270 278 287 299 311 323 334 341 348 346 341 336 337 339 338 340 346 353 360 365 367 368 369 371 371 373 374 376 377 377 374 370 365 361 358 358 358 356 354 351 349 349 352 354 352 348 343 340 340 342 341 337 334 335 336 337 336 335 333 331 331 331 331 331 332 332 330 328 326 324 322 320 319 319 319 319 316 314 310 306 301 296 293 291 290 290 291 294 297 302 305 308 309 310 313 314 315 314 312 309 306 305 303 301 300 299 299 299 301 302 304 307 307 303 302 302 303 304 305 303 298 297 298 301 305 308 311 314 317 319 321 324 326 328 332 334 336 338 338 341 342 343 345 347 349 352 354 356 355 354 353 352 353 353 353 353 354 354 356 359 359 358 355 353 352 350 348 344 341 340 338 335 330 324 319 312 307 306 303 299 299 302 306 309 310 306 305 306 307 307 305 303 301 299 297 293 291 288 287 287 287 287 287 286 284 283 280 278 277 276 275 275 275 275 275 275 275 275 275 275 276 276 276 274 272 269 267 266 266 266 266 266 266 266 266 266 266 265 265 265 263 263 263 263 264 272 276 283 290 294 298 301 303 303 303 303 304 303 304 304 305 305 306 307 307 306 304 304 304 302 302 303 305 309 311 313
