ncols         949
nrows         33
xllcorner     -71.3777777778
yllcorner     41.76606
cellsize      1.0E-5
NODATA_value  -9999
32 32 32 30 29 26 26 29 32 35 38 40 40 39 38 39 40 40 40 38 33 28 26 26 28 37 40 39 39 38 37 36 33 33 38 44 48 48 48 51 53 52 52 53 52 53 54 57 57 61 69 69 66 63 60 60 59 60 59 59 58 49 44 36 34 34 33 33 33 34 34 34 34 35 38 43 48 51 55 56 57 59 59 57 54 51 49 48 47 47 47 47 48 51 52 54 57 56 56 50 44 44 46 48 49 52 55 57 53 45 40 39 39 37 35 34 34 33 33 33 33 33 33 34 35 36 38 38 37 35 34 33 33 33 33 33 33 33 33 33 33 33 33 34 34 34 34 34 36 36 37 40 42 44 46 48 50 50 52 52 52 52 52 51 51 53 56 57 60 62 62 62 61 60 59 58 58 61 62 62 61 61 61 60 57 54 52 52 51 50 48 47 44 42 42 44 44 46 47 49 49 49 49 49 48 48 48 48 48 51 52 54 55 55 55 55 52 49 47 45 45 45 45 45 43 43 42 42 42 42 41 41 39 38 36 36 36 36 36 36 35 34 34 32 32 32 32 32 33 33 33 33 34 35 35 34 34 33 33 33 32 32 32 33 35 37 39 39 38 38 37 36 36 36 35 34 33 33 33 33 33 33 34 34 34 34 34 34 34 35 35 35 35 35 35 35 35 36 36 36 36 36 36 36 36 36 36 36 36 36 36 37 37 37 37 37 39 42 43 42 42 42 42 42 42 42 42 42 42 42 42 42 42 42 42 42 42 42 42 42 42 42 42 42 42 42 42 42 42 42 42 42 42 42 41 40 40 40 40 41 42 42 42 41 40 39 37 35 35 33 32 31 31 31 31 31 33 32 32 32 32 32 32 32 32 32 32 32 32 32 32 32 32 32 32 32 32 32 32 32 32 32 32 32 32 32 32 32 32 32 32 32 33 35 37 37 38 38 38 37 36 36 35 35 35 35 35 36 36 36 36 36 36 36 35 35 35 35 35 36 36 36 35 35 35 35 35 35 35 33 33 33 32 32 32 32 32 32 32 31 31 30 30 30 30 30 30 30 30 30 30 30 30 30 32 33 33 33 33 33 33 33 33 33 33 33 33 33 33 33 32 32 31 31 31 30 30 30 30 30 30 30 29 29 29 29 29 29 29 29 30 30 30 31 31 32 32 32 32 33 32 32 30 30 27 27 26 26 26 27 27 27 27 27 26 26 25 25 25 25 25 25 25 25 24 24 23 23 23 23 23 23 23 22 22 22 22 22 22 22 22 23 23 24 24 24 24 24 24 24 24 24 24 24 24 24 24 25 25 25 26 26 27 30 30 28 29 29 29 30 30 30 31 31 31 31 31 30 30 30 30 30 29 27 23 23 23 24 24 23 23 23 22 22 19 17 16 16 16 16 16 18 19 19 20 20 19 17 17 17 17 17 17 17 17 17 17 17 17 17 17 18 18 19 19 19 19 19 19 18 18 18 18 20 21 21 21 21 19 19 18 18 18 17 17 17 17 17 17 17 17 17 19 18 17 17 16 16 17 20 22 22 24 24 24 24 24 24 24 25 25 26 27 27 28 28 29 28 28 26 26 25 25 24 24 24 23 23 23 23 23 23 23 24 24 24 24 24 23 22 21 20 20 21 21 21 21 21 21 21 21 21 21 21 21 21 21 21 20 20 18 17 17 17 17 17 17 17 18 22 23 23 24 24 25 25 25 26 26 27 26 26 25 23 20 19 19 19 21 21 21 20 18 18 17 17 17 17 17 17 17 17 17 17 17 17 17 17 17 17 17 17 17 17 17 17 17 17 17 17 17 18 19 20 21 18 17 17 18 18 17 17 17 17 17 17 17 17 17 17 17 17 17 17 17 17 17 17 17 17 17 17 17 17 17 17 17 17 17 16 16 16 16 16 16 16 16 16 16 16 16 16 15 15 15 15 15 15 15 15 15 16 16 15 15 15 15 15 15 15 15 15 15 15 14 14 14 14 14 16 19 18 17 18 21 23 23 23 22 19 15 12 9 9 12 14 15 16 17 17 15 15 14 13 12 12 12 11 11 12 12 12 13 13 14 14 14 14 14 14 15 15 15 15 16 16 16 17 17 18 18 18 20 20 21 21 19 18 18 17 16 16 16 17 18 18 18 18 20
32 32 32 31 30 28 27 30 32 35 38 39 40 40 40 40 39 38 37 34 29 27 25 25 28 37 40 39 39 38 37 35 32 32 38 44 47 47 47 49 53 54 55 55 54 55 55 56 56 62 70 70 66 62 59 59 58 57 56 57 57 50 45 37 34 34 33 33 33 33 33 34 34 35 37 42 47 51 55 57 59 60 61 60 58 55 52 51 49 49 50 49 49 51 52 56 58 56 52 46 44 46 47 48 51 54 55 55 51 44 39 37 37 35 33 33 33 33 33 33 33 33 34 36 37 38 37 37 35 33 32 32 33 33 33 33 32 31 32 33 33 33 33 35 35 34 34 35 36 37 38 40 42 45 47 49 50 51 52 52 52 51 51 51 51 54 56 57 60 62 64 64 63 62 61 60 61 62 63 64 64 64 64 64 60 56 54 53 52 51 49 47 44 42 42 43 44 46 47 48 48 48 48 48 48 48 48 48 48 50 52 53 54 55 56 55 52 49 47 45 45 45 45 45 45 45 44 43 44 44 43 42 41 40 38 37 36 36 36 36 36 34 33 32 32 32 32 32 33 33 33 33 34 34 34 33 33 33 33 33 32 32 32 34 37 39 41 42 41 40 38 36 36 36 35 34 33 33 33 33 33 33 34 34 34 34 34 34 34 35 35 35 35 35 35 35 35 35 35 36 36 36 36 36 36 36 36 36 36 36 36 38 38 37 37 38 40 41 41 41 41 42 42 42 42 42 42 42 42 42 42 42 42 42 42 42 42 42 42 42 42 42 42 42 42 42 42 42 42 42 42 42 42 42 41 40 40 39 39 39 40 40 40 40 39 38 37 35 34 32 32 31 31 31 31 31 33 32 32 32 32 32 32 32 32 32 32 32 32 32 32 32 32 33 33 33 33 33 32 32 32 32 32 32 32 32 32 32 32 32 32 32 32 34 35 35 35 36 36 36 35 35 35 35 35 35 35 36 36 36 36 36 36 36 35 35 35 35 35 36 36 36 35 35 35 35 35 34 34 33 33 33 32 32 32 32 32 33 33 31 31 30 30 30 30 30 30 30 30 30 30 30 30 30 31 32 33 33 33 33 33 33 33 33 33 33 33 33 33 33 32 32 32 32 32 31 31 30 30 30 30 30 29 29 29 29 29 29 29 29 30 30 30 30 31 32 32 32 32 32 32 32 30 30 28 27 27 27 27 27 27 27 27 27 26 26 26 25 25 25 25 25 25 25 24 24 23 23 23 23 23 23 23 22 22 22 22 22 22 22 22 23 23 24 24 24 24 24 24 24 24 24 24 24 24 24 24 24 25 25 26 26 27 28 29 28 28 29 29 30 30 30 31 31 31 31 31 30 30 30 30 30 29 27 23 23 23 24 24 23 23 23 22 22 19 18 16 16 16 16 16 16 17 18 19 19 19 18 17 17 17 17 17 17 17 17 17 17 17 17 17 18 19 20 21 21 21 21 21 20 20 19 20 21 21 21 21 21 19 19 18 18 17 18 18 17 17 17 17 17 16 16 17 17 17 16 16 16 19 22 22 22 23 23 24 24 24 24 24 25 25 26 27 27 27 28 28 28 28 26 26 24 24 24 24 24 23 23 23 23 23 23 23 23 23 23 23 23 22 21 21 20 20 21 21 21 20 20 20 20 21 21 21 21 21 21 21 21 20 19 17 17 17 17 17 17 17 17 19 22 24 24 24 24 25 25 25 26 26 26 27 27 26 24 22 21 20 19 19 20 20 20 18 18 17 17 17 17 17 17 17 17 17 17 17 17 17 17 17 17 17 17 17 17 16 16 17 17 17 17 17 19 21 22 22 20 18 18 18 18 17 17 17 17 17 17 17 17 17 17 17 17 17 17 17 17 17 17 17 17 17 17 17 17 17 17 17 17 17 16 16 16 16 16 16 16 16 16 16 16 16 16 15 15 15 15 15 15 15 15 15 16 16 16 15 15 15 15 15 15 17 17 17 17 16 15 15 14 15 22 25 21 17 17 22 24 24 23 20 16 13 11 8 9 12 14 15 16 17 16 15 15 14 13 12 11 11 12 12 12 12 12 13 13 14 14 14 14 14 14 15 15 15 15 16 16 16 17 17 18 18 18 20 20 20 20 19 18 18 16 14 15 15 16 18 18 18 18 18
32 33 33 32 31 31 30 29 30 33 36 38 39 40 40 39 36 33 32 30 27 26 25 25 30 38 40 39 39 38 36 34 32 33 38 45 46 47 47 47 52 54 55 55 57 60 58 56 56 60 67 69 66 62 59 59 57 57 56 56 55 50 46 37 35 35 33 33 33 33 33 33 33 35 37 41 46 51 56 57 60 62 63 63 61 59 56 55 53 53 54 53 51 51 53 56 56 53 49 45 47 48 48 49 53 57 54 52 48 42 38 36 35 33 33 33 33 33 33 33 34 35 37 37 38 38 36 35 33 32 32 32 32 31 32 32 31 31 31 33 33 33 33 35 35 35 35 37 38 38 39 41 44 46 49 50 51 51 52 52 52 51 51 51 53 55 56 57 61 63 65 65 64 63 62 62 62 63 65 67 67 67 67 67 64 61 57 55 53 51 49 47 44 42 42 43 45 47 47 48 48 48 48 48 48 48 48 48 48 49 51 53 54 55 57 56 53 50 47 45 45 45 45 45 45 45 44 44 45 44 44 44 43 42 41 38 37 36 36 36 35 33 32 32 32 32 32 32 33 33 33 33 34 34 34 33 33 33 33 33 32 32 32 34 37 38 40 42 42 41 38 37 37 37 35 33 33 33 33 33 33 33 34 34 34 34 34 34 34 35 35 35 35 35 35 35 35 35 35 35 35 36 36 36 36 36 36 36 36 36 38 39 39 38 38 38 39 40 41 41 41 42 42 42 42 42 42 42 42 42 42 42 42 42 42 42 42 42 42 42 42 42 42 42 42 42 42 42 42 42 42 42 42 42 41 40 40 39 39 38 38 38 39 39 38 37 36 35 33 32 32 31 31 31 31 33 33 33 33 32 32 32 32 32 32 32 32 32 32 32 32 32 32 32 32 33 33 33 33 33 32 32 32 32 32 32 32 32 32 32 32 32 32 33 34 33 34 34 35 35 35 35 35 35 35 36 36 36 36 36 36 36 36 36 35 35 35 36 36 36 36 36 35 35 35 35 35 34 34 34 34 33 33 33 33 33 33 33 32 31 31 30 30 30 30 30 30 30 30 30 30 30 30 30 31 31 33 33 33 33 33 33 33 34 34 34 34 34 33 33 33 33 33 33 33 32 32 31 30 30 30 30 29 29 29 29 29 29 29 29 30 30 30 31 31 31 31 32 32 32 32 32 30 30 28 28 27 27 27 26 26 26 26 26 26 26 26 25 25 25 25 24 24 24 24 24 23 23 23 23 23 22 22 22 22 22 22 22 23 23 23 23 23 24 24 24 24 24 24 24 24 24 24 24 24 24 24 24 25 25 26 26 27 28 28 28 28 29 29 30 30 30 31 31 31 31 31 30 30 30 30 30 29 28 24 24 24 24 24 23 23 23 22 22 19 18 17 16 16 15 15 15 16 17 18 18 18 18 17 17 17 17 17 17 17 17 17 17 17 17 17 18 19 21 21 21 21 21 21 21 21 21 21 21 21 21 21 21 19 19 17 17 17 17 17 18 18 18 18 17 16 16 17 17 17 16 17 18 19 20 21 21 22 22 24 24 24 24 24 24 24 26 26 26 27 27 28 28 28 26 26 25 24 24 24 24 23 23 23 23 23 23 23 23 23 23 23 23 21 21 21 20 20 21 21 21 20 20 20 20 21 21 21 21 21 21 21 20 19 19 17 17 17 17 17 18 18 17 19 22 24 24 25 25 25 25 25 25 25 26 26 27 26 25 24 24 22 21 20 20 20 19 18 18 18 18 18 18 18 17 17 17 17 17 17 17 17 17 17 17 17 17 17 16 16 16 16 16 17 17 19 20 21 22 22 20 18 18 17 17 17 17 17 17 17 17 17 17 17 17 17 17 17 17 17 17 17 17 17 17 17 17 17 17 17 17 17 17 17 16 16 16 16 16 16 16 16 16 16 16 16 16 15 15 15 15 16 16 16 16 16 16 16 16 16 16 16 16 16 16 17 18 18 17 17 17 15 16 20 26 27 22 16 18 23 24 24 22 19 16 12 10 8 9 13 15 15 16 16 15 14 14 13 12 11 11 11 12 12 12 12 12 13 13 13 13 13 14 14 14 15 15 15 15 16 16 16 17 17 18 18 18 20 20 19 19 19 18 17 15 14 15 15 16 18 18 18 18 18
34 36 36 34 33 33 30 29 29 31 34 37 38 40 40 36 31 29 28 27 26 26 25 28 34 39 41 40 39 38 36 33 31 33 39 46 47 46 46 47 51 53 53 54 57 61 60 56 56 57 62 65 64 62 59 59 57 57 56 55 54 49 45 38 35 35 34 34 33 33 33 33 33 35 37 40 45 50 56 58 61 64 65 65 64 62 59 58 56 56 57 55 52 52 53 55 54 50 46 46 50 50 48 50 56 57 52 49 46 40 37 35 34 33 33 33 33 33 33 34 36 36 37 36 37 36 34 33 32 31 31 31 31 30 31 32 31 31 31 32 32 33 33 34 34 34 36 38 40 40 41 43 45 47 50 51 52 52 52 53 53 53 53 53 54 55 56 57 61 63 65 66 65 64 64 64 64 64 66 68 69 70 70 69 68 65 62 60 55 52 49 47 44 42 41 42 45 48 48 48 49 49 48 48 48 48 48 48 48 49 51 54 55 56 57 57 54 50 46 45 45 44 44 44 45 45 45 45 45 45 46 45 44 43 42 39 36 36 37 35 34 32 32 32 32 32 32 32 33 33 33 33 33 33 33 33 33 33 32 32 32 32 32 33 35 36 38 39 38 37 37 37 37 37 35 33 33 33 33 33 33 33 34 34 34 34 34 34 34 35 35 35 35 35 35 35 35 35 35 35 35 35 35 35 36 36 36 36 36 37 39 41 41 40 39 39 39 39 41 41 41 42 42 42 42 42 42 42 42 42 42 42 42 42 42 42 42 42 42 42 42 42 42 42 42 42 42 42 42 42 42 42 42 42 41 40 40 39 39 38 38 38 38 38 37 36 34 33 32 32 32 31 31 31 32 33 33 33 33 32 32 32 32 33 33 33 32 32 32 32 32 32 32 32 32 33 33 33 33 33 33 32 32 32 32 32 32 32 32 32 32 32 32 32 32 32 33 33 35 35 35 35 35 35 35 36 36 36 36 36 36 36 36 36 35 35 35 36 36 36 36 36 35 35 35 35 35 34 34 34 34 33 33 33 33 33 32 32 32 31 31 31 31 30 30 30 31 31 31 31 31 31 31 31 31 31 33 33 33 33 33 34 34 34 34 34 34 34 34 34 34 34 34 33 33 32 32 31 30 30 29 29 29 29 29 29 29 29 29 29 30 30 31 31 31 31 31 31 31 31 32 32 30 30 29 28 28 27 27 26 26 26 26 26 26 26 25 25 25 24 24 24 24 24 24 24 23 23 23 23 23 22 22 22 22 22 22 22 23 23 23 23 23 24 24 24 24 24 24 24 24 24 24 24 24 24 24 24 25 25 26 26 26 26 27 27 27 27 28 29 30 30 30 30 30 30 30 29 29 30 31 30 28 27 25 24 24 24 24 23 23 23 22 22 19 19 17 16 16 15 15 15 15 16 19 19 18 18 17 17 17 17 17 17 17 17 18 18 17 17 17 17 19 20 21 21 20 20 21 21 21 21 21 21 21 21 20 20 19 17 17 17 17 17 17 18 18 18 18 17 17 17 17 17 19 18 20 20 20 20 21 21 22 23 24 24 24 24 24 24 24 26 26 26 27 27 28 28 28 26 26 25 25 24 24 24 23 23 23 23 23 23 23 23 22 22 22 22 21 21 20 20 20 21 21 20 20 20 20 20 21 21 21 22 21 21 21 20 19 19 17 17 17 17 17 18 18 17 19 22 24 24 25 25 24 24 24 24 25 25 26 26 26 26 25 25 24 22 20 20 20 19 18 18 18 18 18 18 18 17 17 17 17 17 17 17 17 17 17 17 17 17 17 16 16 16 16 16 17 18 21 22 22 22 22 20 18 18 17 17 17 17 17 17 17 17 17 17 17 17 16 16 17 17 17 17 17 17 17 17 16 16 17 17 17 17 17 17 17 16 16 16 16 16 16 16 16 16 16 16 16 16 15 15 15 15 16 16 16 16 16 16 16 16 16 16 16 16 16 17 17 18 18 17 17 17 16 19 23 26 26 21 16 20 23 24 23 21 18 16 12 8 7 10 14 16 16 15 15 14 14 13 12 11 11 11 11 12 12 12 13 13 13 13 13 13 13 14 14 14 14 14 15 15 16 16 16 17 17 18 18 18 19 19 19 18 18 18 16 14 14 15 16 17 18 18 18 18 18
37 39 39 37 35 33 31 30 30 30 33 36 38 39 38 33 29 27 27 27 26 26 27 31 37 40 41 41 40 39 36 32 31 33 40 47 48 47 46 47 51 53 53 53 55 60 60 56 56 57 58 62 63 62 60 60 58 57 56 54 54 48 45 38 35 35 34 34 33 33 33 33 33 35 36 39 44 49 56 59 63 65 67 67 65 63 61 60 59 58 57 55 53 53 53 54 52 48 44 46 51 49 46 49 56 55 50 48 45 39 37 35 33 33 33 33 33 33 35 36 37 37 36 36 36 35 33 32 32 31 31 31 31 30 31 32 31 31 31 32 32 33 33 34 34 35 37 39 41 42 42 44 46 48 51 52 53 54 54 54 55 54 54 54 54 56 57 57 62 63 66 66 66 65 65 65 65 65 66 68 70 72 72 72 70 68 65 63 58 53 49 47 44 42 41 42 45 49 49 49 49 49 49 49 49 49 48 48 48 49 51 55 56 56 57 57 54 51 46 45 45 44 44 44 45 45 46 46 46 46 46 45 45 43 42 38 35 35 37 35 34 32 32 32 32 32 32 32 33 33 33 33 33 33 33 33 33 33 32 32 32 32 32 32 34 35 36 37 35 34 34 36 37 37 34 33 33 33 33 33 34 34 34 34 34 34 34 35 35 35 35 35 35 35 35 35 35 35 35 35 35 35 35 35 36 36 36 36 36 38 39 42 42 40 40 40 40 40 41 41 41 42 42 42 42 42 42 42 42 42 42 42 42 42 42 42 42 42 42 42 42 42 42 42 42 42 42 42 42 42 42 42 42 42 41 40 40 39 39 38 38 38 38 38 37 36 33 32 32 32 32 32 32 32 33 33 33 33 33 32 32 33 33 33 33 33 32 32 32 32 32 32 32 32 32 33 33 33 33 33 33 33 33 32 32 32 32 32 32 32 32 32 32 32 32 32 32 34 35 35 35 35 35 35 35 36 36 36 36 36 36 36 36 36 35 35 35 36 36 36 36 36 35 35 35 35 35 35 35 34 34 33 33 33 33 33 32 32 32 31 31 31 31 31 31 31 31 31 31 31 31 31 31 32 32 32 33 33 34 34 34 34 34 34 34 35 35 35 35 35 34 34 34 33 33 32 32 31 30 30 29 29 29 29 29 29 29 29 29 30 30 30 31 31 31 31 31 31 31 31 32 32 31 31 29 29 28 27 27 26 26 26 27 27 26 26 25 25 25 24 24 24 24 24 24 24 24 24 23 23 23 23 23 23 22 22 22 22 23 23 23 23 23 24 24 24 24 24 24 24 24 24 24 24 24 24 24 24 25 25 26 26 26 26 26 27 27 27 27 28 30 30 30 30 30 30 30 29 29 30 31 30 28 27 25 25 25 24 24 23 23 23 22 22 19 19 17 17 17 16 15 14 14 15 19 19 18 18 18 17 17 17 17 17 17 17 18 18 17 17 17 17 18 19 21 20 20 20 21 21 22 22 22 21 21 20 20 19 18 17 17 17 17 17 17 18 18 18 18 18 18 18 18 18 19 20 20 21 21 20 21 22 23 23 24 24 24 24 24 24 24 26 26 26 27 27 28 28 28 27 27 25 25 24 24 24 23 23 23 23 23 23 23 23 22 22 22 22 21 21 20 20 20 21 21 20 20 20 21 21 21 21 22 23 22 21 21 20 19 19 17 17 17 17 17 18 18 17 18 21 24 24 25 25 24 24 24 24 24 25 26 26 26 26 25 25 25 22 20 20 20 19 19 19 19 19 18 18 18 18 18 17 17 17 17 17 17 17 17 17 17 17 17 16 16 16 16 16 18 19 21 23 23 22 22 19 18 18 17 17 17 17 17 17 17 17 17 17 17 17 16 16 17 17 17 17 17 17 17 17 16 16 17 17 17 17 17 17 17 16 16 16 16 16 16 16 16 16 16 16 16 16 16 16 16 16 16 16 16 16 16 16 16 16 16 16 16 16 17 17 17 18 18 18 17 17 18 22 25 25 24 19 16 21 23 24 23 21 17 15 11 7 7 11 14 16 16 15 14 14 13 13 11 11 11 11 11 12 12 12 13 13 13 13 13 13 13 14 14 14 14 14 15 15 16 16 17 18 18 18 18 19 19 19 18 18 18 17 16 14 14 15 16 17 18 18 18 18 18
40 41 40 38 36 32 33 34 34 32 33 35 36 38 35 31 28 27 26 26 26 27 31 35 39 41 41 42 41 40 38 33 31 33 39 46 49 48 46 45 51 54 54 53 53 57 58 57 57 56 56 58 61 60 58 58 58 56 54 53 53 49 45 39 35 35 34 34 33 33 33 33 33 35 35 38 44 49 55 59 64 66 68 68 67 65 62 61 59 58 55 53 53 52 52 52 50 46 43 45 49 47 44 46 52 52 48 46 44 38 36 34 33 33 33 33 33 34 36 36 36 35 34 34 34 34 33 32 32 31 31 32 31 30 31 32 32 32 31 31 31 32 33 33 34 36 38 40 42 43 43 45 46 49 51 52 54 55 55 55 55 55 55 55 55 56 57 57 61 63 66 67 67 67 66 65 65 66 67 68 71 73 74 74 72 70 67 65 61 56 52 48 44 42 41 42 45 49 49 50 50 50 50 50 49 49 48 48 48 49 51 55 55 55 55 56 54 50 46 45 45 44 44 44 45 45 45 45 46 46 46 45 44 42 40 36 35 36 37 35 33 32 32 32 32 32 32 32 32 32 33 33 33 33 33 33 33 33 32 32 32 32 31 32 33 35 35 35 34 33 33 34 36 36 34 32 32 32 32 33 34 35 34 34 34 34 34 35 35 35 35 35 36 36 36 36 36 35 35 35 35 36 36 36 36 36 36 36 36 37 39 42 42 41 40 40 40 40 41 41 41 42 42 42 42 42 42 42 42 42 42 42 42 42 42 42 42 42 42 42 42 42 42 42 42 42 42 42 42 42 42 42 42 42 41 40 40 39 39 38 38 38 38 38 37 36 33 32 32 32 32 33 32 32 34 34 33 33 33 33 33 32 32 32 32 32 32 32 32 32 32 32 32 33 33 33 33 33 33 33 33 33 33 33 33 32 32 32 32 32 32 32 32 32 32 32 33 34 35 35 35 35 36 36 36 36 36 36 36 36 36 36 36 36 35 35 35 36 36 36 36 36 35 35 35 35 35 35 35 34 34 33 33 33 32 32 32 32 32 32 32 31 31 31 31 31 31 31 31 31 31 31 31 32 32 32 33 33 34 34 34 35 35 35 35 35 35 35 35 35 34 34 34 33 33 32 32 31 30 30 29 29 30 29 29 29 29 30 30 30 30 30 31 31 31 30 30 30 30 31 32 32 31 31 29 29 28 27 27 26 26 26 26 26 26 26 25 25 25 24 24 24 24 23 24 24 24 24 23 23 23 23 23 22 22 22 23 23 23 23 23 24 24 24 24 24 24 24 24 24 24 24 24 24 24 24 24 24 25 25 26 26 26 26 26 26 26 26 26 28 30 30 29 29 29 29 29 28 27 30 31 29 27 26 25 24 24 24 24 23 23 23 22 21 19 19 17 17 17 16 16 14 14 14 19 19 19 18 18 17 17 17 17 17 17 17 18 18 17 17 17 17 17 17 19 18 19 19 20 21 21 21 21 21 21 20 19 18 17 16 16 16 17 17 17 18 18 18 18 18 19 19 19 19 19 20 20 21 21 21 22 23 24 24 24 24 24 24 24 24 24 26 26 26 27 27 27 27 27 27 27 25 25 24 24 24 23 23 23 23 23 23 23 23 22 22 21 21 21 21 21 21 21 21 21 20 20 20 21 23 23 23 23 23 22 21 21 20 19 19 17 17 17 17 17 17 17 16 16 19 23 23 24 24 24 24 24 24 24 25 26 26 25 25 25 25 24 22 21 20 20 20 19 19 19 19 19 18 18 18 18 17 17 17 16 16 16 16 17 17 17 17 17 16 16 16 16 16 18 19 21 23 23 21 21 19 17 17 17 17 17 17 17 17 17 17 17 17 17 17 16 16 17 17 17 16 16 16 16 16 16 16 16 16 16 17 17 17 17 17 16 16 16 16 16 16 16 16 16 16 16 16 16 16 16 16 16 16 16 16 16 16 16 16 16 16 16 16 17 17 17 18 18 17 17 17 20 23 24 23 21 17 18 21 23 23 23 20 16 13 10 7 7 11 14 16 16 15 14 14 13 12 11 11 11 12 12 12 12 12 13 13 13 13 13 14 14 14 14 14 14 14 15 15 16 16 17 18 18 18 18 19 19 19 18 17 17 16 15 14 14 15 17 17 18 18 18 18 18
41 41 39 37 34 32 36 38 37 34 33 33 34 33 31 28 27 26 26 26 29 33 37 38 40 42 42 42 42 41 39 35 31 31 37 44 49 49 47 45 49 53 54 54 53 55 56 56 56 55 54 55 57 57 55 54 54 53 51 49 50 48 45 40 35 35 34 34 34 33 33 33 33 35 35 40 45 50 55 60 65 67 68 70 70 67 64 62 59 56 53 52 52 52 50 50 47 44 42 42 45 44 41 43 48 50 47 44 42 37 34 33 33 33 33 33 34 35 36 35 33 33 33 33 33 33 33 32 32 31 32 33 32 30 31 31 31 31 31 31 31 32 32 33 35 36 39 40 41 41 43 46 48 50 51 54 56 56 56 56 56 56 56 56 56 56 57 57 61 63 66 68 69 68 68 66 66 66 67 68 72 73 75 75 75 73 71 69 66 61 57 51 45 42 41 42 45 48 50 51 51 51 51 51 51 50 48 48 48 49 51 54 54 54 54 54 52 50 46 44 44 44 44 44 44 44 45 45 47 47 46 43 42 40 38 36 36 36 35 34 33 33 33 32 33 33 32 32 32 32 33 33 33 33 33 33 33 33 32 31 31 31 31 31 32 34 34 34 34 33 33 33 35 34 33 32 32 32 32 34 35 35 34 34 34 34 34 35 35 35 35 36 36 36 36 36 36 36 36 36 36 36 36 36 36 36 36 36 36 36 38 42 43 41 41 41 40 40 41 41 41 42 42 42 42 42 42 42 42 42 42 42 42 42 42 42 42 42 42 42 42 42 42 42 42 42 42 42 42 42 42 42 41 41 40 40 40 39 39 38 38 38 38 38 37 36 35 34 33 33 33 33 33 33 34 34 33 33 33 33 33 32 32 32 32 32 32 32 32 32 32 32 32 33 33 33 33 33 33 33 33 33 33 33 33 32 31 31 32 32 33 33 32 32 32 33 34 35 36 36 36 36 36 36 36 36 36 36 36 36 36 36 36 36 35 35 35 36 36 36 36 36 35 35 35 35 35 35 35 34 34 33 33 33 32 32 32 32 32 32 32 31 31 31 31 31 31 31 32 32 32 32 32 32 32 32 33 33 34 34 35 35 35 35 35 35 35 35 35 35 35 35 34 33 33 32 32 31 30 30 29 29 30 29 29 29 29 30 30 30 30 30 31 31 30 30 30 30 30 31 32 32 31 31 29 29 28 27 27 26 26 26 26 26 26 26 25 24 24 24 24 23 23 23 24 24 24 24 23 23 23 23 23 22 22 22 23 23 23 23 23 24 24 24 24 24 24 24 24 24 24 24 24 24 24 24 24 24 25 25 25 25 26 26 26 26 26 26 26 27 29 28 28 28 27 27 29 27 25 28 29 28 26 24 24 23 23 23 23 23 23 23 22 21 19 19 18 18 18 17 17 15 14 14 17 19 20 19 18 17 17 17 17 17 17 17 18 18 17 17 17 17 17 16 16 17 18 18 20 20 20 20 20 21 21 20 19 17 16 16 16 16 17 17 17 18 18 18 19 19 20 20 20 20 20 20 20 21 21 22 23 23 24 24 24 24 24 24 24 24 24 25 26 26 26 26 26 27 27 26 26 25 25 24 24 24 23 23 23 24 24 23 23 23 22 22 21 21 21 21 21 21 22 21 21 20 20 20 22 23 24 24 24 23 22 20 20 20 19 19 17 17 17 17 17 17 17 16 16 18 22 23 24 24 24 23 23 24 24 25 25 25 25 25 24 24 24 22 23 23 21 20 20 20 19 19 19 18 18 17 17 17 17 17 16 16 16 16 17 17 17 18 18 16 16 16 16 16 18 19 20 22 22 20 19 18 17 17 17 17 17 17 17 17 17 17 17 17 17 17 17 17 17 17 17 16 16 16 16 16 16 16 16 16 16 17 17 17 17 17 16 16 16 16 16 16 16 16 16 16 16 16 16 16 16 16 16 16 16 16 16 16 16 16 16 16 17 17 18 18 18 18 18 17 17 17 20 22 22 20 18 15 18 22 22 22 21 20 16 13 9 7 7 11 14 16 16 15 14 13 12 12 11 11 11 12 12 12 12 12 14 14 13 13 13 14 14 14 14 15 15 15 15 15 16 16 17 18 18 18 18 19 19 19 17 17 16 15 14 14 14 16 17 18 18 18 18 18 18
37 37 37 35 32 33 38 39 38 34 32 31 31 30 28 27 25 25 27 31 35 38 39 40 40 42 42 43 43 42 40 37 33 31 34 40 47 48 48 44 46 51 52 53 53 53 54 54 54 54 53 53 55 55 53 50 48 49 48 47 49 46 44 38 35 35 34 34 33 33 33 33 33 35 37 41 47 52 56 61 66 68 69 71 72 70 66 64 59 54 51 51 50 50 48 47 44 42 42 42 43 42 41 41 46 48 46 42 39 35 33 33 33 33 33 33 34 35 35 34 33 33 33 33 32 32 31 31 31 31 31 32 31 31 30 30 31 31 31 30 30 32 33 33 36 36 38 39 39 41 43 46 49 51 52 56 57 57 57 58 58 58 58 58 57 57 57 58 60 63 67 69 70 70 69 68 67 67 68 69 72 74 76 77 76 75 73 72 70 66 62 55 47 42 40 42 45 48 51 53 53 52 52 53 53 52 49 47 47 48 50 52 52 52 52 52 50 48 46 44 44 44 44 44 44 44 44 45 47 47 44 41 39 37 36 36 36 36 34 33 33 33 33 33 34 35 33 32 32 32 33 33 33 33 33 33 33 33 32 31 31 31 31 31 32 33 33 34 33 33 33 33 34 33 32 32 32 32 32 34 34 34 34 34 34 34 35 35 35 35 35 36 36 36 36 36 36 36 36 36 36 36 36 36 36 36 36 36 36 36 40 42 42 41 41 41 40 40 40 40 41 42 42 42 42 42 42 42 42 42 42 42 42 42 42 42 42 42 42 42 42 42 42 42 42 42 42 42 42 42 42 42 41 41 40 40 40 39 39 38 38 38 38 38 37 37 36 35 34 33 33 33 33 34 35 35 33 33 33 33 33 32 32 32 32 32 32 32 32 32 32 32 32 33 33 33 33 33 33 33 33 33 33 33 33 32 31 31 32 32 33 33 33 33 33 33 34 35 36 36 36 36 36 36 36 36 36 36 36 36 36 36 36 36 35 35 35 36 36 36 36 36 36 36 36 36 35 34 34 33 33 33 33 33 32 32 32 32 32 32 32 31 31 31 31 31 32 32 32 32 32 32 32 32 32 32 33 34 35 35 35 35 35 35 35 35 35 35 36 36 35 35 34 33 33 32 32 31 30 30 30 30 30 29 29 29 29 30 30 30 30 30 30 30 30 30 30 30 30 30 31 32 31 31 29 29 28 27 27 26 26 26 26 26 26 26 25 24 24 24 24 23 23 23 24 24 24 24 23 23 23 23 23 22 22 22 23 23 23 23 23 24 24 24 24 24 24 24 24 24 24 24 24 24 24 24 24 24 25 25 25 25 26 26 26 26 26 26 26 26 27 26 27 27 27 27 27 25 24 26 27 26 24 24 23 22 21 21 22 22 23 23 22 21 19 19 18 17 17 17 17 15 14 14 14 17 19 19 18 17 17 17 17 17 17 17 18 18 18 18 18 17 17 16 16 16 17 17 19 20 19 18 18 19 19 19 17 16 16 16 17 18 18 18 18 18 19 19 20 20 21 21 21 20 20 20 20 21 21 22 23 23 23 23 24 24 24 24 24 24 24 25 25 25 26 26 26 26 26 26 26 25 25 25 24 24 24 24 24 24 24 23 23 23 22 22 21 21 21 21 22 23 24 23 22 20 20 21 23 24 25 25 25 23 21 20 19 18 19 19 17 17 17 17 17 17 17 16 16 18 22 23 24 24 23 23 23 24 24 25 25 25 24 24 24 24 23 23 25 25 24 22 22 21 19 19 19 18 18 17 17 17 17 16 16 16 15 15 16 16 17 19 19 16 16 16 16 16 17 17 19 20 20 19 17 17 17 17 17 17 17 17 17 17 17 17 17 17 16 16 16 16 16 16 16 16 16 16 16 16 16 16 16 16 16 16 16 17 17 17 16 16 16 16 16 16 16 16 16 16 16 16 16 16 16 16 16 16 16 15 15 16 16 16 16 16 17 17 18 18 18 18 18 18 18 18 19 20 19 17 15 13 17 21 21 21 20 19 15 11 8 6 7 11 14 15 15 15 13 13 11 11 11 12 12 12 12 12 12 13 14 14 14 14 14 14 14 14 14 15 15 15 15 15 17 17 17 18 18 18 18 19 19 19 17 17 16 13 12 14 15 17 17 18 18 18 18 18 18
33 34 35 33 31 36 38 38 36 34 31 29 29 28 28 25 24 25 31 35 38 39 40 41 41 42 42 44 44 43 42 39 35 31 32 36 42 44 46 43 45 49 49 50 50 50 51 53 52 52 52 52 53 54 51 47 46 47 47 47 48 46 43 37 35 35 34 34 33 33 33 33 33 35 39 43 48 53 57 61 66 68 69 70 72 71 66 65 58 52 50 49 48 47 46 44 42 41 42 42 43 42 41 41 44 46 44 39 36 32 32 32 33 33 33 34 34 34 34 33 33 33 33 33 32 31 30 30 30 31 30 31 31 31 30 30 31 31 31 30 31 33 33 34 36 36 38 38 40 42 45 48 50 51 54 57 58 58 58 59 61 60 60 59 58 58 58 58 60 63 67 69 70 71 70 70 69 69 70 70 73 76 78 78 77 76 75 74 73 70 65 58 49 43 40 42 47 50 53 54 54 53 54 54 54 52 49 46 46 46 48 49 49 50 50 49 48 46 45 44 44 44 44 43 43 43 44 44 45 45 42 39 37 36 36 36 36 36 34 33 33 34 34 34 34 36 33 32 32 32 33 33 33 33 33 33 33 33 33 32 32 33 33 32 33 33 33 33 33 33 33 33 33 33 32 33 33 33 33 34 34 34 34 34 34 34 35 35 35 35 35 36 36 36 36 36 36 36 36 36 36 36 36 36 36 36 36 36 36 36 41 42 41 41 42 41 39 39 40 40 41 42 42 42 42 42 42 42 42 42 42 42 42 42 42 42 42 42 42 42 42 42 42 42 42 42 42 42 42 42 42 42 41 41 40 40 40 39 39 39 39 39 39 39 38 38 37 35 35 34 34 34 34 34 35 35 33 33 33 33 33 33 33 33 33 33 33 33 32 32 32 32 32 32 32 32 32 32 33 33 33 33 33 34 34 34 33 32 32 32 33 33 33 33 33 34 34 35 36 36 36 36 36 36 36 36 36 36 36 36 36 36 36 36 35 35 35 36 36 36 36 36 36 36 36 35 35 33 33 33 33 32 33 33 32 32 32 32 32 32 32 32 32 32 32 32 32 32 32 32 32 32 32 32 33 33 34 34 36 36 36 36 36 35 35 36 36 36 36 36 35 35 34 33 33 32 32 31 30 30 30 30 30 30 30 30 30 30 30 30 30 30 30 30 30 30 30 30 30 30 30 31 31 31 29 29 28 27 27 26 26 26 27 27 26 26 25 24 24 24 24 24 24 23 24 24 24 23 23 23 23 23 23 22 22 22 23 24 24 24 24 24 24 24 24 24 24 24 24 24 24 24 24 24 24 24 24 24 25 25 25 25 25 26 26 26 26 26 26 26 26 26 26 26 26 26 26 24 24 24 24 23 23 23 23 21 20 20 20 21 22 23 22 21 19 19 18 17 17 17 17 15 15 14 14 14 17 19 19 17 17 17 17 18 18 18 18 18 18 18 18 17 17 16 16 16 16 16 17 18 18 17 17 18 18 17 16 16 16 17 19 20 20 20 20 20 20 20 21 21 22 22 21 21 21 21 21 21 21 22 23 23 23 23 24 24 24 24 24 24 24 24 25 25 25 25 26 26 26 26 26 26 26 25 24 24 24 24 24 24 24 24 24 23 22 22 21 21 21 23 25 26 26 25 24 22 22 23 24 24 25 25 24 21 19 18 18 18 18 18 18 18 18 17 17 17 17 16 17 20 23 23 23 23 23 23 23 24 24 25 25 25 24 24 23 23 22 24 26 26 26 24 24 22 20 20 19 18 18 17 17 17 17 16 16 16 15 15 15 16 19 21 19 16 16 16 16 16 16 16 17 19 19 18 17 17 17 17 17 17 17 17 17 17 17 17 17 17 16 16 16 16 16 16 16 16 16 16 16 16 16 16 16 16 16 16 16 16 16 17 17 17 16 16 16 16 16 16 16 16 16 16 16 16 16 16 16 16 16 15 15 16 16 16 16 16 17 17 18 18 18 18 18 19 19 19 19 19 18 16 13 12 14 18 19 20 19 17 13 10 7 6 8 12 14 15 15 14 13 13 11 11 11 12 12 12 12 13 13 13 15 15 14 14 14 14 14 15 15 15 15 15 16 16 17 17 17 18 18 18 18 19 19 19 17 16 15 12 12 14 16 17 17 18 18 18 18 18 18
31 31 32 32 33 37 38 37 35 33 30 28 27 27 26 23 23 28 34 36 38 39 40 40 40 42 42 43 43 44 44 41 37 33 32 33 37 40 44 42 43 47 48 47 47 47 48 51 50 50 50 51 52 52 48 45 46 47 47 47 46 44 41 37 35 35 34 34 33 33 33 33 33 36 41 45 49 54 57 59 64 67 68 68 69 69 65 63 57 50 48 47 47 45 43 41 40 40 40 41 42 42 41 41 42 43 41 35 33 32 31 31 31 32 33 33 34 33 33 33 33 33 33 33 32 31 30 30 30 30 30 31 31 31 30 30 31 31 31 30 31 33 33 33 35 36 38 39 41 43 47 49 50 53 57 59 58 57 58 59 62 62 62 60 59 58 57 57 60 63 68 69 71 72 72 72 71 71 71 71 74 78 78 78 78 76 76 75 75 72 66 59 48 42 40 44 49 53 55 54 54 54 55 55 54 50 47 46 44 45 47 48 48 47 47 47 46 45 45 44 44 43 43 43 43 43 43 42 43 42 39 37 37 36 36 36 36 36 34 34 34 35 35 35 35 34 33 32 32 32 33 33 33 33 33 34 34 34 35 35 37 38 37 35 35 34 33 33 33 33 33 33 32 32 32 33 33 34 34 35 35 34 34 34 34 34 35 35 35 35 35 36 36 36 36 36 36 36 36 36 36 36 36 36 36 36 36 36 36 38 42 43 41 41 42 40 39 39 39 40 41 42 42 42 42 42 42 42 42 42 42 42 42 42 42 42 42 42 42 42 42 42 42 42 42 42 42 42 42 42 42 42 41 41 40 40 40 39 39 39 40 41 41 40 39 38 37 36 35 35 35 35 35 35 37 35 33 33 33 32 32 33 33 33 32 32 33 33 32 32 32 32 32 32 32 32 32 32 32 32 32 33 34 35 36 35 34 33 33 33 33 33 33 33 33 34 34 35 36 36 36 36 36 36 36 36 36 36 36 36 36 36 36 36 35 35 35 36 36 36 36 36 36 36 35 35 34 33 33 33 33 32 32 32 32 32 32 32 32 32 32 32 32 32 32 32 32 32 32 33 33 33 33 33 33 33 34 34 35 35 36 36 36 35 35 35 36 36 36 36 35 35 34 33 33 32 32 31 30 30 30 30 30 30 30 30 30 30 30 30 30 30 30 30 30 30 30 30 30 30 30 30 30 30 29 29 28 27 27 26 26 26 27 27 26 26 25 24 24 24 24 24 24 24 24 25 24 23 22 23 23 23 23 23 23 24 25 25 25 24 24 24 24 24 24 24 24 24 24 24 24 24 24 24 24 24 24 24 25 25 25 25 25 26 26 26 26 26 26 26 26 26 26 26 26 26 26 23 23 23 23 23 23 23 23 21 20 20 20 21 22 23 22 21 19 19 18 17 17 16 16 15 15 15 14 14 14 17 18 18 18 17 17 19 19 19 18 18 18 18 18 17 17 16 16 16 16 16 16 16 17 16 16 16 16 16 16 17 18 20 22 23 24 23 23 22 21 20 20 21 22 22 22 22 22 22 22 22 23 23 23 23 23 23 24 24 24 24 24 24 24 24 24 24 25 25 25 26 26 26 26 26 26 26 25 25 24 24 24 24 24 23 23 23 22 22 22 22 22 24 26 27 27 26 25 24 24 24 24 24 25 24 22 20 18 17 17 17 18 18 18 18 18 18 18 17 17 16 18 22 25 24 23 22 22 22 22 24 24 24 24 24 23 23 22 21 22 25 26 26 26 25 24 23 21 20 20 19 18 17 17 17 17 16 16 16 15 15 15 16 20 20 18 17 16 16 16 16 16 16 17 18 18 17 17 17 17 17 17 17 16 16 16 17 17 17 17 17 16 16 16 16 16 16 16 16 16 16 16 16 16 16 15 15 15 16 16 16 16 17 17 17 16 16 16 16 16 16 16 16 16 16 16 16 16 16 16 15 15 15 15 16 16 16 17 17 17 17 18 18 18 19 19 20 20 20 19 19 18 16 13 11 11 15 17 18 18 16 12 9 7 7 10 13 14 14 14 14 12 12 11 11 11 12 12 12 12 13 13 14 15 15 14 14 14 15 15 15 15 15 15 15 16 17 17 17 18 18 18 18 18 18 19 19 17 14 13 12 12 15 16 18 18 17 17 17 18 18 18
29 29 30 32 35 38 37 35 34 31 28 26 25 26 24 23 25 31 35 36 37 38 39 40 40 41 41 43 43 44 45 44 40 36 33 32 34 37 40 39 40 44 47 45 43 43 46 48 46 47 47 49 50 50 47 44 44 45 45 46 45 44 42 38 36 35 34 34 34 33 33 33 33 37 42 46 50 54 57 58 62 65 66 66 66 66 63 61 55 48 46 45 45 43 41 39 39 40 40 40 41 42 40 39 39 38 37 33 32 31 30 30 30 31 32 33 33 33 33 32 32 32 32 32 31 31 31 30 30 30 30 31 31 32 31 30 31 31 31 30 31 33 33 33 34 35 37 39 42 44 47 49 51 56 60 60 60 57 57 60 62 63 63 62 60 59 57 57 60 63 67 69 71 73 73 72 72 70 70 71 75 78 77 77 76 75 74 74 73 71 65 58 47 41 40 45 52 55 56 54 52 54 55 55 52 48 47 45 43 44 47 47 47 46 45 45 45 45 44 43 43 43 43 43 42 42 42 41 40 40 38 36 36 36 36 36 36 36 35 35 35 36 36 35 35 33 32 32 32 32 33 33 33 34 34 34 34 35 36 38 40 41 40 38 36 34 34 33 33 33 33 33 32 32 32 33 35 35 35 36 35 35 34 34 35 35 35 35 35 35 35 36 36 36 36 36 36 36 36 36 36 36 36 36 36 36 36 36 36 40 42 43 41 41 41 40 39 39 39 39 41 42 42 42 42 42 42 42 42 42 42 42 42 42 42 42 42 42 42 42 42 42 42 42 42 42 42 42 42 42 42 42 41 41 40 40 40 39 39 39 41 41 41 41 40 39 38 36 36 35 35 36 37 37 37 35 33 33 33 32 32 32 32 32 32 32 33 33 33 32 32 32 32 32 32 32 32 32 32 32 32 34 35 36 37 36 34 34 33 33 33 33 33 33 33 34 34 35 37 37 36 36 36 36 36 36 36 36 36 36 36 36 36 36 35 35 35 36 36 36 36 36 35 35 35 35 34 33 33 33 33 33 32 32 32 32 32 32 32 33 33 32 32 32 32 32 33 33 33 33 33 33 33 33 33 33 34 34 35 35 36 36 36 35 35 35 35 35 36 36 35 35 34 33 33 32 32 31 30 30 30 30 30 30 30 30 30 30 30 30 30 30 30 30 30 30 30 30 30 30 30 30 30 30 30 30 29 26 26 26 26 26 26 26 26 26 25 24 24 24 24 24 24 24 24 25 24 23 22 23 23 23 23 23 24 24 26 26 25 24 24 24 24 24 24 24 24 24 24 24 24 24 24 24 24 24 24 24 25 25 25 25 25 25 25 26 26 26 26 26 26 26 26 26 25 25 24 23 23 23 23 23 24 24 23 21 20 20 20 22 22 22 21 21 19 18 18 17 17 16 16 15 15 15 14 14 14 14 16 17 18 18 19 20 20 19 19 20 21 19 18 17 17 16 16 16 16 16 16 16 16 16 16 15 15 16 16 19 21 23 24 24 25 25 25 24 22 20 20 21 23 23 23 23 23 23 23 23 23 24 24 24 24 24 24 24 24 24 24 24 24 24 24 24 24 24 25 25 25 26 26 27 27 26 26 26 25 25 24 24 24 23 23 23 22 22 22 22 23 24 26 27 27 26 26 24 24 24 25 25 24 22 20 18 18 17 17 17 18 18 18 18 18 18 18 17 17 17 18 22 25 23 21 21 21 22 22 24 24 24 24 24 23 23 21 21 23 26 26 26 26 25 24 24 23 22 22 21 20 18 17 17 17 16 16 16 15 15 16 17 19 18 17 17 16 16 16 16 16 16 17 17 17 17 17 17 17 17 17 17 16 16 16 16 16 17 17 17 16 16 16 16 16 16 16 16 16 16 16 16 16 16 15 15 15 16 16 16 16 17 17 17 17 17 16 16 16 16 16 16 16 16 16 16 16 16 15 15 15 15 15 16 16 16 17 17 17 17 18 19 19 20 21 22 22 21 20 20 19 16 14 12 10 13 18 17 16 14 11 7 7 8 10 13 13 14 14 14 12 12 12 12 12 12 12 13 13 13 13 14 15 15 15 15 15 15 15 15 15 15 15 15 17 17 18 18 18 18 18 18 18 18 18 18 16 12 11 12 13 16 17 18 18 17 17 17 17 17 16
27 28 29 33 37 38 35 33 30 28 25 24 24 25 24 24 27 32 34 35 37 37 38 39 40 40 41 42 43 44 46 46 43 40 35 32 31 33 35 36 37 39 41 40 38 38 41 42 41 42 43 46 47 47 46 42 40 42 44 45 45 46 45 41 36 35 34 34 34 33 33 33 33 37 43 46 50 53 56 58 59 62 63 64 64 63 61 59 53 47 45 44 42 40 37 36 38 38 39 39 39 41 39 37 36 35 34 32 32 31 30 30 30 30 32 33 33 32 31 31 32 31 31 31 30 30 31 30 30 30 30 30 31 32 32 32 32 32 31 30 31 33 33 33 34 35 36 38 42 44 45 48 52 58 61 62 61 59 57 59 62 63 63 62 62 60 58 57 58 62 66 69 70 71 72 71 70 68 68 72 76 76 75 75 74 72 70 69 68 67 63 56 47 40 40 46 53 56 56 54 50 52 54 53 49 47 45 43 41 42 46 46 46 45 45 45 44 44 44 43 42 42 42 42 42 42 41 40 39 38 37 36 36 36 36 36 36 36 36 36 35 35 35 35 35 33 32 32 32 32 33 33 34 34 34 35 35 35 36 39 40 40 40 39 37 34 33 33 33 33 33 33 32 32 32 34 35 36 36 35 35 35 34 34 35 35 35 35 35 36 36 36 36 36 36 36 36 36 36 36 36 36 36 36 36 36 36 36 36 41 42 42 42 40 41 41 39 39 39 39 41 42 42 42 42 42 42 42 42 42 42 42 42 42 42 42 42 42 42 42 42 42 42 42 42 42 42 42 42 42 42 42 41 41 41 40 40 40 40 40 41 41 41 41 40 39 38 38 37 36 36 37 38 38 36 34 33 33 33 32 32 32 32 32 32 32 32 32 33 32 32 32 32 32 32 32 32 32 32 32 32 35 35 37 37 36 34 34 34 34 33 33 33 34 34 35 35 36 37 37 36 36 36 36 36 36 36 36 36 36 36 36 35 35 35 35 35 36 36 35 35 35 35 35 34 34 34 33 33 33 33 33 32 32 32 32 32 32 32 33 33 32 32 32 32 32 33 33 33 33 33 33 33 33 33 33 34 34 35 35 36 36 36 35 35 35 35 35 36 36 35 35 34 33 33 32 32 31 30 30 30 30 30 30 30 30 30 30 30 30 30 30 30 30 30 30 30 30 30 30 30 30 30 30 29 29 29 27 26 26 26 26 26 26 25 25 24 24 24 24 24 24 24 24 24 24 23 23 23 23 23 23 23 24 24 24 24 24 24 24 23 23 23 24 24 24 24 24 23 23 23 23 23 24 24 24 24 24 25 25 25 25 25 25 25 26 26 26 26 26 26 26 25 25 25 24 24 23 23 23 23 23 24 24 22 20 20 21 21 22 22 22 21 21 19 18 18 17 17 16 16 15 15 15 15 15 14 14 15 17 19 20 20 21 20 20 22 23 24 23 21 19 18 17 17 17 16 16 15 15 15 15 15 15 15 16 18 22 23 23 24 24 24 24 24 24 23 21 21 21 24 25 25 24 23 23 23 24 25 24 24 24 24 24 24 24 24 24 24 24 24 24 24 24 24 24 24 25 25 26 26 27 27 27 26 26 26 25 24 24 24 23 23 23 22 22 22 22 24 24 25 26 26 26 26 24 23 24 24 23 22 20 18 17 17 17 17 17 18 18 18 18 17 17 17 17 17 17 17 21 23 22 20 20 21 21 22 24 24 24 24 24 23 23 21 21 23 26 26 26 26 26 25 25 24 24 24 23 22 20 18 17 17 17 16 16 16 16 16 16 16 16 16 17 17 17 17 17 17 17 17 17 17 16 16 16 17 17 16 16 16 16 16 16 16 17 17 17 16 16 16 16 16 16 16 16 16 16 16 16 16 16 15 15 15 15 15 16 16 17 17 17 17 17 17 17 16 16 16 16 16 16 16 16 15 15 15 15 15 15 15 16 16 16 17 17 17 17 18 19 20 23 25 25 23 22 20 20 21 19 18 15 13 16 19 17 15 13 9 7 6 8 11 13 13 14 14 13 12 11 11 11 12 12 12 12 12 13 13 14 14 14 15 15 15 15 15 16 16 16 16 16 17 17 18 18 18 18 18 18 18 18 18 17 14 11 11 12 14 16 17 17 17 16 17 17 17 17 17
27 28 30 34 37 36 32 28 26 25 24 24 24 24 24 26 29 32 33 34 36 37 38 39 39 40 40 42 42 43 45 46 45 43 38 34 31 31 32 33 34 35 35 36 35 35 36 37 37 37 39 41 43 44 41 40 39 39 44 45 43 46 46 42 36 35 35 35 34 33 33 32 32 35 43 46 49 52 54 56 58 59 61 61 61 60 58 56 51 47 44 42 39 37 35 35 36 38 39 39 37 37 36 35 34 33 32 31 31 31 30 30 30 31 32 33 33 31 30 31 31 31 30 30 30 31 31 31 31 30 30 30 31 32 33 33 33 33 31 31 32 33 34 34 34 34 36 39 43 45 45 47 52 59 62 64 63 60 57 57 60 61 62 63 63 62 60 57 57 60 66 68 70 71 71 69 68 65 68 72 74 74 73 72 70 67 65 65 65 64 61 53 45 39 40 47 54 57 57 54 48 49 51 50 47 45 43 41 40 40 44 44 44 44 44 44 44 45 46 42 41 40 40 40 40 41 40 40 38 37 37 36 36 36 36 36 36 36 35 35 34 34 34 34 34 33 32 32 32 32 33 33 34 35 35 36 36 36 37 38 38 37 37 37 35 33 33 33 33 33 33 33 33 33 33 34 35 35 35 35 35 35 35 35 35 35 35 36 36 36 36 36 36 36 36 36 36 36 36 36 36 36 36 36 36 36 36 36 37 39 41 40 40 40 40 41 39 39 39 40 41 43 43 42 42 42 42 42 42 42 42 42 42 42 42 42 42 42 42 42 42 42 42 42 42 42 42 42 42 42 42 42 41 41 41 41 41 40 40 40 41 41 41 41 39 39 39 39 38 37 37 37 37 36 35 34 33 33 33 33 33 32 32 32 32 32 32 32 33 32 32 32 32 32 32 32 32 32 32 32 32 34 34 35 36 36 34 34 34 34 34 34 34 34 34 35 35 36 38 38 36 36 36 36 36 36 36 36 36 35 35 35 35 35 35 35 35 35 35 35 35 35 35 35 34 34 34 33 33 33 33 33 33 33 32 32 32 32 32 33 33 33 33 33 33 33 33 33 33 33 33 34 34 34 34 34 35 35 35 35 36 36 36 36 36 35 35 35 36 36 35 35 34 33 33 32 32 31 30 30 30 30 30 30 30 30 30 30 30 30 30 30 30 30 30 30 30 30 30 30 30 30 30 30 29 29 29 27 26 26 26 26 25 25 25 25 24 24 24 24 24 24 24 24 24 24 24 24 23 23 23 24 24 24 24 24 24 24 23 23 23 23 23 24 24 24 24 24 23 23 23 23 23 24 24 24 24 24 24 24 25 25 25 25 25 26 26 26 26 26 26 26 25 25 25 24 24 22 22 23 23 23 23 23 21 20 20 21 21 23 23 23 22 22 19 18 17 17 17 17 16 15 15 14 15 15 14 15 16 18 20 21 21 21 21 21 23 23 25 26 24 22 21 20 19 19 17 16 15 15 15 15 15 15 16 17 21 22 23 23 23 23 22 22 22 23 23 24 23 22 25 25 27 26 25 24 24 25 25 25 25 25 24 24 24 24 24 24 24 24 24 24 24 24 24 24 24 25 25 26 26 27 27 27 27 27 26 26 24 24 24 24 24 23 22 22 22 22 23 23 24 26 26 26 25 23 22 22 22 20 19 18 17 17 17 17 17 17 18 18 19 19 19 18 17 17 17 17 17 19 20 20 20 20 20 21 21 24 24 24 23 23 23 22 22 22 24 26 26 26 26 26 25 25 25 25 24 24 23 22 20 20 19 19 18 17 17 17 17 16 16 16 16 17 17 17 17 17 18 18 18 17 17 16 16 16 17 17 16 16 16 16 16 16 16 16 16 16 16 16 16 16 16 16 16 16 16 16 16 16 16 16 15 15 15 15 15 16 16 16 17 17 17 17 17 17 17 17 17 16 16 16 16 16 15 15 15 15 15 16 16 16 16 17 17 17 17 17 19 20 21 25 26 25 23 21 20 21 22 22 21 20 18 19 19 17 15 12 8 6 6 10 11 13 13 14 14 13 11 11 11 11 12 12 12 12 12 14 14 14 14 14 15 15 15 15 15 16 16 17 17 17 17 17 18 18 18 18 18 19 19 19 17 15 12 11 11 13 15 17 17 17 16 16 16 16 17 17 19
27 27 29 33 34 31 27 25 23 23 24 24 24 24 24 27 29 30 32 33 35 36 37 38 38 39 40 41 42 43 45 45 46 44 41 37 33 32 31 31 32 33 34 34 34 34 35 35 35 36 37 38 39 40 38 38 38 38 41 43 41 44 44 40 36 36 35 35 34 33 33 31 31 34 41 45 47 50 53 54 56 57 57 57 57 56 54 53 49 45 43 41 37 35 35 35 36 38 38 38 37 35 33 33 33 32 31 30 30 30 30 30 31 32 33 33 34 32 30 31 31 31 30 30 31 32 32 32 32 31 30 30 31 32 33 33 33 33 31 32 33 34 35 35 35 35 36 39 43 45 45 46 51 58 62 65 65 62 58 57 57 59 60 64 64 63 62 58 55 59 64 67 69 69 69 67 65 63 67 69 70 69 69 69 67 64 62 62 62 61 58 50 43 38 40 47 53 55 55 52 46 46 47 47 45 43 41 40 39 39 41 42 43 43 44 44 44 45 46 42 40 38 38 38 39 40 40 40 38 37 37 36 36 36 36 36 36 36 35 34 33 33 33 33 33 32 32 32 32 32 33 33 33 35 35 36 36 36 36 36 35 34 34 34 33 33 33 33 33 33 33 33 33 33 33 34 34 35 34 34 34 34 35 35 35 35 36 36 36 36 36 36 36 36 36 36 36 36 36 36 36 36 36 36 36 36 36 36 37 38 39 39 39 40 40 41 40 40 40 40 41 43 43 42 42 42 42 42 42 42 42 42 42 42 42 42 42 42 42 42 42 42 42 42 42 42 42 42 42 42 42 42 41 41 41 41 41 40 40 40 41 41 41 41 40 41 41 40 39 38 38 36 36 35 34 34 33 33 34 34 33 32 32 32 32 32 32 32 32 32 32 32 32 32 32 32 32 32 32 32 32 32 32 33 35 35 34 34 34 34 34 34 34 34 34 35 35 36 36 36 35 35 35 35 35 36 36 36 36 35 35 35 35 35 35 35 35 35 35 35 35 35 34 34 34 34 34 33 33 33 33 33 33 33 32 32 32 33 33 33 33 33 33 33 33 33 33 33 33 33 33 34 34 34 34 34 35 35 35 35 36 36 36 36 36 35 35 35 36 36 35 35 35 33 33 32 32 31 30 30 30 30 30 30 30 30 30 30 30 30 30 30 30 30 30 30 30 30 30 30 30 30 30 30 29 29 28 27 26 26 26 25 24 24 24 24 24 23 23 23 23 23 23 23 24 24 23 23 23 23 23 23 23 23 24 24 23 23 23 23 23 23 23 23 23 24 23 23 23 23 23 23 23 24 24 24 24 24 24 24 25 25 25 25 25 26 26 26 26 26 27 27 26 26 25 26 25 22 22 22 23 23 23 21 20 20 20 21 21 23 23 23 22 21 19 18 17 17 17 17 16 14 14 14 15 15 15 17 17 19 20 20 21 22 22 22 23 23 25 26 27 25 24 23 22 21 19 16 15 15 14 14 14 15 18 20 22 22 22 22 21 21 20 20 20 21 22 24 23 23 25 25 27 28 27 25 25 26 26 25 25 25 24 24 24 24 24 24 24 24 24 24 24 24 24 24 24 24 24 26 26 27 27 27 28 28 27 26 25 24 24 23 23 23 22 22 22 22 23 23 24 26 26 25 24 23 22 20 19 18 17 17 17 17 17 17 17 17 18 18 21 22 22 21 18 17 17 16 16 17 18 19 19 19 20 21 22 23 23 23 23 22 21 20 22 23 24 25 25 25 25 25 26 26 25 25 25 24 24 24 23 23 23 23 22 20 20 19 19 18 16 17 17 17 18 17 17 17 18 18 17 16 16 16 16 16 16 16 16 16 16 16 16 16 16 16 16 16 16 16 16 16 16 16 16 16 16 16 16 16 16 16 15 15 15 15 15 16 16 16 16 16 17 17 17 17 17 17 17 16 16 16 16 16 15 15 15 15 15 16 16 16 16 17 17 17 17 19 20 21 22 24 25 23 21 20 20 22 23 22 22 22 22 21 19 16 14 11 8 6 7 11 11 12 13 13 13 13 11 11 11 11 12 12 12 12 12 14 14 14 14 14 14 14 14 15 15 16 16 16 16 16 17 17 17 17 17 18 18 18 18 18 16 13 11 11 12 14 15 16 16 15 15 15 15 15 17 17 19
27 27 27 29 29 27 24 23 23 23 24 24 24 24 25 28 29 30 31 33 35 36 37 38 38 39 39 40 41 42 45 45 46 45 43 40 35 34 32 31 32 32 33 33 34 34 34 35 35 36 36 36 38 38 38 38 38 38 38 40 38 40 40 38 36 36 36 36 34 33 33 30 30 33 39 43 45 48 51 52 52 53 54 53 53 52 50 48 44 42 42 40 37 34 34 35 36 36 36 37 37 34 32 32 32 31 30 31 31 31 31 32 33 34 32 32 34 32 31 31 31 31 30 31 32 32 33 33 33 32 31 30 30 31 33 33 32 32 31 32 33 34 35 35 36 36 37 38 42 44 44 47 52 57 61 64 65 63 59 58 57 57 59 63 64 62 61 56 53 57 63 66 67 67 67 65 62 61 63 64 65 65 65 65 64 61 61 61 61 60 57 51 44 38 39 45 49 50 51 49 44 43 44 44 43 41 41 39 39 39 39 42 43 43 43 43 44 45 45 41 39 37 37 37 39 39 39 39 38 37 36 36 36 36 36 36 35 35 34 33 33 33 33 33 33 33 32 32 32 32 33 33 33 35 35 36 36 36 35 35 33 33 34 33 33 33 33 33 33 33 33 33 33 33 34 34 34 34 34 33 33 34 35 35 36 36 36 36 36 36 36 36 36 36 36 36 36 36 36 36 36 36 36 36 36 36 36 36 37 38 38 39 39 40 40 41 41 41 41 41 41 43 43 41 41 42 43 42 42 42 42 42 42 42 42 42 42 42 42 42 42 42 42 42 42 42 42 42 42 42 42 42 41 41 41 41 41 41 41 41 41 41 41 41 41 42 43 42 40 39 38 37 36 35 34 34 34 34 35 34 33 33 33 33 32 32 32 32 32 32 32 32 32 32 32 32 32 32 32 32 33 31 31 32 34 34 34 34 34 34 35 35 35 34 34 35 35 35 35 35 35 35 35 35 35 35 35 36 36 36 35 35 35 35 35 35 35 35 35 35 35 35 34 34 34 34 34 33 33 33 33 33 33 33 32 32 32 32 32 33 33 33 33 33 34 34 34 34 34 34 34 35 35 35 35 35 35 35 35 35 36 36 36 36 36 35 35 35 36 36 36 36 35 33 33 32 32 31 30 30 30 30 30 30 30 30 30 30 30 30 30 30 30 30 30 30 30 30 30 30 30 30 30 30 29 29 28 26 26 26 26 24 24 24 24 24 24 23 23 23 23 23 23 23 25 24 23 23 24 24 24 23 23 23 23 23 23 23 23 23 23 23 23 23 23 23 23 23 23 23 23 23 23 24 24 24 24 24 24 24 25 25 25 25 25 26 26 26 26 26 27 27 27 26 26 26 26 22 22 22 22 22 21 21 20 20 20 21 21 23 23 22 21 21 19 18 17 17 17 16 16 14 14 14 15 15 16 17 18 18 18 20 20 22 22 22 23 23 24 25 27 26 25 24 23 23 21 18 16 16 14 14 14 17 19 22 23 22 21 20 20 20 19 19 19 20 21 22 22 23 25 26 27 28 28 26 26 27 27 26 25 25 25 25 25 25 25 24 24 24 24 24 24 24 24 24 24 24 24 25 26 27 27 28 29 29 28 27 25 24 24 23 23 22 22 21 21 21 22 22 24 26 26 24 23 21 20 20 18 18 17 17 17 17 17 17 17 17 18 18 21 22 25 25 19 17 17 16 16 17 18 18 19 19 20 21 22 23 23 22 22 21 20 20 22 23 24 25 25 25 25 25 25 25 25 25 25 25 25 25 25 25 25 26 25 24 24 23 22 21 20 19 19 19 18 18 18 18 18 18 17 16 16 16 16 16 16 16 16 16 16 16 16 16 16 16 16 16 16 16 16 16 16 16 16 16 16 16 16 16 16 16 15 15 15 16 16 16 16 16 16 16 17 17 17 17 18 17 17 16 16 16 16 16 15 15 15 15 15 16 16 17 17 17 17 17 19 21 22 22 22 22 23 21 20 19 20 22 23 22 21 22 22 20 18 15 13 10 7 6 8 11 11 12 12 13 13 12 11 11 11 11 11 12 12 12 13 14 14 14 14 14 14 14 14 15 15 15 15 16 16 16 17 17 17 16 16 17 17 17 17 17 14 11 11 11 13 15 15 15 15 14 14 15 15 15 17 17 19
27 26 26 26 26 24 23 23 23 23 23 23 23 24 26 28 28 29 30 32 35 35 37 37 37 39 39 40 41 42 44 45 46 46 44 42 38 37 34 32 32 32 33 33 34 34 34 34 34 36 36 36 37 37 37 38 38 38 38 38 37 37 38 37 36 36 35 35 34 33 32 30 30 32 36 39 43 46 49 50 49 50 51 50 50 48 46 45 41 39 40 38 35 33 34 35 35 36 35 35 35 34 32 31 31 30 30 31 32 33 33 34 34 33 30 31 33 31 30 30 31 32 32 32 33 33 33 33 33 32 31 30 30 30 31 31 31 31 31 32 33 34 34 35 35 37 37 36 39 42 43 46 51 55 58 61 63 62 59 59 57 57 58 61 62 61 58 54 51 56 62 64 65 64 64 62 60 58 59 60 60 61 61 61 60 59 59 59 59 58 56 53 46 39 39 44 47 47 48 46 42 40 41 41 40 40 40 39 39 39 40 42 42 42 43 43 43 43 43 41 39 37 37 37 38 39 39 38 37 36 35 34 34 35 35 35 35 34 33 33 33 33 33 33 34 34 32 32 32 32 33 33 33 34 35 36 35 35 34 33 33 33 33 33 33 33 33 33 33 33 33 33 33 33 33 33 33 33 33 33 33 34 36 36 36 36 37 36 36 36 36 36 36 36 35 35 35 36 36 36 36 36 36 36 36 36 36 37 37 38 38 40 40 40 40 41 40 40 41 41 41 44 45 42 41 41 42 42 42 42 42 42 42 42 42 42 42 42 42 42 42 42 42 42 42 42 42 42 42 42 42 42 41 41 41 41 41 41 41 41 41 41 41 41 42 42 43 42 41 40 40 38 36 35 35 35 34 35 35 34 33 33 33 33 32 32 32 32 32 32 32 32 32 32 32 32 32 32 32 32 32 31 31 32 33 33 33 33 34 34 35 35 35 34 34 35 35 35 35 35 35 35 35 35 35 35 35 36 36 36 36 36 35 35 36 36 36 35 35 35 34 34 34 34 34 34 33 33 33 33 33 33 33 33 32 32 32 32 32 32 32 33 33 33 34 34 34 34 34 34 34 35 35 36 36 36 35 35 36 36 36 36 36 36 36 35 35 35 36 36 36 36 35 33 33 32 32 31 30 30 30 30 29 29 29 29 29 30 30 30 30 30 30 30 30 30 30 30 30 30 30 30 30 30 29 29 28 26 26 26 26 25 23 23 23 23 24 23 23 23 23 23 23 24 25 24 23 24 26 25 24 22 22 22 22 22 23 23 23 23 23 23 23 23 23 23 23 23 23 23 23 23 23 23 23 24 24 24 24 24 25 25 25 25 25 25 25 26 26 26 27 29 29 27 27 26 25 22 21 21 21 21 21 21 20 20 20 22 22 23 23 22 21 21 19 18 17 17 17 16 16 15 14 14 14 15 17 17 18 18 18 20 21 22 22 22 23 23 23 25 26 25 25 24 24 23 22 19 18 17 14 14 16 18 20 22 22 22 20 19 18 18 18 18 18 20 20 22 22 23 26 26 27 28 28 27 27 27 27 26 26 26 25 25 26 26 26 25 24 24 24 24 24 24 24 24 24 24 24 25 26 27 27 29 30 30 29 28 25 24 24 23 22 22 21 21 20 20 22 23 24 25 24 23 21 20 19 19 18 18 17 17 17 17 17 17 17 17 18 19 21 23 26 26 22 18 17 16 16 17 17 17 18 19 20 20 21 22 22 22 21 21 21 21 23 23 24 24 24 25 25 25 25 25 25 25 25 25 25 25 25 26 26 26 26 26 26 25 24 23 23 21 21 21 20 19 18 18 18 18 17 16 16 16 16 17 17 17 17 17 16 16 16 16 16 16 16 16 16 16 16 16 16 16 16 16 16 16 16 16 16 16 15 15 15 16 16 16 16 16 16 16 17 17 17 17 17 17 17 16 16 16 16 16 15 15 15 15 15 16 16 17 17 17 17 17 20 22 24 22 22 22 22 20 19 19 20 23 24 22 20 20 20 18 16 13 11 8 6 6 9 11 11 12 12 13 13 12 11 11 11 11 11 12 12 13 13 14 14 14 14 14 14 14 14 15 15 15 15 15 15 15 16 16 15 14 15 15 15 16 16 16 13 11 11 11 13 14 15 14 14 14 14 14 15 15 17 17 19
27 26 26 25 25 23 23 23 23 23 23 22 22 25 26 28 28 29 30 32 34 35 37 37 37 39 39 40 41 42 44 45 47 47 45 44 41 40 37 34 33 32 32 32 33 33 34 34 34 35 35 36 36 36 36 37 38 38 38 38 38 37 37 37 36 36 35 35 34 33 32 30 30 32 34 36 40 44 47 48 47 48 48 48 47 45 43 42 38 36 37 36 33 33 33 35 36 36 34 32 33 32 31 30 30 30 30 31 32 33 34 33 33 31 30 30 31 31 30 30 31 32 33 33 33 33 33 33 33 32 32 30 30 30 31 31 31 31 30 32 33 34 34 34 35 36 37 37 38 40 40 44 49 54 56 58 61 60 59 59 57 57 57 59 59 59 56 52 50 54 60 62 62 61 61 60 58 56 56 57 57 58 58 58 57 58 58 58 58 56 54 52 45 38 39 44 46 46 46 44 40 40 39 39 39 39 40 40 40 40 40 42 42 42 42 42 42 41 41 40 38 36 36 36 37 37 37 37 36 36 35 34 34 35 35 34 33 33 33 33 33 33 33 33 33 33 32 32 32 32 33 33 33 33 34 35 35 34 33 33 33 33 33 33 33 33 33 33 33 33 33 33 33 33 33 33 33 33 33 33 34 35 36 36 36 37 38 37 36 36 36 36 36 36 35 35 35 35 35 36 36 36 36 36 36 36 37 38 38 38 39 40 41 41 40 39 39 39 40 40 41 45 45 42 41 41 42 42 42 42 42 42 42 42 42 42 42 42 42 42 42 42 42 42 42 42 42 42 42 42 41 41 41 41 41 42 42 41 41 41 42 42 42 42 42 42 43 42 41 41 41 38 36 36 35 35 35 34 34 33 33 32 32 32 32 32 32 32 32 32 32 32 32 32 32 32 32 32 32 32 32 32 32 32 32 33 33 33 34 35 35 35 35 35 35 35 35 35 35 35 35 35 35 36 36 36 36 36 36 36 35 35 35 35 36 36 36 35 35 34 34 34 34 34 33 33 33 33 33 33 33 33 33 33 32 32 32 32 32 32 32 33 33 33 34 34 34 34 34 35 35 35 35 36 36 36 35 35 36 36 36 36 36 36 36 35 35 35 35 35 36 36 36 33 33 32 32 31 30 30 30 30 29 29 29 29 29 30 30 30 30 30 30 30 30 30 30 30 30 30 30 30 30 30 29 29 28 27 27 27 27 25 23 23 23 23 24 23 23 23 23 23 23 25 26 25 25 26 26 24 23 22 22 22 22 22 22 22 22 22 23 23 23 23 23 23 23 23 23 23 23 23 23 23 23 24 24 24 24 24 25 25 25 25 25 25 25 25 25 25 26 29 29 28 27 25 24 22 21 20 20 20 21 21 21 21 21 21 22 23 23 22 21 21 19 18 17 17 17 17 17 16 14 14 14 15 16 16 18 19 20 21 21 22 22 22 23 23 23 24 24 23 23 24 24 23 21 20 18 17 14 14 17 20 21 22 21 20 19 17 17 17 18 18 18 20 21 22 23 25 26 27 28 28 28 27 27 27 27 26 26 26 25 25 26 26 26 26 25 24 24 24 24 24 24 24 24 24 24 25 25 27 27 29 30 30 29 27 25 24 23 22 21 21 20 20 20 20 21 23 24 24 23 21 20 20 19 19 19 19 18 18 18 17 17 17 17 17 19 19 21 23 25 26 25 21 18 17 17 17 17 17 18 18 19 20 20 21 21 21 21 21 21 21 23 23 24 24 24 25 25 25 25 25 25 25 26 26 26 26 26 26 26 27 26 26 26 26 24 23 22 22 23 22 21 19 18 18 18 18 17 17 17 17 17 17 17 17 17 17 16 16 16 16 16 16 16 16 16 16 16 16 16 16 16 16 16 16 16 16 16 16 15 15 15 16 16 16 16 16 16 16 17 17 17 17 17 18 18 17 17 17 16 16 16 16 16 16 16 17 17 18 18 19 19 19 21 23 24 22 21 22 22 20 19 19 20 23 24 22 20 17 17 15 14 11 9 6 6 6 9 11 11 12 12 13 13 12 12 12 11 11 12 12 12 14 14 15 15 15 15 15 15 15 15 15 15 15 15 15 15 15 15 15 14 14 14 15 15 15 15 14 12 11 11 11 13 14 14 14 14 14 14 14 15 15 17 17 18
26 25 25 25 25 23 23 23 22 22 22 22 22 25 26 28 28 29 30 31 34 35 36 37 37 39 39 40 41 42 44 45 47 47 46 45 43 42 39 37 35 34 32 32 33 33 33 34 34 35 35 35 35 35 35 37 37 38 39 38 38 38 38 37 36 36 35 35 34 33 32 30 30 32 33 35 38 42 45 46 45 45 46 45 44 42 41 40 37 36 35 34 32 33 33 35 35 34 32 30 30 30 30 30 30 30 31 31 31 32 33 33 31 30 30 30 31 31 31 30 32 32 33 33 33 33 33 33 33 33 33 30 30 30 31 31 31 31 30 32 33 33 33 33 35 36 37 40 40 37 37 41 46 52 55 57 60 59 58 60 55 55 56 59 58 57 54 50 48 52 57 58 58 58 58 58 56 54 53 54 55 56 56 56 56 58 58 58 57 54 51 47 42 38 38 42 44 44 43 41 39 39 39 39 39 39 39 39 39 40 40 41 41 41 41 41 41 39 39 38 37 35 35 35 35 35 35 35 35 35 35 34 34 35 35 33 33 33 33 33 33 33 33 33 32 32 32 32 32 32 32 32 32 32 33 34 34 33 32 32 32 32 33 33 33 33 33 33 33 33 33 33 33 33 33 33 33 33 33 33 34 35 37 38 38 39 40 37 37 36 36 36 36 36 35 35 35 35 35 36 36 36 36 36 36 36 38 38 39 40 40 41 41 41 40 38 39 39 40 41 42 45 45 42 41 41 42 42 42 42 42 42 42 42 42 42 42 42 42 42 42 42 42 42 42 42 42 42 42 42 41 41 41 41 41 41 41 41 41 41 42 43 43 43 43 43 43 41 41 41 41 38 36 36 36 36 34 34 34 33 33 32 32 32 32 32 32 32 32 32 32 32 32 32 32 32 32 32 32 32 32 32 32 32 32 33 33 34 36 36 35 35 35 35 35 34 34 34 35 35 35 35 35 35 35 35 35 36 36 35 35 35 35 35 36 36 36 35 35 34 34 34 34 34 33 33 33 33 33 33 33 33 33 33 32 32 32 32 32 32 32 33 33 33 34 34 35 35 35 35 35 36 36 36 36 36 35 35 35 35 35 36 36 35 35 35 35 35 35 35 36 36 36 34 33 32 32 31 29 29 29 29 29 29 29 29 29 30 30 30 30 30 30 30 30 30 30 30 30 30 30 30 30 30 29 29 29 29 28 27 27 25 23 23 23 23 23 23 23 23 23 24 25 27 28 26 26 25 24 23 23 22 22 22 22 22 22 22 22 22 22 22 22 22 22 23 23 23 23 23 23 23 24 24 24 24 24 24 24 24 25 25 25 25 25 25 25 24 24 24 24 27 28 27 26 25 23 21 20 20 20 20 20 20 21 21 20 19 20 22 23 22 21 20 19 18 17 17 17 18 18 16 14 13 13 14 16 17 19 20 20 20 20 21 22 22 22 22 23 23 23 23 23 23 24 23 21 20 18 15 13 13 17 20 21 21 19 18 17 17 17 17 18 19 19 20 22 24 25 27 28 28 28 28 28 27 27 27 27 26 26 26 25 25 25 25 25 25 25 24 24 24 24 24 24 24 24 24 24 25 25 27 27 29 29 29 27 26 24 23 22 21 20 20 20 20 20 20 20 23 23 22 21 20 19 19 19 19 19 19 18 18 18 17 17 17 17 17 19 19 21 22 24 26 26 24 21 18 17 17 17 17 18 18 19 20 20 20 20 21 21 21 21 22 24 24 24 24 24 25 25 25 25 25 25 25 26 26 26 26 26 26 26 26 26 26 25 25 24 23 22 22 23 22 21 20 18 17 17 17 17 18 19 18 18 17 17 17 17 17 16 16 16 16 16 16 16 16 16 16 16 16 16 16 16 16 16 16 16 16 16 16 16 16 16 16 16 16 16 16 16 16 17 17 17 17 17 17 17 17 17 17 16 16 16 16 16 16 16 17 17 17 20 22 21 21 22 24 24 20 19 21 20 19 19 19 20 22 22 21 19 16 15 12 11 9 7 5 6 7 9 11 11 12 12 12 12 12 12 12 12 12 12 13 14 14 14 15 15 15 15 15 15 15 15 15 15 15 15 14 14 14 14 14 14 14 14 14 14 14 13 13 11 11 11 11 12 13 13 13 13 13 13 14 15 15 18 18 18
26 25 25 24 24 23 23 23 22 22 22 22 23 25 26 28 28 30 31 31 34 34 36 37 37 39 39 41 41 42 44 44 47 47 46 46 45 44 41 39 37 35 33 32 32 32 33 33 33 33 35 34 34 34 34 35 36 38 39 36 36 37 37 37 36 36 35 35 34 33 32 30 30 32 33 34 36 38 41 43 43 42 42 42 41 40 40 40 37 36 34 33 31 31 33 33 33 31 29 29 29 29 30 30 30 31 31 30 30 32 33 33 30 30 31 31 31 31 31 30 32 32 33 33 33 33 33 33 33 33 33 31 30 30 30 30 31 31 30 31 32 33 33 33 35 38 39 41 40 37 37 38 42 49 53 55 58 57 56 59 54 52 52 55 55 54 51 48 47 50 54 54 54 54 55 55 54 53 52 52 53 53 53 55 56 58 58 58 57 54 49 46 40 38 38 40 42 41 40 39 39 39 39 39 39 39 39 39 39 40 40 40 40 40 40 40 40 39 39 37 35 34 34 33 33 33 33 33 34 35 35 34 34 35 35 33 33 33 33 33 33 33 33 32 32 32 32 32 32 32 32 32 32 32 32 33 33 32 32 32 32 32 33 33 33 33 33 33 33 33 33 33 33 33 33 33 33 33 33 33 35 36 38 38 39 42 41 37 37 36 36 36 36 36 35 35 35 35 35 36 36 36 36 36 36 36 38 38 40 40 40 40 41 40 39 38 39 39 40 41 43 45 45 42 42 42 42 42 42 42 42 42 42 42 42 42 42 42 42 42 42 42 42 42 42 42 42 42 42 42 41 41 41 41 41 41 41 42 42 42 42 43 44 44 43 42 42 41 41 40 39 38 36 36 35 35 34 33 33 33 33 32 32 32 32 32 32 32 32 32 32 32 32 32 32 32 32 32 32 32 32 32 32 32 32 33 34 35 36 35 34 34 34 34 34 34 34 34 35 35 35 35 35 35 35 35 35 36 36 35 35 35 35 35 36 36 36 35 35 34 34 34 34 34 33 33 33 33 33 33 33 33 33 33 33 33 33 33 33 33 33 33 33 34 35 35 35 35 35 35 35 36 36 36 36 36 35 35 35 35 35 36 36 35 35 35 35 35 35 35 36 36 36 34 33 32 32 31 29 29 29 29 29 30 30 30 30 30 30 30 30 30 30 30 30 30 30 30 30 30 30 30 30 30 30 30 30 29 29 27 26 25 23 23 23 23 23 23 23 23 24 26 28 29 28 26 24 23 23 23 23 22 22 22 22 22 22 22 22 22 22 22 22 22 22 23 23 23 23 24 24 25 27 27 25 25 25 24 25 25 26 26 26 26 26 25 25 24 24 23 23 24 26 26 24 23 22 20 20 20 20 20 20 20 20 20 19 19 19 20 21 21 20 20 18 18 18 18 19 19 19 17 15 13 13 13 15 17 19 19 19 20 20 21 21 21 22 22 22 22 23 22 22 23 23 23 21 20 18 15 13 13 16 20 20 19 17 17 17 17 18 18 19 20 21 22 24 27 29 29 29 29 28 28 28 27 27 27 27 26 26 26 25 25 24 24 24 24 24 24 24 24 24 24 24 24 24 24 24 25 25 26 27 27 27 27 25 24 23 22 21 20 20 20 20 20 20 20 20 21 21 21 20 19 19 18 18 18 18 18 18 18 18 17 17 17 17 17 19 19 21 22 24 26 26 24 23 19 17 17 17 17 18 18 19 20 20 20 20 21 21 21 21 22 24 24 24 24 24 25 25 25 25 25 25 25 26 26 26 26 26 26 26 26 26 26 25 25 24 23 22 22 22 22 20 19 17 17 17 17 18 20 21 20 20 19 18 18 17 17 16 16 16 16 16 16 16 16 16 16 16 16 16 16 16 16 16 16 16 16 16 16 16 16 16 16 16 16 16 16 16 16 17 17 17 17 17 17 17 18 18 17 17 17 17 17 17 17 17 17 17 17 21 23 23 23 23 24 23 19 19 19 19 19 19 19 20 20 20 19 18 16 14 11 9 7 5 5 6 8 10 11 11 12 12 12 12 12 12 12 12 12 13 14 14 15 15 15 15 15 15 15 15 15 15 15 15 15 15 14 14 14 14 14 14 14 14 14 14 13 12 11 11 11 12 12 12 13 13 13 13 13 13 14 15 15 17 17 17
26 25 25 24 24 23 23 23 22 22 22 23 25 27 28 29 29 30 31 32 34 35 36 37 38 39 39 41 41 43 44 45 47 47 47 46 46 45 43 40 37 36 35 32 32 32 32 33 33 33 33 33 33 33 33 33 35 38 37 35 35 35 35 36 35 35 34 34 34 33 32 30 30 31 32 32 33 35 37 38 38 38 38 38 38 37 38 38 37 35 34 33 31 30 31 31 31 30 27 27 27 29 31 32 32 30 30 30 30 31 31 31 30 30 31 31 31 30 30 30 32 32 33 33 33 33 33 33 33 33 33 32 30 30 30 30 31 31 30 31 32 33 33 34 37 38 39 39 39 37 37 37 38 44 49 52 55 55 53 55 52 49 49 50 51 52 49 47 45 47 51 51 51 51 52 53 53 52 51 50 51 51 53 56 56 56 57 57 56 54 49 45 39 38 38 38 39 38 38 39 39 39 39 39 39 39 39 39 39 39 39 39 39 39 40 40 39 39 39 36 35 33 33 33 32 32 32 32 33 35 35 35 35 35 35 34 33 33 33 33 33 32 32 33 33 33 33 33 33 33 32 32 32 32 32 33 33 32 32 32 32 32 33 33 33 33 33 33 33 33 33 33 33 33 33 33 34 33 33 34 36 37 38 40 40 42 42 36 36 36 36 36 36 36 35 35 35 35 35 35 35 36 36 36 36 36 37 37 39 39 39 39 39 39 38 38 39 39 40 41 43 45 46 43 42 42 42 42 42 42 42 42 42 42 42 42 42 42 42 42 42 42 42 42 42 42 42 42 42 42 41 41 41 41 41 41 41 42 42 41 42 43 44 44 42 40 41 41 40 39 37 36 35 35 35 34 33 33 33 33 33 32 32 32 32 32 32 32 32 32 32 32 32 32 32 32 32 32 32 32 32 32 32 32 32 33 34 35 35 34 34 33 33 33 33 33 33 34 35 35 35 35 35 36 36 36 36 36 36 36 35 35 35 35 35 35 35 34 34 34 34 34 34 34 33 33 33 33 33 33 33 33 33 34 34 33 32 31 32 32 32 33 33 34 36 36 35 35 35 35 35 36 36 37 37 36 35 35 35 35 35 35 35 35 35 35 35 35 35 35 36 36 36 34 34 32 32 31 29 29 29 29 29 30 30 30 30 30 30 30 30 30 30 30 30 29 29 29 29 29 30 30 30 30 31 32 31 29 28 26 26 24 23 23 23 23 23 23 24 25 27 29 29 29 28 26 23 23 23 23 23 22 22 22 22 22 22 22 22 22 22 22 22 22 22 23 23 23 23 24 25 27 29 28 26 25 25 25 25 25 26 26 26 26 26 25 25 24 24 23 22 22 24 24 22 20 20 20 19 19 20 20 20 20 20 20 19 19 19 19 20 20 20 20 18 18 19 20 20 19 19 18 16 14 13 13 14 17 17 17 18 19 20 21 21 21 21 21 21 22 22 21 21 21 21 21 20 19 17 14 13 14 16 20 20 18 17 17 17 18 19 20 20 21 23 24 26 29 31 32 30 29 29 29 28 27 27 27 27 26 26 26 25 25 24 24 24 24 24 24 24 24 24 24 24 24 24 24 24 25 25 25 25 25 26 26 24 24 22 21 21 20 20 20 20 20 20 20 20 20 20 20 20 19 19 18 18 18 18 18 18 18 18 17 17 17 17 17 18 19 21 22 24 25 24 24 22 18 17 17 17 17 18 18 19 20 20 20 20 21 21 21 22 22 23 23 24 24 24 24 24 24 24 24 25 25 25 25 25 26 26 26 26 26 26 26 25 25 24 23 21 22 22 21 19 18 17 17 17 17 18 22 23 23 23 21 20 19 19 17 16 16 16 16 16 16 16 16 16 16 16 16 16 16 16 16 16 16 16 16 16 16 16 16 16 16 16 16 16 16 16 16 17 17 17 17 17 16 16 16 17 18 18 17 17 17 17 17 17 18 17 17 19 22 24 24 24 24 21 19 19 19 19 19 19 19 20 20 19 19 17 15 14 11 9 5 5 5 7 8 10 11 11 12 12 12 12 12 11 11 12 12 13 14 14 15 15 15 15 15 15 15 15 15 15 15 15 15 15 14 14 14 14 14 14 14 14 14 14 13 12 11 11 11 12 12 12 13 13 13 13 13 13 14 15 15 17 17 17
25 25 25 24 24 23 23 23 22 22 22 24 27 30 31 31 31 30 31 32 34 35 37 38 38 39 40 41 42 43 45 46 47 47 47 47 47 46 45 42 39 37 36 34 32 32 32 32 32 32 32 32 32 32 32 32 33 36 35 34 34 34 34 35 35 35 34 34 34 33 33 30 30 30 31 31 32 33 34 35 35 34 33 35 35 34 35 36 36 34 33 32 31 30 30 29 29 28 27 27 27 28 31 33 33 31 30 30 30 31 31 31 31 31 31 31 31 30 30 31 32 32 33 33 33 33 33 33 33 33 33 32 32 32 31 31 31 31 31 32 32 33 33 35 38 38 39 39 38 38 37 36 36 38 43 47 50 50 50 53 52 48 47 46 48 49 47 45 45 46 48 49 49 49 50 51 52 51 50 49 49 50 53 54 54 54 55 55 53 51 48 44 39 38 37 38 38 38 38 39 39 39 39 39 39 39 39 39 39 38 38 38 38 38 39 39 39 39 38 35 35 33 33 33 32 32 32 32 33 35 35 35 35 35 35 35 34 34 33 33 33 32 32 33 33 33 34 34 35 35 33 33 33 33 33 33 33 33 33 32 32 32 33 33 33 33 33 33 33 33 32 32 32 32 34 35 36 35 35 35 37 38 39 41 42 43 42 37 37 37 37 36 36 36 35 35 35 35 35 35 35 36 36 36 36 36 36 36 38 39 39 39 39 38 38 38 39 39 40 41 42 45 47 44 42 42 42 42 42 42 42 42 42 42 42 42 42 42 42 42 42 42 42 42 42 43 43 42 42 41 41 41 41 41 41 42 42 41 41 41 41 41 42 42 40 39 39 40 39 38 37 35 35 35 34 34 32 32 32 32 32 32 32 32 32 32 32 32 32 32 32 32 32 32 32 32 33 33 33 33 33 33 33 33 33 34 34 34 34 34 33 33 33 33 33 33 33 33 35 35 35 35 35 36 36 36 36 36 36 36 35 35 35 35 35 35 35 34 34 34 34 34 34 34 34 34 33 33 33 33 33 33 33 34 35 34 32 31 31 32 32 33 33 34 36 36 35 35 35 35 35 35 35 37 37 37 36 36 35 35 35 35 35 35 35 35 35 35 35 35 36 36 36 34 34 33 32 31 29 29 29 29 29 30 30 30 30 30 30 30 30 30 30 30 30 29 29 29 29 29 29 29 30 30 32 32 31 29 28 26 26 25 24 24 23 23 23 24 26 28 29 29 28 27 26 26 23 23 23 22 22 22 22 22 22 22 22 22 22 22 22 22 22 22 22 23 23 23 23 23 24 25 26 26 25 26 26 26 26 26 26 26 26 26 26 26 25 25 24 23 22 22 23 21 19 19 19 19 19 19 20 21 20 20 20 20 19 19 19 19 19 20 20 20 19 19 20 21 21 20 20 18 16 13 13 13 13 15 15 15 16 17 18 20 21 21 21 21 21 21 21 20 20 20 20 20 19 17 15 14 14 16 18 19 18 17 17 17 18 20 20 21 22 22 23 25 27 29 31 32 31 30 28 28 28 27 27 26 26 26 25 25 25 25 24 24 24 24 24 24 24 24 24 24 24 24 24 24 24 25 25 24 24 24 26 26 24 24 23 22 21 21 21 21 20 20 20 20 20 20 20 20 20 18 18 18 18 18 18 18 18 17 17 17 17 17 17 17 18 19 21 22 23 24 23 22 20 17 17 17 17 17 18 18 19 20 20 20 20 21 21 21 22 22 23 23 24 24 24 24 24 24 24 24 24 24 25 25 25 25 25 26 26 26 26 26 25 25 24 23 21 22 22 20 18 17 16 16 16 16 18 23 24 25 24 24 22 22 21 19 18 17 17 17 17 16 16 16 16 16 16 16 16 16 16 16 16 16 16 16 16 16 16 16 16 16 16 16 16 17 17 17 17 17 17 17 17 16 16 16 17 18 18 18 17 17 18 19 20 22 21 20 20 22 25 25 24 24 20 20 20 19 19 19 19 19 20 20 19 18 16 14 12 10 8 5 5 5 7 8 10 11 11 12 12 12 12 11 11 11 12 12 13 14 14 15 15 15 15 15 15 15 15 15 15 15 15 14 14 14 14 14 13 13 13 13 14 15 15 13 12 11 11 11 12 12 13 13 13 13 13 14 14 14 15 15 17 17 17
25 25 25 23 23 22 22 22 22 22 22 25 28 33 32 31 31 30 31 32 35 35 37 38 38 39 40 42 43 44 45 47 48 48 48 48 47 47 46 44 41 38 37 36 34 32 32 32 32 32 32 32 32 32 32 32 32 33 33 33 33 33 33 33 34 33 33 33 33 33 33 30 30 30 30 31 31 32 33 34 34 32 31 32 32 31 32 32 33 32 33 32 31 30 30 29 29 27 27 27 27 27 30 32 32 32 32 32 31 31 31 31 31 32 32 31 31 31 31 32 32 32 33 33 33 33 33 33 33 33 33 33 33 33 32 32 32 32 32 32 32 33 34 35 38 38 39 39 39 38 38 36 36 36 38 42 45 45 47 50 50 48 46 45 47 47 46 44 43 45 47 48 47 47 48 50 50 50 49 48 48 50 52 52 52 51 51 50 49 48 45 42 38 37 36 36 36 37 37 39 39 39 39 39 39 39 38 38 38 37 36 36 37 38 38 38 38 38 37 35 34 34 34 33 32 32 32 33 34 34 34 33 34 34 34 34 34 34 33 33 32 32 32 33 33 33 33 33 36 36 34 33 33 33 33 33 33 34 35 33 33 33 33 33 33 33 33 33 33 33 32 32 32 32 36 38 38 37 37 37 39 39 40 41 43 43 42 39 39 38 38 38 36 36 35 35 35 35 35 35 35 36 36 36 36 36 36 36 38 39 39 38 38 38 38 38 39 39 40 40 42 46 48 46 42 42 42 42 42 42 42 42 42 42 42 42 42 42 42 42 42 42 42 42 42 43 44 43 42 41 41 41 41 41 41 41 41 41 41 40 39 39 40 40 39 38 38 38 38 37 36 35 35 35 34 34 32 32 32 32 32 32 32 32 32 32 32 32 32 32 32 32 32 32 32 32 33 33 33 33 33 33 33 33 33 33 33 33 34 34 33 33 33 33 33 33 33 33 35 35 36 36 36 36 36 36 36 36 36 36 35 35 35 35 34 34 34 34 34 34 34 34 34 34 34 34 33 33 33 33 34 34 34 35 35 35 32 31 31 32 32 33 33 34 36 36 35 35 35 35 35 35 35 37 38 37 36 36 35 35 35 35 35 35 35 35 35 35 35 35 35 35 35 34 34 33 33 32 29 29 29 29 29 30 30 30 30 30 30 30 30 30 30 30 30 29 29 29 29 29 29 29 29 30 31 31 30 28 28 26 26 26 26 26 24 24 24 25 26 28 28 27 26 25 25 25 24 23 23 22 22 22 22 22 22 22 22 22 22 22 22 22 22 22 22 23 23 23 22 22 22 22 22 23 24 26 26 26 26 26 26 26 26 27 27 26 26 26 26 24 21 21 22 20 19 19 19 19 19 20 22 22 21 21 20 20 19 19 19 19 19 19 20 20 20 20 21 21 21 20 20 17 16 14 13 13 12 12 13 13 13 14 16 18 20 20 21 21 21 21 21 19 18 18 19 19 18 15 14 14 16 18 19 19 17 17 17 18 19 21 22 23 23 23 24 26 27 28 30 32 31 29 28 28 27 26 26 26 26 25 25 25 24 24 24 24 24 24 25 25 24 24 23 23 24 24 24 24 24 24 24 24 24 24 25 25 25 25 24 23 22 22 21 21 20 20 20 20 20 20 20 20 20 18 18 18 18 18 17 17 17 17 17 17 17 17 17 17 18 19 20 20 22 22 21 19 17 17 17 17 17 17 18 18 19 20 20 20 20 21 21 21 22 22 23 23 24 24 24 24 24 24 24 24 24 24 24 25 25 25 25 26 26 26 25 25 25 25 24 24 23 23 22 20 18 17 16 16 16 16 18 23 25 25 24 24 23 23 22 21 20 19 18 17 17 16 16 16 16 16 16 16 16 16 16 16 16 16 16 16 16 16 16 16 16 16 16 16 16 17 17 17 17 17 17 17 17 17 17 17 17 18 18 18 18 19 20 22 23 25 25 25 24 24 25 25 24 24 22 22 22 21 21 20 20 20 20 19 18 16 15 13 11 9 7 5 5 6 7 8 10 11 11 12 12 12 12 11 11 11 12 12 13 13 13 14 14 15 15 15 15 15 14 14 14 14 14 14 14 13 13 13 12 12 12 13 13 14 14 14 13 11 10 11 12 12 12 13 13 13 13 14 14 14 15 15 17 17 17
24 24 24 23 23 22 22 22 22 22 23 26 28 33 33 31 31 30 31 33 35 36 37 38 38 40 41 42 43 44 46 47 49 49 49 48 48 47 47 45 43 40 38 37 36 34 33 32 32 32 32 32 32 32 32 32 32 32 32 32 32 31 31 31 30 30 32 32 32 32 32 30 30 30 30 30 30 31 31 32 32 31 31 30 30 30 30 30 31 31 32 32 31 30 30 30 30 28 27 27 26 26 27 29 31 33 33 32 32 32 32 32 32 32 32 31 31 31 32 33 33 33 33 33 33 33 33 33 33 33 33 33 33 33 33 33 33 33 33 33 33 34 34 35 36 38 39 39 39 38 38 37 37 36 36 37 39 41 43 45 46 45 44 43 45 45 45 43 42 44 46 47 46 46 46 48 48 48 47 47 47 49 51 50 49 48 47 46 45 44 42 39 37 37 36 36 36 37 37 39 39 39 39 39 38 38 38 38 38 36 36 36 37 37 37 37 37 36 36 34 34 34 34 33 33 33 33 33 35 35 34 33 33 34 34 34 34 34 33 33 32 32 32 33 33 33 33 33 36 36 34 33 33 33 33 33 33 33 35 34 33 33 32 33 33 33 33 33 33 33 33 33 33 33 36 38 38 38 38 39 40 40 40 41 42 42 42 40 40 39 39 38 37 36 35 35 35 35 35 35 35 36 36 36 36 36 36 36 38 39 39 38 38 38 38 38 39 39 40 40 42 47 49 47 43 41 42 42 42 42 42 42 42 42 42 42 42 42 42 42 42 42 42 42 42 44 44 43 42 41 41 41 41 41 41 41 41 41 41 39 39 39 38 38 38 38 38 37 37 36 36 35 35 35 34 34 32 32 32 32 32 32 32 33 32 32 32 32 32 32 32 32 32 32 32 32 33 33 33 33 33 33 33 33 33 33 33 33 33 33 33 33 33 33 33 33 33 34 35 35 36 36 36 36 36 37 36 36 36 36 35 35 35 35 34 34 34 34 34 34 34 34 34 34 34 34 33 33 33 34 34 35 35 35 36 36 32 32 32 32 32 34 34 34 36 37 36 35 35 35 35 35 35 36 38 38 37 36 35 35 35 35 35 35 35 35 35 35 35 35 35 35 35 34 34 33 33 32 30 29 29 29 30 30 30 30 30 30 30 30 30 30 30 30 30 30 30 29 29 29 29 29 29 29 30 30 30 28 28 27 27 26 27 27 26 25 25 26 26 27 27 26 26 25 25 25 24 24 23 23 23 22 22 22 22 22 22 22 22 22 22 22 22 23 23 23 23 23 22 22 22 22 22 22 23 26 26 26 26 26 27 27 27 27 27 27 27 27 27 25 22 21 21 20 19 19 19 20 20 21 22 21 20 20 20 20 19 19 19 19 19 19 20 20 20 20 21 21 21 20 20 18 17 16 13 13 12 12 13 13 13 13 14 17 18 20 20 20 21 21 21 18 17 15 17 19 18 14 14 14 18 18 18 17 17 17 18 19 20 21 23 23 24 24 24 26 26 28 28 30 29 28 27 27 27 26 26 25 25 25 25 25 24 24 24 24 24 24 25 25 24 24 23 23 24 24 24 24 24 24 24 24 24 24 25 25 26 26 25 25 23 22 22 21 21 21 20 20 20 20 20 20 20 19 19 18 18 18 17 17 17 17 17 17 17 17 17 17 18 18 19 19 20 20 18 17 17 17 17 17 18 18 18 18 19 20 20 20 20 21 22 22 22 22 23 23 24 24 24 24 24 24 24 24 24 24 24 24 24 25 25 25 25 25 25 25 25 25 24 24 24 23 23 21 19 17 16 16 16 16 18 23 25 24 23 23 23 23 22 22 21 21 20 17 17 17 17 17 16 16 17 17 17 17 17 17 17 17 17 17 17 17 16 16 16 16 16 17 17 17 18 18 18 18 18 18 18 18 18 18 18 18 19 19 20 20 22 23 23 27 27 26 26 26 25 25 25 25 24 24 24 23 23 22 21 20 19 18 16 15 13 12 10 8 7 5 5 6 8 8 10 11 11 12 12 11 11 11 11 11 12 12 13 13 13 14 14 15 15 15 15 15 14 14 14 14 14 13 13 13 13 13 12 12 12 12 12 14 14 14 12 10 10 11 12 12 12 12 12 13 13 14 14 14 16 16 17 17 18
24 24 24 23 23 22 22 22 22 22 23 26 28 32 32 31 31 30 32 33 36 36 38 39 39 40 41 43 44 45 47 48 49 49 49 49 49 48 48 46 44 41 39 38 37 36 34 33 33 32 32 32 32 32 32 32 32 32 32 31 31 29 28 28 29 30 32 31 30 30 31 30 30 30 30 30 29 29 29 29 29 29 29 29 29 29 30 30 30 30 31 31 31 31 32 32 33 30 27 27 26 26 26 27 30 33 33 33 33 33 33 33 32 32 30 30 30 31 32 32 32 32 32 32 32 32 33 33 33 33 33 33 33 33 33 33 33 33 33 33 33 34 34 35 36 38 40 40 39 38 38 37 37 36 36 36 36 39 42 42 42 42 42 41 43 43 43 41 41 43 45 46 44 44 44 45 45 45 45 45 45 49 50 48 47 45 44 43 42 41 39 37 37 36 36 36 36 37 38 39 39 39 39 38 36 37 37 38 38 36 36 36 36 36 36 36 36 36 35 33 33 33 33 33 33 33 33 33 35 36 34 33 33 34 34 34 33 33 33 33 32 32 32 33 33 33 33 34 36 36 34 34 33 33 33 32 32 32 34 34 33 33 32 33 33 33 33 33 33 33 33 33 33 34 36 38 38 39 39 39 39 39 40 40 42 42 42 41 40 40 40 38 38 36 35 35 35 35 35 35 35 35 35 35 35 35 35 35 38 39 39 38 38 38 38 38 39 39 39 39 42 47 49 48 44 41 42 43 42 42 42 42 42 42 42 42 42 42 42 42 42 42 42 42 42 44 44 43 43 42 41 41 41 41 41 41 41 41 41 39 39 39 38 38 38 38 38 37 37 36 36 35 35 37 36 34 33 32 32 32 32 32 32 32 32 32 32 32 32 32 32 32 32 32 32 32 33 33 33 33 33 33 33 32 32 33 33 33 33 33 33 33 33 33 33 33 34 34 35 35 36 36 37 37 38 38 37 36 36 36 35 35 35 35 34 34 34 34 34 34 34 34 34 34 34 34 34 34 34 35 35 35 35 35 35 35 32 32 32 33 33 34 34 34 37 38 38 36 35 34 34 34 34 35 37 38 37 36 35 35 35 35 35 35 35 35 35 35 34 34 35 35 34 34 34 33 33 32 30 30 30 30 30 30 30 30 30 30 30 30 30 30 30 30 30 30 30 29 29 29 29 29 29 29 30 30 29 28 28 27 27 27 27 27 26 26 26 26 26 26 26 26 26 25 24 23 23 23 23 22 22 22 22 22 22 22 22 22 22 22 22 22 22 23 23 23 23 23 22 22 22 22 22 24 25 26 26 26 25 25 26 26 27 27 27 27 27 26 26 25 23 22 21 20 20 20 20 21 22 22 21 20 20 20 20 20 19 19 19 19 19 19 20 20 21 21 22 22 22 20 20 20 19 17 13 13 12 12 13 13 13 13 14 17 18 18 18 18 19 20 20 19 17 16 16 17 17 14 14 14 16 16 16 16 16 18 19 20 22 23 23 24 24 25 25 26 26 27 26 27 27 26 26 26 26 26 26 25 24 24 24 24 24 24 23 23 23 24 24 24 23 23 22 22 24 24 24 24 24 24 24 24 24 24 25 25 26 26 26 26 25 24 23 22 22 22 21 21 20 20 20 20 20 19 19 19 18 18 18 18 17 17 17 17 17 17 17 17 18 18 18 18 17 17 17 17 17 17 17 18 18 18 19 19 19 19 19 20 20 21 22 22 22 22 23 23 23 24 24 24 24 24 24 24 24 24 24 24 24 25 25 24 24 25 25 25 24 24 24 23 23 23 22 20 19 17 16 16 16 16 19 23 23 22 21 21 22 23 23 23 22 21 21 18 18 18 18 17 17 17 17 17 17 17 17 17 17 17 17 17 17 17 16 16 16 16 16 17 17 18 18 18 18 18 18 18 18 18 18 19 19 19 19 20 21 21 23 23 24 26 26 26 26 26 26 26 26 26 24 24 24 24 24 23 21 19 17 16 15 14 12 11 10 8 6 5 5 7 8 9 10 11 11 12 12 11 11 11 11 11 11 11 12 12 12 14 14 15 15 15 14 14 14 14 14 14 14 13 13 13 13 13 12 12 12 12 12 13 14 13 11 9 9 10 11 11 12 12 12 14 14 14 14 14 16 17 17 17 18
23 23 23 22 22 21 21 21 22 22 23 25 26 30 32 31 31 31 32 33 36 36 38 39 39 41 41 43 44 45 48 48 50 50 50 49 49 49 49 47 45 43 41 39 37 37 35 34 34 33 33 32 32 32 32 32 32 32 32 32 32 30 29 28 29 30 31 30 30 30 30 29 29 29 29 30 29 29 28 28 28 29 29 29 29 29 30 30 30 30 31 31 30 31 32 33 34 31 27 27 27 27 28 28 30 33 33 33 33 33 33 32 31 30 30 30 30 31 31 32 32 32 32 32 32 32 33 33 33 33 33 33 33 33 33 33 33 33 33 33 34 35 35 35 36 38 40 40 39 39 39 37 37 36 36 36 37 39 42 43 43 41 41 40 40 41 40 39 40 41 43 45 43 41 41 42 42 42 42 42 44 48 48 45 45 43 42 42 42 40 38 37 36 36 36 36 36 38 38 39 39 39 38 37 36 36 37 37 37 37 37 36 36 36 36 36 35 35 34 33 33 33 33 33 33 33 33 33 35 37 36 35 34 34 34 33 33 33 33 33 32 32 32 33 33 34 34 34 36 36 35 35 34 34 33 32 32 32 33 34 33 33 32 33 33 33 33 33 33 33 33 33 35 36 38 38 38 39 39 39 39 39 40 41 42 42 42 41 41 41 41 39 38 37 36 36 36 35 35 35 35 35 35 35 35 35 35 35 37 39 39 39 39 38 38 38 38 38 39 39 41 47 49 48 45 41 43 44 41 41 41 41 42 42 42 42 42 42 42 42 42 42 42 42 42 44 44 43 43 42 41 41 41 41 41 41 41 40 40 39 39 39 39 38 38 38 38 37 37 36 36 35 36 39 38 34 33 32 32 32 32 32 32 32 32 32 32 32 32 32 32 32 32 32 32 32 33 33 33 33 32 32 32 32 32 33 33 33 33 33 33 33 33 33 33 34 34 35 36 36 36 36 37 38 38 38 37 35 35 35 35 35 34 34 34 34 34 34 34 34 34 34 34 34 34 34 34 35 35 36 36 36 36 36 35 34 33 33 33 33 33 35 35 35 37 38 38 37 35 34 34 34 34 35 36 37 37 37 36 36 35 35 35 35 35 35 35 35 34 34 35 35 34 34 34 33 33 32 30 30 30 30 30 30 30 30 30 30 30 30 30 30 30 30 30 30 30 29 29 29 29 29 29 29 30 30 29 28 28 27 27 27 27 27 27 27 26 26 26 26 26 25 25 24 23 23 23 23 23 22 22 22 22 22 22 22 22 22 22 22 22 23 23 23 23 23 23 23 23 23 23 23 24 25 26 26 26 26 25 25 26 26 27 27 27 26 25 25 24 24 24 23 22 22 21 21 22 22 23 22 20 20 20 20 20 20 19 19 19 19 19 20 20 20 22 22 23 22 22 21 21 20 20 17 13 13 13 13 13 13 13 13 14 18 17 17 17 17 17 19 20 20 19 18 17 16 14 14 15 15 15 16 17 17 18 20 21 23 24 25 25 25 25 25 25 26 26 26 26 26 26 26 26 26 26 27 27 24 24 24 24 24 23 23 23 23 23 24 24 23 22 22 22 22 23 23 24 24 24 23 23 23 23 24 24 25 27 27 27 26 26 25 25 23 23 23 22 21 21 21 20 20 20 20 20 19 18 18 18 18 17 17 17 17 17 17 17 17 18 18 17 17 17 17 17 17 17 17 17 18 19 19 18 18 18 18 18 20 20 21 22 22 22 22 23 23 23 24 24 23 23 24 23 23 24 24 24 24 24 24 24 24 24 25 25 25 24 24 24 23 23 22 21 18 17 16 16 16 16 17 20 23 23 21 20 20 21 22 24 24 22 21 20 18 18 18 18 18 17 17 17 17 17 17 17 17 17 17 17 17 17 17 16 16 16 16 16 17 17 17 18 18 17 17 17 17 17 18 18 19 19 19 20 20 21 21 23 24 24 25 25 25 25 26 25 25 25 25 24 24 24 23 23 23 21 18 15 15 14 13 11 10 10 8 6 5 5 7 9 9 10 11 11 12 12 11 11 11 11 11 11 11 12 12 12 14 14 15 15 15 14 14 14 14 14 14 14 12 12 12 12 12 12 12 12 12 11 12 13 11 10 9 9 9 11 11 12 12 12 14 14 15 15 15 17 17 18 18 19
21 21 21 21 21 21 21 21 22 22 23 24 25 28 30 31 31 32 33 33 36 36 38 40 40 41 41 43 44 45 48 48 50 50 50 50 50 49 49 48 46 44 42 40 38 37 36 34 34 34 34 32 32 32 32 32 32 32 33 34 36 34 32 28 28 28 29 29 29 29 29 29 29 29 29 29 28 27 27 27 28 28 28 28 29 29 30 30 31 31 30 30 30 30 31 31 32 30 27 27 27 27 28 29 30 31 32 33 33 34 32 30 29 29 30 31 32 32 32 32 32 32 32 32 32 32 33 33 33 33 33 33 33 33 33 33 33 33 33 35 35 35 35 36 37 38 39 39 39 39 39 38 38 36 36 38 40 39 42 42 42 40 39 38 38 40 39 38 39 40 42 44 43 39 39 40 40 41 40 40 42 44 44 43 43 42 41 41 41 40 37 36 35 35 35 35 36 39 39 39 39 39 38 36 36 36 37 37 37 36 36 36 36 36 35 35 35 35 34 33 33 33 33 33 33 33 33 33 34 36 36 35 34 33 32 32 32 32 32 32 32 32 32 34 34 35 35 35 36 36 35 35 35 35 34 33 32 32 33 33 33 33 33 33 33 33 33 33 33 33 33 34 36 36 38 38 38 38 38 39 39 39 40 41 42 42 41 41 41 41 40 39 38 37 36 36 36 36 36 35 35 35 35 35 35 35 35 35 36 37 39 41 41 39 38 38 38 38 38 38 41 46 49 49 46 42 43 44 41 41 41 41 41 42 42 42 42 42 42 42 42 42 42 42 42 43 43 43 43 42 41 41 41 41 41 41 41 40 40 39 39 40 40 40 39 39 38 38 38 38 37 36 37 40 38 35 33 32 32 32 32 32 32 31 32 32 32 32 32 32 32 32 32 32 32 32 32 32 32 32 32 32 32 32 32 33 33 33 32 32 33 33 33 33 33 34 34 35 36 36 36 36 37 37 37 36 36 35 35 35 35 35 34 34 34 34 34 34 34 34 34 34 34 34 34 34 34 35 35 36 36 36 35 35 34 34 33 33 33 34 35 35 35 35 37 38 38 38 35 34 34 34 34 35 36 37 37 37 36 36 35 35 35 35 35 35 34 34 34 34 34 34 34 33 33 33 33 32 30 30 30 30 30 30 30 30 30 30 30 30 30 30 30 30 30 30 30 29 29 29 29 29 29 29 29 29 29 28 28 27 27 27 27 27 26 26 26 25 25 25 25 24 24 23 23 22 23 23 23 22 22 22 22 22 22 22 22 22 22 22 22 23 23 23 23 24 25 25 24 24 24 24 25 26 26 26 26 25 25 25 24 25 26 26 25 24 23 23 23 23 24 24 23 23 23 23 23 22 22 21 20 20 20 20 20 20 19 19 19 19 19 20 20 20 22 23 23 22 22 21 21 20 19 16 13 13 13 13 13 13 13 13 14 17 17 17 17 17 17 18 19 20 20 19 18 14 13 14 17 17 18 18 19 20 22 23 24 26 27 26 25 25 25 26 26 26 27 26 26 26 25 25 25 25 26 26 26 24 23 24 23 23 23 23 22 22 22 22 22 22 21 21 22 22 23 23 24 24 24 23 23 23 23 23 24 25 26 26 26 26 26 26 26 24 23 23 23 23 23 21 20 20 20 20 20 19 18 18 18 18 17 17 17 17 17 17 17 17 18 18 17 17 17 17 17 17 17 18 18 18 18 18 18 18 18 18 18 19 20 21 21 21 22 22 23 23 23 24 24 23 23 23 23 23 23 23 23 24 24 24 24 24 24 24 24 24 24 24 24 23 23 22 20 17 16 16 16 16 16 18 21 23 22 20 20 20 21 22 24 24 22 21 19 18 18 18 18 17 17 17 17 17 17 17 17 17 17 17 17 17 17 17 16 16 16 16 16 16 16 17 17 16 16 16 16 16 17 17 17 18 18 19 20 20 21 21 21 23 24 25 25 25 25 25 25 25 25 25 24 23 23 22 21 21 19 16 14 14 13 13 11 10 10 8 6 5 5 6 9 9 10 10 10 11 11 11 11 11 11 11 11 11 12 12 12 14 14 14 14 14 14 14 14 14 14 13 13 12 12 12 12 12 12 12 11 11 11 12 12 10 9 9 9 9 11 11 12 12 13 14 14 15 16 17 17 17 18 18 18
20 20 20 21 21 21 21 21 22 22 23 24 25 27 29 31 31 32 33 33 35 36 39 40 40 41 41 44 44 46 48 48 50 50 51 50 50 50 50 48 47 45 42 41 38 37 36 35 35 34 34 33 32 32 32 32 32 32 33 36 38 36 34 30 29 29 29 29 29 29 29 29 29 28 28 28 27 27 27 27 27 27 27 28 29 30 31 32 32 32 30 30 29 29 29 29 29 28 26 26 27 27 27 28 29 30 30 33 33 32 30 29 29 30 32 33 33 32 32 32 32 32 32 32 33 33 33 33 33 33 33 33 33 33 33 33 33 33 34 36 36 36 36 36 37 37 37 37 38 39 39 38 38 36 36 39 40 39 40 41 41 39 39 37 37 38 38 38 39 39 41 43 44 39 38 39 39 40 39 39 40 41 41 41 42 41 40 41 41 39 36 36 35 35 35 35 36 39 39 38 38 38 37 36 36 36 36 37 37 36 36 36 36 36 35 35 35 35 34 33 33 33 33 33 33 33 33 33 33 34 34 33 32 32 32 32 32 32 32 32 32 32 32 34 35 36 36 36 36 36 36 36 36 36 35 33 33 33 33 33 33 33 33 33 33 33 33 33 33 33 34 34 36 36 37 37 37 38 38 39 39 39 41 41 42 42 41 40 40 40 39 38 37 37 37 37 36 36 36 36 36 35 35 35 35 35 35 35 36 37 40 42 42 39 38 38 38 38 38 38 40 44 48 49 47 43 44 44 42 41 41 41 41 42 42 42 42 42 43 43 42 42 42 42 42 43 43 43 43 42 42 42 42 42 42 41 41 40 40 40 40 41 41 41 40 39 39 39 39 39 39 37 38 38 36 35 33 32 32 32 32 32 32 31 31 31 32 32 32 32 32 32 32 32 32 32 32 32 32 32 32 32 32 32 32 32 32 32 32 32 33 33 33 34 34 35 35 35 36 36 36 36 36 36 36 36 36 35 35 35 35 35 34 34 34 34 34 34 34 34 34 34 34 34 34 34 34 35 35 36 36 35 35 35 34 34 33 33 33 35 35 36 36 36 37 37 38 38 35 34 34 34 34 35 36 36 37 37 36 36 36 35 35 35 35 35 34 34 34 34 34 34 34 33 33 33 33 32 31 31 30 30 30 30 30 30 30 30 30 30 30 30 30 30 30 30 30 30 30 29 29 29 29 29 29 29 28 28 28 27 27 26 26 26 26 26 26 25 25 25 25 23 23 23 22 22 23 23 23 22 22 22 22 22 22 22 22 22 22 22 23 23 23 24 24 25 27 27 25 25 24 24 25 26 26 25 25 25 24 24 24 24 24 24 23 23 22 22 22 23 24 24 24 24 24 23 23 22 22 21 20 20 20 20 20 20 19 19 19 19 19 20 21 21 23 23 23 22 22 21 21 19 17 15 13 13 13 13 13 13 13 14 14 17 17 17 16 16 17 17 18 19 20 19 17 13 13 16 19 20 21 21 22 23 25 26 27 28 28 27 26 26 26 26 26 27 28 27 27 26 24 24 24 24 25 26 26 23 23 24 23 23 23 23 22 22 22 21 21 21 21 21 22 22 23 23 24 24 24 23 23 23 23 23 24 24 25 25 26 25 25 25 24 21 19 20 21 22 23 22 21 20 20 20 20 19 18 18 18 18 17 17 17 17 17 17 17 17 18 18 17 17 17 17 17 17 17 18 18 18 18 18 18 18 18 17 17 18 19 20 21 21 21 21 22 22 23 24 24 23 23 23 23 23 23 23 23 24 24 24 24 24 24 24 24 24 24 24 24 24 24 21 20 16 15 15 16 16 17 19 21 23 22 20 20 20 21 22 23 23 21 20 19 18 18 17 17 17 17 17 17 17 17 17 17 17 17 17 17 17 17 17 16 16 16 16 16 16 16 16 16 15 15 15 16 16 16 17 17 18 18 19 20 20 20 19 19 23 24 24 24 24 24 24 25 25 25 25 24 23 23 21 20 19 17 15 14 14 13 13 12 10 10 9 7 5 5 6 9 9 10 10 10 11 11 11 11 11 11 11 11 11 12 12 12 14 14 14 14 14 14 14 14 14 14 13 13 12 12 12 12 12 12 12 11 11 11 11 11 10 9 9 9 10 11 11 12 13 13 14 14 16 16 17 18 18 18 18 17
20 20 20 20 20 21 21 21 22 22 24 24 25 27 28 31 31 32 33 33 35 36 39 40 40 41 41 44 44 46 48 48 50 50 51 51 51 50 50 49 47 46 44 42 40 38 36 35 35 34 34 33 32 32 32 32 32 32 33 35 35 35 35 33 32 32 32 31 29 29 29 28 28 27 27 27 27 27 27 27 27 27 27 28 30 31 32 33 32 32 30 29 28 28 28 28 27 27 26 26 27 27 27 28 28 29 29 30 30 28 28 28 29 31 34 35 35 33 33 32 32 32 32 32 33 33 33 33 33 33 33 33 33 33 33 33 33 34 35 36 36 37 37 37 37 37 37 37 37 37 38 38 38 36 36 38 40 38 38 40 41 40 39 37 36 36 36 36 37 38 40 42 42 38 37 39 39 40 39 39 39 39 39 39 40 40 39 40 39 37 36 35 35 35 35 35 36 39 39 38 37 36 36 36 36 36 36 36 36 36 36 36 35 35 35 35 35 35 34 34 34 33 33 33 33 33 33 33 33 33 33 32 32 32 32 32 32 32 32 32 32 32 33 34 35 36 37 37 36 36 36 36 37 37 36 34 33 33 33 33 33 33 33 33 33 33 33 33 33 33 34 34 35 35 36 37 37 38 38 39 39 39 41 42 42 42 41 39 39 39 38 38 37 37 37 37 38 36 36 36 36 35 35 35 35 35 36 36 36 38 40 41 40 39 38 38 38 38 38 38 40 44 46 48 48 45 44 45 43 41 41 41 41 42 42 42 42 42 43 43 42 42 42 42 42 43 43 43 43 42 42 42 42 42 42 42 42 40 40 40 41 41 42 42 40 39 39 39 39 39 39 38 37 37 36 36 33 32 32 32 32 32 32 31 31 31 32 32 32 32 32 32 32 32 32 32 32 32 32 32 33 34 34 32 32 31 32 32 32 32 33 33 33 34 34 34 34 35 36 36 36 36 36 35 35 35 35 35 35 35 34 34 34 34 34 34 34 34 34 34 34 34 34 34 34 34 35 36 36 36 36 35 35 35 34 34 33 33 33 34 35 36 36 36 36 36 38 38 36 35 35 34 34 35 35 35 37 37 36 36 36 35 35 35 35 35 34 34 34 34 34 34 34 33 33 33 33 32 31 31 30 30 30 30 30 30 30 30 30 30 30 30 30 30 30 30 30 30 30 29 29 29 29 29 29 29 28 28 28 27 27 26 26 26 26 26 25 25 25 25 25 23 23 24 24 23 23 23 23 22 22 22 22 22 22 22 22 22 22 22 23 23 23 24 25 26 27 27 26 25 25 25 25 25 25 25 25 25 24 24 23 23 23 23 22 22 22 22 22 22 24 24 24 24 24 23 23 22 22 21 20 20 21 20 20 20 19 19 19 19 19 20 22 22 23 23 23 22 22 21 21 19 17 15 14 14 13 13 13 13 13 14 14 16 16 16 16 16 17 17 17 18 19 17 15 13 13 17 20 22 23 23 24 26 28 29 29 29 29 28 26 26 26 26 26 28 28 27 27 26 24 24 23 23 24 26 26 24 23 24 23 23 23 23 22 22 21 21 21 21 21 21 22 22 23 23 24 24 24 23 23 23 23 23 24 24 25 25 26 25 25 23 19 13 11 13 15 17 20 21 19 20 20 19 19 18 17 17 18 18 17 17 17 17 17 17 17 17 18 18 17 17 17 17 17 17 17 18 18 18 18 18 18 18 18 17 17 17 19 20 20 20 21 21 22 22 23 23 23 23 23 23 23 23 23 23 23 24 24 24 24 24 24 24 24 24 24 24 24 24 24 21 19 15 15 15 16 16 18 19 21 23 23 20 20 20 21 22 22 21 20 19 18 17 17 17 17 17 17 17 17 17 17 17 17 17 17 17 17 17 17 17 16 16 16 15 15 15 15 15 15 15 15 15 15 15 16 17 17 18 18 19 20 20 19 19 18 21 23 24 24 24 24 24 24 24 24 24 24 23 23 21 19 17 15 14 14 14 13 13 12 11 10 9 7 5 5 6 9 9 10 10 10 10 10 11 11 11 11 11 11 11 12 12 12 14 14 14 14 14 14 14 14 14 13 13 13 12 12 12 11 11 11 11 10 10 10 10 10 9 9 9 10 11 12 12 13 13 13 15 15 16 16 17 18 18 18 18 18
19 19 19 20 20 21 21 21 22 22 24 24 25 27 28 30 30 32 33 33 35 36 38 40 40 41 42 44 44 46 49 49 50 50 51 51 51 50 50 49 48 47 45 43 40 39 38 37 36 35 35 34 33 33 32 32 33 33 34 35 36 36 36 36 36 35 34 33 31 29 29 28 28 27 27 27 27 27 27 27 27 27 27 29 30 32 33 33 32 31 28 27 27 27 27 27 27 26 26 26 26 26 27 28 28 29 29 29 28 28 28 29 30 32 35 36 36 34 33 32 32 32 32 32 33 33 33 33 33 33 33 33 33 33 33 33 35 36 37 37 38 39 40 38 37 37 39 40 37 36 38 38 38 35 35 35 37 36 38 39 40 41 40 36 35 35 35 35 36 37 39 41 40 36 36 38 39 40 39 39 37 37 37 38 38 38 38 39 38 37 35 35 35 35 35 35 35 38 39 37 36 36 36 36 36 36 36 36 36 36 36 36 35 35 35 35 35 35 34 34 34 33 33 33 33 33 33 33 33 32 32 32 32 32 32 32 32 32 32 32 32 33 35 36 36 37 37 37 36 36 36 37 37 37 36 34 33 32 32 32 33 33 34 34 34 34 34 33 33 33 34 34 35 35 36 37 37 38 38 39 39 40 42 42 42 42 41 39 39 38 38 38 37 37 37 37 38 36 35 36 36 35 35 34 35 35 36 36 36 39 39 39 39 38 38 38 38 38 38 38 39 44 46 48 48 46 46 46 44 41 41 41 41 42 42 42 42 42 43 43 42 42 42 42 42 43 43 43 43 42 42 42 42 42 42 41 41 40 40 40 40 40 40 40 39 39 38 38 38 38 38 38 37 37 37 37 34 33 33 32 32 31 31 31 31 31 31 31 32 32 32 33 33 32 32 32 32 32 32 32 34 35 36 34 32 31 31 31 32 33 35 35 34 34 34 34 34 35 36 36 36 36 36 35 35 35 35 35 35 35 34 34 34 34 34 34 34 34 34 34 34 34 34 34 34 34 35 36 36 35 35 35 35 35 34 34 34 34 34 34 34 35 35 35 36 36 37 38 37 35 35 35 35 35 35 35 37 37 36 36 36 35 35 35 35 34 34 34 34 34 34 34 34 33 33 33 33 32 31 31 31 30 30 30 30 30 30 30 30 30 30 30 30 30 30 30 30 30 30 29 29 29 29 29 28 28 28 27 27 27 27 26 26 26 25 25 25 25 25 24 24 24 25 26 27 25 23 23 23 22 22 22 22 22 22 22 22 22 22 23 24 25 25 26 26 27 27 27 26 26 25 25 25 25 25 24 24 24 24 24 23 23 23 22 22 22 22 22 22 22 24 24 24 24 24 23 23 22 22 21 21 22 22 20 19 19 19 19 19 19 20 22 23 23 23 23 23 22 22 21 21 19 18 17 15 14 13 13 13 13 13 14 14 15 15 15 16 16 16 16 17 17 17 16 13 13 14 17 20 21 22 23 24 27 28 30 30 29 29 28 26 26 26 27 27 27 26 26 26 26 24 24 21 20 22 25 25 24 24 24 23 23 22 22 22 22 21 21 21 21 22 23 23 23 24 24 23 23 23 22 22 22 22 22 23 24 25 25 25 25 24 21 14 8 6 8 9 12 17 19 17 19 19 18 18 17 17 17 17 17 17 17 17 17 17 17 17 17 18 18 18 18 17 17 17 17 17 17 17 17 18 18 18 18 18 17 17 17 18 19 19 19 20 20 21 22 22 22 22 22 22 22 22 22 23 23 23 24 24 24 24 24 24 24 24 24 24 24 24 24 24 22 19 15 15 15 16 16 18 19 21 21 21 20 20 20 21 21 20 20 19 18 18 17 17 16 16 16 16 16 16 16 17 17 17 17 17 16 16 16 16 16 15 15 15 15 15 15 15 14 14 14 14 14 15 15 15 17 17 18 18 19 19 19 19 18 17 20 21 22 22 22 23 23 24 24 24 24 23 23 23 21 18 16 14 13 13 13 12 12 12 11 11 8 6 5 5 7 9 9 10 10 10 10 10 11 11 11 11 11 12 12 12 12 13 14 14 15 15 14 14 14 14 14 13 13 13 12 12 12 11 11 10 10 10 9 9 9 9 9 9 9 11 12 12 12 13 14 14 15 15 16 16 17 18 18 17 17 16
19 19 19 19 19 20 21 22 22 22 24 24 25 27 28 29 30 32 33 33 35 36 38 39 40 41 42 44 44 46 49 49 50 50 50 51 51 51 51 49 48 48 46 43 41 40 39 39 38 37 36 37 35 33 33 33 33 33 34 38 40 40 39 38 37 36 35 34 32 31 30 29 29 28 27 27 27 27 27 27 27 27 27 27 29 31 33 33 32 29 27 26 26 26 26 26 25 26 26 26 26 26 27 28 28 29 29 28 28 28 29 30 31 33 35 37 37 35 34 33 33 33 32 32 33 33 33 33 33 33 33 33 33 33 34 36 38 38 40 40 40 41 41 40 39 39 42 43 38 36 37 37 37 36 35 35 34 33 35 37 37 39 39 35 35 35 35 35 36 36 38 39 37 36 36 38 39 40 39 38 36 36 37 37 37 37 38 38 38 36 35 35 35 35 35 35 35 36 38 36 36 36 37 37 36 36 36 36 36 36 36 36 35 35 35 35 35 35 34 34 34 34 34 34 33 33 32 32 32 32 32 32 32 32 32 32 32 32 32 33 34 35 35 37 37 37 37 37 37 37 37 37 37 37 35 34 33 32 32 32 33 34 35 35 35 34 34 34 34 34 34 34 35 35 36 37 37 38 38 39 40 41 43 43 42 42 42 39 39 38 38 38 37 37 37 37 36 35 35 35 35 35 35 34 35 35 36 36 37 38 38 38 38 39 39 39 39 39 39 39 39 43 46 48 48 47 47 47 44 42 42 42 42 42 42 42 42 42 43 43 43 43 42 42 42 43 43 43 43 43 43 43 42 42 42 41 41 40 40 39 39 39 39 39 38 38 38 38 39 39 38 38 38 38 37 36 34 33 33 32 32 31 31 31 31 31 31 31 32 32 32 33 33 32 32 32 32 32 32 33 34 36 36 34 31 31 31 31 32 34 36 36 35 34 34 34 34 35 35 35 35 35 35 35 35 35 35 35 35 35 34 34 34 34 34 34 34 34 34 34 34 34 34 34 35 35 35 35 35 35 35 35 35 35 35 35 34 34 34 34 34 35 35 35 36 36 36 38 37 35 35 35 35 35 35 35 36 37 36 36 36 35 35 35 35 34 34 34 34 34 34 34 34 33 33 33 33 32 32 32 31 31 30 30 30 30 30 30 30 30 30 30 30 30 30 30 30 30 30 29 29 29 29 29 28 28 28 27 27 27 27 26 26 26 25 25 24 24 24 24 24 24 23 23 23 23 22 22 23 22 22 22 23 23 23 23 23 23 24 25 26 26 26 27 27 27 27 27 26 26 25 25 25 24 24 24 24 24 24 24 23 23 23 22 22 22 22 22 22 22 24 24 24 24 24 23 23 22 22 22 22 22 21 19 19 19 20 19 19 20 22 23 24 24 23 23 23 22 22 21 21 20 20 19 17 15 14 14 13 13 13 14 14 14 15 15 15 15 16 16 16 16 16 14 13 13 14 17 18 19 20 22 23 24 26 28 29 29 28 28 27 27 27 27 27 26 26 26 26 26 24 23 20 19 21 25 25 24 24 24 23 23 22 22 21 21 21 21 21 21 22 24 24 24 24 24 23 23 23 22 22 21 21 22 23 23 24 24 25 24 24 18 10 6 6 6 7 8 12 14 15 19 19 18 18 17 17 17 17 17 17 17 17 16 16 17 17 17 17 17 19 19 19 18 17 16 16 15 16 17 18 18 18 18 17 17 17 17 17 18 19 19 20 20 21 21 21 22 21 21 21 21 21 21 22 22 23 23 23 24 24 24 24 24 24 24 24 24 24 24 24 22 20 16 15 15 16 16 18 19 20 20 20 20 20 20 20 20 20 20 19 18 18 17 17 16 16 16 16 16 16 16 17 17 17 17 17 16 16 16 15 15 14 14 14 14 14 14 14 14 14 14 14 14 14 14 15 17 17 18 18 19 19 19 18 17 17 18 19 21 21 21 21 22 24 24 24 24 22 22 20 18 15 14 13 13 12 12 12 12 12 11 10 7 5 5 6 7 9 9 10 10 10 10 10 10 10 11 11 11 12 12 13 13 13 14 14 15 15 15 14 14 14 14 13 13 13 12 12 12 11 11 9 9 9 9 9 9 9 9 9 10 12 12 13 13 14 14 14 15 15 16 16 17 18 18 17 17 16
19 19 19 19 19 20 22 24 23 23 24 24 25 27 27 29 30 32 33 33 35 36 38 39 39 41 42 44 44 46 49 49 50 50 50 51 51 51 51 49 49 48 47 45 42 41 40 40 40 39 39 39 38 33 33 33 33 32 34 39 43 43 42 40 38 37 35 35 33 32 31 30 30 28 27 27 27 27 27 27 26 26 26 26 28 30 32 31 30 28 26 25 25 25 25 24 24 25 26 26 26 26 27 28 28 28 28 29 29 29 30 30 32 33 36 37 37 36 35 34 33 33 33 33 32 32 32 32 32 33 33 33 35 36 37 38 39 41 43 43 42 42 42 41 40 40 42 42 38 36 36 36 36 36 35 35 34 33 33 32 32 35 36 35 35 35 36 36 36 36 36 37 36 35 36 38 38 39 39 38 36 36 36 36 36 36 36 36 36 36 35 35 35 35 35 35 35 36 36 36 36 36 37 37 36 36 36 36 36 36 36 35 35 35 34 34 34 34 34 34 34 34 34 34 33 33 32 32 32 32 32 32 32 32 32 32 32 32 33 35 36 36 36 37 37 37 37 37 37 37 37 37 36 36 35 33 33 32 32 32 35 37 36 35 35 35 34 34 34 34 34 34 35 35 36 37 37 38 38 40 40 41 43 43 42 42 42 39 39 38 38 38 37 37 36 36 35 35 35 35 36 37 37 36 36 36 35 35 36 36 37 38 38 39 39 39 39 39 39 39 40 42 45 47 48 48 47 47 44 43 42 42 42 42 42 42 42 42 43 44 44 44 42 42 42 43 43 43 43 43 43 43 43 43 42 41 41 40 40 39 39 39 38 38 38 38 38 39 40 40 39 38 37 37 36 36 36 33 33 32 32 31 31 31 31 31 31 31 32 32 32 35 36 35 33 32 32 32 33 34 35 36 36 34 31 31 31 31 33 34 34 35 35 34 34 35 35 34 34 35 35 35 35 35 35 35 35 35 35 35 34 34 34 34 34 34 34 34 34 34 34 34 34 34 35 35 35 35 35 35 35 35 35 35 35 35 34 34 34 34 34 35 35 35 35 35 36 37 37 36 35 35 35 35 35 35 36 36 36 36 36 35 35 35 35 34 34 34 34 34 34 34 34 33 33 33 33 33 33 33 31 31 30 30 30 30 30 30 30 30 30 30 29 29 29 30 30 30 30 29 29 29 29 29 28 28 28 27 27 27 27 27 26 26 25 25 24 24 24 23 23 23 22 21 21 21 22 22 23 23 23 23 25 26 26 26 25 25 26 27 28 28 27 28 29 27 26 26 25 25 25 25 25 24 24 24 24 24 23 23 23 23 23 22 22 22 22 22 22 22 24 24 24 24 24 23 23 23 23 22 22 22 20 19 19 19 20 20 20 20 22 24 24 24 24 24 23 23 23 22 22 21 21 20 18 16 14 14 13 13 13 14 14 14 14 14 15 15 15 15 16 15 15 13 13 13 16 16 18 18 20 21 22 23 25 26 28 28 28 28 27 27 27 26 26 25 25 25 24 24 24 23 19 19 20 24 24 24 24 24 23 23 22 22 21 21 21 21 21 21 22 23 24 24 23 23 23 23 23 21 21 21 21 21 22 23 24 24 26 26 24 18 11 6 6 6 7 7 9 11 15 20 20 18 18 17 17 17 16 16 16 16 16 16 16 16 16 16 17 17 19 19 20 19 18 17 16 15 16 17 18 18 17 17 17 17 17 17 17 18 18 18 19 19 21 21 21 21 21 21 21 21 21 21 22 22 23 23 23 23 23 24 24 24 24 24 24 24 24 24 24 23 21 17 16 16 16 16 17 18 18 19 19 20 20 20 20 20 19 19 19 18 18 17 17 16 16 16 16 16 16 16 17 17 17 17 17 16 16 16 15 15 14 13 13 14 14 13 13 14 14 14 14 14 14 15 16 17 17 18 18 18 18 18 17 17 17 17 17 20 20 21 21 22 24 24 24 24 22 21 18 16 14 13 12 12 12 12 12 12 11 10 9 7 5 5 7 8 9 9 9 9 9 9 9 10 11 11 11 12 12 12 13 14 14 15 15 15 15 15 14 14 14 14 13 13 13 12 12 12 11 11 9 9 9 9 9 9 9 9 10 11 12 12 13 13 13 13 13 13 14 15 15 16 18 18 17 17 16
19 19 19 19 20 23 24 25 26 26 24 25 25 27 27 29 30 32 33 33 35 35 37 39 39 41 42 44 44 46 48 48 49 49 50 51 51 51 51 50 49 49 47 46 43 42 41 41 41 40 40 40 38 34 33 33 32 32 33 37 41 43 42 40 38 37 35 35 33 32 32 30 29 27 27 27 27 27 27 27 26 25 25 26 27 28 29 29 29 27 25 24 24 24 24 24 24 25 26 26 27 27 28 28 28 28 28 29 29 29 30 32 32 34 36 38 38 37 36 35 35 35 35 34 33 32 32 31 31 33 34 36 38 39 40 40 41 42 44 43 43 42 42 42 41 41 40 40 37 36 36 36 36 36 36 36 36 36 35 33 31 32 32 34 34 35 37 37 35 35 35 35 35 35 36 38 38 38 38 37 36 36 36 36 36 36 36 36 36 36 35 35 35 35 35 35 35 35 35 35 35 36 37 37 37 37 36 36 36 36 36 35 35 35 34 34 34 34 34 34 34 34 34 34 32 32 32 32 32 32 32 32 32 32 32 32 32 33 34 36 36 37 37 37 37 38 38 38 38 38 37 37 36 36 36 34 33 32 32 32 35 37 39 38 36 35 35 35 35 35 35 35 35 35 36 36 37 39 40 42 42 42 42 42 43 43 42 39 39 39 39 38 37 37 36 36 36 35 35 36 39 40 40 39 36 36 35 35 36 36 37 38 38 39 39 40 40 40 41 40 40 42 43 46 47 48 47 47 44 44 43 43 43 42 42 42 42 42 44 44 45 45 44 43 42 43 43 44 44 44 43 43 43 43 42 41 41 40 40 39 39 39 38 38 38 39 39 39 39 39 39 38 36 35 36 36 36 33 33 32 32 32 32 31 32 32 32 32 32 33 34 36 38 38 34 32 32 32 34 35 35 36 36 35 34 33 33 33 33 33 34 34 34 35 35 35 35 34 34 34 35 35 35 35 35 35 35 35 35 34 35 35 34 34 34 34 34 34 34 34 34 34 35 35 35 35 35 35 35 35 35 35 35 35 35 35 34 34 34 34 34 35 35 35 35 35 36 36 37 36 36 35 35 35 35 35 36 36 36 36 36 36 35 34 34 34 33 33 33 33 34 34 34 33 33 33 33 33 33 33 32 32 30 30 30 30 30 30 30 30 30 30 29 29 29 30 30 30 30 30 29 29 29 29 29 29 28 27 27 27 27 27 27 27 25 25 24 24 24 23 23 22 22 21 22 23 23 23 24 24 24 25 26 27 27 27 27 28 28 28 29 29 28 29 29 28 27 26 25 25 25 25 25 24 24 24 24 24 23 23 23 23 23 22 22 22 22 22 22 22 24 24 24 24 24 24 24 23 23 23 23 23 22 21 20 20 20 20 20 21 22 24 24 24 23 23 23 23 23 23 23 22 22 22 20 19 16 14 13 13 13 14 14 14 14 14 15 15 15 15 15 15 15 13 13 15 17 17 18 18 19 20 21 23 24 25 26 27 27 27 26 26 26 26 26 25 25 24 24 23 23 23 20 19 20 24 24 24 24 24 23 23 22 22 21 21 21 20 20 21 21 22 24 24 23 23 23 23 23 21 21 21 21 21 22 22 24 24 26 26 25 23 19 13 10 7 7 8 12 18 19 21 20 18 18 17 17 17 16 16 16 16 16 16 16 16 16 16 16 17 19 19 20 19 17 17 16 15 15 16 18 18 17 17 17 17 17 17 17 18 18 18 18 19 21 21 21 21 21 21 21 21 21 21 22 22 23 23 23 23 23 24 24 24 24 24 24 24 24 24 24 23 21 17 16 16 17 17 17 17 18 19 19 19 19 20 20 20 19 19 19 18 18 17 17 16 16 16 16 17 18 18 18 18 18 17 17 16 16 16 14 14 13 13 13 13 13 13 13 13 13 13 14 14 15 16 16 17 17 19 19 18 17 17 17 17 17 17 17 18 20 21 23 23 24 24 24 24 22 20 17 14 14 12 12 12 12 12 11 11 11 9 7 5 5 6 7 8 9 9 9 9 9 8 8 10 11 12 12 12 13 13 14 14 14 15 15 15 15 14 14 14 14 14 13 13 13 12 12 12 11 11 9 9 9 9 9 9 9 10 11 11 12 12 13 13 13 12 12 12 13 14 14 15 17 17 16 16 15
19 19 19 21 24 26 26 27 28 27 27 27 27 27 28 29 30 32 32 32 34 35 37 39 39 41 42 44 44 46 48 48 49 49 50 51 51 51 51 50 49 49 48 47 44 43 42 42 41 41 41 40 38 35 34 34 32 32 32 34 38 40 40 37 36 35 35 34 33 32 32 30 29 26 26 26 27 27 27 26 25 24 24 24 24 25 26 26 27 25 24 24 24 24 24 24 25 26 26 26 27 27 28 28 28 28 28 29 29 30 31 33 33 35 37 39 39 38 38 37 37 37 37 36 35 33 32 31 31 33 36 38 41 42 42 42 42 43 44 44 44 43 42 42 41 41 39 39 37 36 36 36 36 36 37 38 39 39 39 38 33 32 32 34 35 35 35 35 34 34 34 34 34 34 35 36 36 36 37 36 36 36 36 36 36 36 36 36 37 36 35 35 35 35 35 35 35 35 35 35 35 36 37 38 38 37 36 36 36 35 35 34 34 34 34 34 34 34 34 34 34 34 34 33 32 32 32 32 32 32 32 32 32 32 32 32 33 33 35 36 36 37 37 38 38 38 38 38 38 38 38 38 36 36 36 34 33 33 32 32 32 35 37 40 39 36 35 35 35 35 35 35 35 35 36 36 37 39 40 43 44 43 42 42 42 42 42 39 39 39 39 38 37 37 36 36 37 37 37 39 42 44 42 40 37 36 35 35 36 36 38 39 39 40 40 40 41 43 43 41 41 42 42 45 47 48 47 47 45 45 44 43 43 42 42 42 42 43 44 45 46 46 45 44 44 44 44 44 44 44 44 44 44 44 42 42 41 39 39 38 38 38 38 40 41 40 40 39 37 36 36 35 35 35 35 35 34 33 33 31 31 31 31 31 32 32 33 33 33 35 35 37 38 38 35 33 33 33 35 35 36 37 38 37 37 36 35 35 34 33 34 34 34 35 35 35 35 34 34 34 35 35 34 35 35 35 35 35 35 34 35 35 35 35 34 34 34 34 34 34 35 35 35 35 35 35 35 35 35 35 35 35 35 35 35 35 34 34 34 34 34 35 35 35 36 36 36 36 36 36 36 35 35 35 35 35 35 35 35 35 35 35 35 34 34 33 33 33 33 33 33 33 33 33 33 33 33 33 33 33 32 32 30 30 30 30 30 30 30 30 30 30 29 29 29 30 30 30 30 30 29 29 29 29 29 29 28 28 28 27 27 27 27 27 26 26 24 23 23 23 23 23 23 22 24 25 25 25 26 26 25 26 27 28 28 29 29 29 29 29 29 29 29 28 28 27 27 26 26 26 25 25 25 24 24 24 24 24 23 23 23 23 23 23 24 24 23 23 24 24 24 24 24 24 24 23 24 24 24 24 24 24 23 23 21 20 20 20 21 22 23 24 24 24 23 23 23 23 23 23 23 23 23 23 22 21 18 15 13 13 13 13 13 13 14 14 14 14 14 14 14 15 15 14 14 15 16 17 17 18 19 19 20 23 23 25 25 26 26 26 26 25 25 26 25 24 24 23 23 22 22 22 20 20 21 23 24 24 24 23 23 23 22 22 21 21 21 20 20 20 20 22 24 24 23 23 23 23 23 22 21 20 20 20 21 22 23 24 26 27 27 27 25 22 18 14 13 13 17 20 21 21 20 18 18 18 17 17 16 16 16 16 16 16 16 16 16 16 16 17 19 19 20 18 17 16 15 15 15 16 17 17 17 17 17 16 16 17 17 17 17 17 17 18 19 20 20 20 20 20 20 20 21 21 22 22 23 23 23 23 23 24 24 24 23 23 23 23 23 23 23 22 19 16 16 16 17 17 17 17 18 19 19 19 19 20 20 20 20 20 19 18 18 17 17 16 16 18 19 20 21 21 21 21 20 19 18 18 17 16 14 14 13 12 12 12 12 13 13 13 13 13 14 15 16 16 17 18 18 18 18 17 17 17 16 16 17 17 17 19 22 23 24 24 24 24 24 23 22 18 15 13 13 12 12 12 12 12 11 11 10 8 7 4 4 6 7 9 9 9 8 8 8 8 8 10 11 11 12 12 13 13 14 14 14 14 14 14 14 14 14 14 14 14 13 13 13 12 12 11 11 11 9 9 9 9 9 10 10 11 11 12 12 12 12 12 12 12 11 11 11 12 13 14 16 16 16 16 15
