ncols         789
nrows         31
xllcorner     -72.7545655556
yllcorner     42.50939
cellsize      1.0E-5
NODATA_value  -9999
161 157 155 154 152 152 152 153 153 153 154 155 157 165 177 190 203 216 227 237 246 255 264 274 284 294 304 313 321 327 329 328 325 322 318 317 317 318 317 315 311 311 315 319 323 325 326 326 325 322 317 317 319 323 326 328 331 334 336 336 335 334 334 336 339 340 341 342 343 342 340 340 342 346 348 350 351 351 354 358 359 360 360 360 360 360 360 361 361 361 361 360 357 352 346 338 329 324 320 317 313 310 308 307 307 307 308 308 303 298 297 299 301 299 298 295 292 290 285 282 279 276 276 279 281 281 282 284 288 291 294 297 300 300 304 308 313 316 317 313 307 301 296 290 283 275 268 265 262 263 266 272 279 285 290 296 299 296 292 292 294 294 290 287 284 280 274 269 265 264 265 266 265 263 259 257 253 251 251 252 252 253 256 262 269 277 284 289 290 291 292 290 289 286 285 282 281 280 278 275 273 271 267 260 251 244 235 229 225 225 227 228 225 222 218 214 209 207 206 206 208 212 212 209 204 198 190 180 170 164 161 159 156 154 149 145 143 141 141 141 142 142 139 135 129 125 123 118 112 107 104 98 93 88 86 87 92 98 109 118 124 131 144 157 170 179 181 185 195 212 232 235 234 231 228 222 215 210 205 200 194 190 186 181 166 149 142 142 140 139 142 149 162 170 169 173 181 189 198 203 206 205 198 190 184 184 185 186 191 191 186 176 174 180 180 173 172 175 183 188 189 189 188 184 180 173 168 165 162 158 154 155 156 155 160 166 172 179 188 195 198 200 203 205 210 212 207 205 214 222 221 220 220 218 217 217 215 215 215 215 216 219 222 222 223 223 223 221 220 216 214 211 207 202 198 196 195 195 193 193 192 194 193 191 187 182 177 173 167 161 157 154 151 149 144 142 140 137 134 133 130 129 128 127 124 120 120 120 120 120 120 120 119 119 117 117 117 116 116 116 115 115 114 113 113 112 112 112 111 111 111 110 110 109 109 109 108 108 108 108 107 107 107 107 107 107 107 108 108 108 109 108 108 108 108 108 107 107 107 107 107 107 107 107 108 108 108 105 103 103 104 103 103 101 100 99 98 95 92 89 88 86 86 86 86 88 97 103 106 108 108 108 108 108 108 110 114 117 118 117 118 118 118 120 120 121 123 123 123 126 129 131 130 128 126 125 124 124 124 123 121 119 116 115 116 117 116 114 111 110 108 108 110 113 114 114 113 113 115 123 133 140 142 134 126 119 112 110 110 112 118 125 127 125 122 120 120 119 115 110 107 104 102 101 100 100 99 97 97 95 93 90 90 92 94 96 97 97 100 102 103 103 102 96 90 89 89 89 89 91 91 92 92 92 93 93 93 93 93 93 95 95 95 97 97 98 99 99 102 105 108 112 116 117 114 110 107 105 104 101 97 94 90 86 83 83 83 82 81 81 81 80 80 80 79 79 79 79 79 78 78 78 78 78 78 78 78 78 78 78 78 78 78 78 78 78 78 78 77 77 77 76 76 76 75 75 74 73 73 71 69 65 64 64 64 63 63 62 61 61 61 60 60 59 59 56 54 54 54 54 54 54 54 54 57 58 58 66 72 74 79 83 85 88 89 90 90 90 89 90 90 91 91 90 90 90 90 91 95 98 102 105 108 111 114 118 121 124 127 129 133 139 145 150 154 159 167 174 182 190 199 208 218 229 241 252 260 268 274 281 286 291 298 301 302 302 302 296 291 288 285 284 283 284 285 286 288 290 292 293 296 298 300 302 305 308 310 311 313 314 317 321 324 328 333 337 343 350 359
161 158 155 154 152 152 153 155 156 154 154 156 159 166 178 191 204 217 229 239 248 257 266 275 285 295 305 314 321 325 327 327 324 322 318 316 316 317 316 313 309 307 309 312 316 319 320 320 318 316 315 317 321 324 327 331 334 337 338 338 338 338 338 340 342 342 343 345 346 345 344 343 343 346 347 347 347 348 351 355 356 357 357 357 357 359 360 360 360 360 359 359 355 350 342 334 325 321 317 313 311 310 309 308 308 309 310 311 307 300 297 297 299 299 298 294 291 288 284 280 276 274 273 276 277 277 278 281 286 290 294 297 300 300 302 306 310 313 313 311 306 302 297 290 283 275 269 265 265 267 270 275 281 287 293 300 302 299 294 293 295 294 291 288 286 281 275 269 264 263 264 265 263 259 257 255 252 250 250 250 249 249 252 258 265 272 280 284 286 287 288 286 283 282 281 279 279 278 274 271 269 266 262 256 250 244 237 231 229 230 230 229 226 223 219 214 210 206 204 205 207 211 212 211 207 201 192 183 174 167 163 162 161 158 153 149 146 144 142 141 141 140 139 137 132 128 124 120 113 109 107 103 97 92 89 88 88 92 102 113 121 132 146 160 172 179 177 181 192 209 228 234 234 231 227 221 215 210 206 201 195 191 186 183 173 155 144 142 141 139 139 141 150 162 165 168 177 185 193 198 200 198 193 185 177 179 181 182 186 187 183 173 168 172 172 166 166 173 182 187 187 186 184 180 174 168 164 161 161 158 151 150 151 155 160 164 170 178 188 195 197 199 201 203 206 208 204 204 215 225 222 220 220 218 217 217 215 215 215 215 216 219 221 221 222 223 222 219 216 212 210 208 204 200 198 196 195 195 195 194 191 190 190 190 187 183 179 174 170 164 160 157 153 150 146 141 140 137 136 135 134 133 132 130 126 122 119 119 119 119 119 119 118 118 117 116 116 116 115 115 114 114 114 113 113 113 113 113 112 111 111 110 110 109 109 109 108 108 108 107 107 107 107 107 107 107 107 108 108 108 108 108 108 107 107 107 107 107 107 107 107 107 107 107 108 108 108 105 102 100 100 100 101 101 101 100 99 97 94 90 88 87 86 86 86 88 95 101 104 107 108 108 108 108 108 109 114 118 120 120 119 119 119 120 120 121 121 122 123 125 127 128 127 124 120 118 118 119 119 117 116 114 112 115 117 116 115 113 111 109 107 108 111 113 114 114 112 112 115 124 133 140 140 132 124 116 110 110 110 114 122 127 127 125 123 122 122 121 116 111 107 104 102 101 99 99 99 97 97 96 94 90 89 91 91 93 94 96 100 102 103 103 102 98 92 89 89 89 89 91 91 91 91 92 92 93 93 93 93 93 94 94 95 97 97 98 98 99 102 106 110 115 119 119 115 111 108 105 103 100 97 93 89 85 83 82 82 82 81 81 81 80 80 80 80 80 79 79 79 78 78 78 78 78 78 78 78 78 78 78 78 78 78 78 78 78 78 78 77 77 77 76 76 76 74 74 74 73 73 70 67 65 64 64 64 63 63 62 61 61 61 60 60 60 59 58 54 54 54 54 54 54 54 54 54 57 58 66 72 74 79 83 85 87 88 89 89 89 89 89 89 90 90 91 90 90 90 92 95 100 103 106 109 112 116 120 123 126 129 132 136 141 148 154 157 161 169 176 184 192 202 211 222 233 245 256 264 272 277 283 289 293 299 302 302 302 298 292 287 285 284 283 281 282 285 287 289 292 294 297 300 302 303 305 308 310 312 314 316 317 319 322 327 331 335 339 344 350 359
161 158 156 154 152 153 155 156 156 155 155 157 160 167 178 191 204 217 230 239 249 258 266 276 286 295 305 313 319 324 326 327 326 323 319 315 315 316 316 313 307 302 303 306 309 312 313 313 311 311 314 318 322 325 330 334 338 340 341 341 342 342 343 343 343 344 345 347 347 346 346 345 346 348 348 347 347 348 350 352 353 354 354 355 355 355 358 359 359 358 358 356 352 346 338 330 323 319 315 312 311 310 310 309 309 309 310 311 308 302 297 297 299 300 298 294 290 287 283 279 275 273 272 275 276 276 275 279 284 290 294 298 300 300 300 304 308 311 312 310 305 300 296 290 284 275 270 268 268 271 275 279 284 291 297 304 305 301 296 294 295 294 291 289 286 281 275 269 264 263 263 263 262 258 256 255 251 250 250 248 245 244 248 254 261 267 274 278 280 281 280 279 277 277 276 275 276 275 272 269 266 262 259 255 249 244 238 233 231 231 230 229 226 223 219 215 211 206 204 204 206 211 213 213 210 203 195 186 178 170 165 164 163 161 157 153 150 146 142 140 140 140 139 137 134 130 126 121 114 110 108 106 101 95 92 89 86 88 97 109 121 135 150 162 173 179 176 178 190 206 222 230 229 226 223 218 214 209 206 201 196 192 187 184 179 163 149 144 142 140 135 131 136 151 161 164 171 179 187 193 195 193 189 180 172 174 175 177 181 183 179 169 160 164 164 161 164 171 179 184 185 183 180 175 169 164 159 157 159 156 150 148 151 155 160 163 169 177 187 194 196 197 199 202 203 204 201 204 216 226 223 220 220 218 217 217 215 215 215 215 216 218 220 220 222 222 221 217 213 208 206 204 202 199 197 196 195 195 196 195 191 189 189 189 186 184 180 175 171 166 162 158 155 151 149 146 144 142 140 139 138 136 134 132 127 122 119 119 119 119 119 118 118 118 116 116 116 115 115 115 114 114 114 113 113 113 114 114 112 111 111 110 110 109 109 109 108 108 108 107 107 107 107 107 108 107 107 107 107 107 108 108 108 107 107 107 107 107 107 107 107 107 108 108 109 108 108 106 102 100 100 100 100 102 102 101 100 98 95 92 91 88 87 86 86 87 93 99 103 107 108 108 108 108 108 109 113 118 121 121 120 119 118 119 120 120 120 120 121 123 123 124 122 119 115 113 113 114 115 113 112 112 112 115 118 116 114 113 110 108 106 108 112 113 113 113 111 110 115 124 134 140 137 130 122 115 110 110 111 116 124 128 128 125 124 123 124 122 117 111 107 103 102 101 99 99 98 97 96 96 93 89 88 89 90 92 94 96 99 101 102 102 101 98 95 90 89 89 89 90 90 91 91 91 92 93 93 93 93 93 94 94 95 97 97 97 98 99 102 107 111 116 120 120 115 112 108 104 102 100 96 92 88 84 83 82 82 82 81 81 81 81 81 80 80 80 79 79 79 78 78 78 78 78 78 78 78 78 78 78 78 78 78 78 78 78 78 78 78 77 77 76 76 76 74 74 74 73 73 70 66 65 64 64 64 63 63 62 62 62 61 61 61 60 59 59 56 54 54 54 54 54 54 54 54 56 58 66 72 75 80 83 85 87 87 88 88 88 88 89 89 90 90 91 91 90 90 92 95 101 104 107 110 114 117 121 124 127 130 133 137 142 149 155 159 163 170 177 185 195 205 214 224 236 248 259 269 276 281 287 291 295 300 303 303 300 293 288 285 283 282 280 279 281 285 289 293 296 298 301 304 306 306 308 310 313 315 317 319 320 322 324 328 332 336 340 345 350 359
164 160 156 154 153 154 156 155 155 155 157 157 161 167 178 190 203 217 230 239 249 258 266 276 287 296 304 310 316 320 326 327 326 323 318 313 312 315 315 310 303 297 298 301 304 306 306 305 305 308 313 319 323 328 333 337 341 343 345 346 346 346 346 347 347 347 348 348 348 347 347 346 348 349 349 349 349 349 350 351 351 351 351 351 351 351 354 356 357 355 354 352 347 341 334 327 322 318 315 313 313 312 311 310 311 311 311 310 308 304 300 298 299 300 299 294 290 287 282 278 274 272 272 275 276 276 274 276 280 288 294 298 299 298 297 300 304 308 310 308 304 300 295 289 283 275 271 270 272 275 278 283 288 295 302 307 307 303 299 297 295 294 291 288 284 280 275 269 265 263 262 261 260 258 256 254 252 251 250 246 242 241 243 248 254 261 268 272 273 273 273 272 272 272 271 271 272 272 270 268 265 261 258 254 249 244 239 236 234 232 231 229 226 223 220 217 213 209 206 204 206 209 213 213 211 205 197 188 179 172 167 165 164 164 160 155 151 147 142 140 139 139 139 137 135 131 127 122 116 112 110 108 102 96 94 90 86 87 92 106 122 137 151 163 173 176 172 175 187 202 217 223 221 217 216 214 210 207 206 202 197 192 188 185 180 171 160 152 146 141 134 124 123 136 152 160 166 172 180 187 189 188 185 175 167 168 170 173 176 176 172 164 154 156 156 156 163 168 174 180 181 179 175 170 165 161 156 154 156 154 148 147 151 155 158 162 169 176 185 193 194 196 197 199 200 199 198 203 215 225 223 220 220 218 217 217 215 215 215 215 215 216 219 220 222 221 220 216 212 208 203 201 200 198 197 196 195 195 195 194 191 189 189 188 185 183 180 175 172 167 163 159 155 154 153 152 150 147 145 144 141 139 137 133 128 122 119 119 119 118 118 118 117 117 116 116 116 115 115 115 114 114 114 113 113 113 114 114 112 111 111 110 110 109 108 108 108 108 108 107 107 107 107 107 108 107 107 107 107 107 107 108 108 107 107 107 107 107 107 107 107 107 108 108 109 108 108 106 103 100 100 100 100 101 101 101 100 98 95 94 94 90 87 86 86 86 90 96 102 107 108 108 108 108 108 109 112 117 121 121 120 118 115 116 119 120 120 120 120 120 120 119 117 115 113 111 111 111 112 111 111 111 111 113 115 115 114 112 109 107 106 109 112 113 112 110 108 109 115 124 134 140 135 127 120 113 109 109 111 118 126 130 129 125 124 125 126 123 118 111 107 103 102 101 99 99 98 96 96 93 89 89 88 89 89 92 94 95 98 100 101 102 101 98 96 91 89 89 89 90 90 90 91 91 92 93 93 93 93 93 94 94 95 96 96 97 97 99 102 107 112 117 121 120 115 111 107 104 101 99 95 91 86 83 83 82 82 82 81 81 81 81 81 81 80 80 80 79 79 78 78 78 78 78 78 78 78 78 78 78 78 78 78 78 78 78 78 78 78 77 77 76 76 76 74 74 74 72 72 69 65 65 64 64 64 63 63 62 62 62 61 61 61 60 60 60 57 54 54 54 54 54 54 54 54 54 58 66 72 75 80 83 84 86 86 87 87 87 88 88 88 90 90 91 92 92 92 94 96 101 105 108 111 115 119 122 125 128 131 134 138 143 149 156 160 165 171 178 187 197 208 217 227 239 251 262 271 278 284 290 295 298 302 303 303 298 291 286 283 281 278 276 275 280 287 293 299 302 304 306 308 309 310 311 313 315 317 320 323 324 326 327 330 333 337 341 346 350 357
165 163 159 156 155 156 156 154 154 155 157 157 160 165 175 187 200 215 228 239 249 259 268 278 288 296 304 309 313 317 323 326 326 321 315 309 308 311 309 305 297 292 293 296 298 299 299 299 301 307 314 321 327 332 337 341 344 347 349 351 352 350 350 350 351 351 352 349 348 347 346 347 348 348 350 351 353 353 354 355 353 350 350 350 349 348 349 351 352 351 350 347 341 335 329 323 320 319 319 317 317 316 315 314 315 315 314 312 310 307 303 300 299 299 296 293 290 287 282 277 274 273 273 274 275 275 273 273 276 284 290 294 295 295 295 296 300 304 306 305 303 298 293 288 282 275 272 273 275 277 281 287 294 302 308 312 311 307 302 300 297 294 290 286 283 279 274 269 266 264 261 259 259 259 257 254 252 251 248 244 240 239 240 243 248 254 261 265 265 266 266 267 267 267 267 267 268 268 267 266 264 260 257 252 247 243 240 238 236 234 232 230 228 225 222 219 215 212 209 206 206 206 209 210 208 204 197 189 180 173 168 166 164 164 160 155 151 147 145 142 139 139 138 138 136 134 130 125 120 115 112 108 103 97 94 91 86 87 90 104 123 137 152 164 172 172 168 171 183 196 209 216 213 208 207 206 203 205 206 202 197 193 189 185 182 177 171 164 156 147 137 123 116 124 143 156 161 166 172 179 181 181 177 170 163 163 166 169 171 170 166 158 148 149 150 154 161 165 169 173 174 173 169 166 163 159 153 151 152 150 144 145 149 154 158 163 168 174 184 191 192 193 194 197 197 195 195 202 213 223 223 221 220 219 217 217 215 215 215 215 215 216 219 220 221 221 219 216 212 208 202 198 197 196 195 194 194 193 193 192 189 187 187 187 185 182 178 175 172 167 163 160 158 158 159 158 155 151 148 146 143 140 138 133 128 121 118 117 118 118 118 117 116 116 115 115 115 115 115 115 114 114 113 113 113 113 114 114 112 111 111 109 109 109 108 108 108 108 108 107 107 107 107 107 108 107 107 107 107 107 107 107 107 107 107 107 107 107 107 107 107 108 108 109 109 108 108 106 104 101 100 100 100 100 100 100 100 98 96 96 95 91 87 86 86 86 88 93 102 107 108 108 108 108 108 109 112 117 121 121 119 116 113 114 117 118 117 116 118 118 117 116 115 114 112 110 110 109 109 109 109 109 109 111 113 113 113 111 108 107 106 108 111 111 110 108 107 109 114 124 134 139 132 125 117 111 109 108 112 121 129 132 129 125 125 127 128 124 118 110 107 103 101 101 99 99 98 96 94 90 89 89 88 89 89 90 90 93 98 100 101 101 100 98 96 93 89 89 89 90 90 90 91 91 91 93 93 92 92 92 93 94 95 95 95 95 96 98 103 108 113 118 121 119 114 109 105 102 100 97 94 89 85 82 82 81 81 82 81 81 81 81 81 81 81 81 81 81 81 80 79 78 78 78 78 78 78 78 78 78 78 78 78 78 78 78 78 78 78 77 77 76 76 75 74 74 73 72 71 67 65 65 64 63 63 63 63 62 61 61 61 61 61 60 60 60 59 56 54 54 54 54 54 54 54 54 59 69 73 76 80 83 84 85 86 85 85 86 87 88 88 90 90 92 93 94 95 98 99 102 105 109 113 117 121 124 127 129 132 135 139 144 150 157 161 166 173 180 188 199 210 219 229 240 253 264 273 280 287 294 298 302 304 303 302 297 290 285 282 278 274 271 273 280 289 297 303 306 309 311 312 313 314 314 315 317 320 323 326 328 330 331 333 335 338 341 346 350 355
166 165 163 160 159 158 157 154 154 155 156 157 159 164 172 183 196 211 225 237 249 260 269 279 289 298 306 309 312 316 320 323 323 318 311 305 304 304 302 297 291 287 288 291 292 292 292 294 298 306 315 323 331 337 341 344 347 351 354 357 358 356 354 355 356 356 354 351 348 347 346 346 346 348 350 352 355 357 358 358 355 351 350 350 348 347 347 346 346 346 344 339 334 330 325 322 321 322 322 321 320 319 318 318 319 318 318 316 312 309 306 302 299 296 293 291 289 286 281 277 275 274 274 274 275 275 275 273 274 279 286 289 290 291 291 291 293 298 301 301 300 298 293 287 281 276 276 277 278 280 285 292 300 308 313 317 316 311 305 302 300 295 290 286 283 278 274 271 268 264 260 259 259 259 256 254 251 248 246 242 239 238 239 241 245 249 255 258 259 260 261 261 262 262 263 263 263 263 264 264 263 260 255 250 245 242 239 238 237 235 234 232 230 226 223 220 216 214 210 207 205 205 205 206 205 202 197 190 181 174 169 166 164 162 158 154 150 147 146 143 141 139 139 140 140 138 134 129 124 118 113 108 103 97 93 90 86 86 89 100 119 137 152 164 171 170 164 166 177 190 201 209 205 199 198 197 196 203 207 202 197 193 190 186 183 180 174 169 161 152 143 129 118 117 130 148 157 158 164 170 174 175 172 166 161 160 163 165 166 164 159 153 143 142 145 153 159 161 164 166 167 167 165 163 161 157 152 148 148 145 142 144 149 154 159 162 167 174 182 189 190 191 191 195 194 191 194 201 212 222 223 222 221 219 217 217 215 215 215 215 216 217 219 220 220 220 219 216 212 208 201 196 193 194 193 193 193 193 192 191 188 186 186 186 184 181 177 174 171 167 162 160 162 166 168 164 158 154 150 147 144 141 138 133 127 120 117 117 117 117 117 117 115 115 114 114 114 115 115 115 114 114 113 113 113 113 114 114 112 111 111 109 109 109 108 108 108 108 108 107 107 107 108 108 108 107 107 107 107 107 107 107 107 107 107 107 107 107 107 107 107 108 109 109 109 108 108 106 104 101 100 100 100 100 100 99 99 98 98 97 97 94 90 87 86 86 87 91 101 107 108 108 108 108 108 109 111 116 119 119 117 114 112 113 114 114 113 114 116 116 116 115 113 112 111 109 109 108 108 108 108 108 108 109 111 112 111 110 108 107 107 107 109 109 108 107 107 109 114 124 133 135 130 123 115 110 107 108 113 123 130 132 129 125 125 129 131 125 118 110 107 103 101 101 99 99 98 95 94 89 89 89 89 89 89 89 89 92 97 100 101 100 100 98 97 95 91 89 89 89 89 90 91 91 91 92 92 92 92 92 93 93 94 95 94 93 94 97 104 109 115 119 121 118 112 107 103 100 98 96 92 87 83 81 81 81 81 81 81 81 81 81 81 82 82 82 82 82 82 81 80 79 79 78 78 78 78 78 78 78 78 78 78 78 78 78 78 78 78 77 77 76 76 75 74 74 73 72 70 65 65 65 64 63 63 63 63 62 61 61 61 61 61 60 60 60 59 57 54 54 54 54 54 54 54 54 63 71 74 76 81 83 84 85 85 84 84 85 87 88 88 90 91 94 94 95 98 101 103 106 108 110 114 118 122 126 128 130 133 137 140 145 151 158 162 168 175 182 190 201 211 221 230 241 254 265 274 282 289 297 301 304 305 303 302 296 288 283 278 273 268 266 271 279 289 297 304 308 311 313 315 316 317 317 318 320 322 325 328 331 333 334 335 336 338 341 345 348 352
169 167 166 164 161 159 156 154 154 155 156 156 158 162 170 180 192 207 221 233 247 259 269 279 289 300 307 311 312 314 317 320 319 314 306 301 299 297 294 289 283 280 281 283 284 285 287 290 298 308 318 327 335 341 345 348 352 355 359 362 363 362 361 362 361 361 358 355 351 348 346 346 346 347 349 352 356 358 358 358 356 353 351 350 349 348 347 344 343 341 338 332 328 326 325 323 324 325 325 324 323 323 322 321 320 320 319 318 315 311 307 303 298 293 291 290 288 284 279 277 275 274 275 277 278 279 279 276 273 275 280 284 286 287 286 285 286 290 294 297 297 296 292 286 281 279 280 281 282 283 287 295 305 313 318 321 319 313 307 304 301 296 290 286 283 280 277 274 271 267 264 262 259 257 254 251 249 246 243 241 239 238 239 241 245 247 251 253 254 254 253 253 254 256 256 257 257 258 260 261 261 259 255 250 244 240 238 236 235 234 234 233 230 227 223 220 217 214 210 206 205 204 204 204 203 200 196 190 183 175 170 166 164 162 158 154 151 148 146 143 141 140 140 142 143 142 138 134 127 120 114 108 100 93 89 87 86 86 88 100 119 138 153 165 170 167 161 161 172 184 194 201 198 192 190 189 191 202 207 202 197 194 190 187 184 181 175 169 160 149 140 134 121 116 121 136 150 151 157 165 169 170 167 163 159 156 159 161 160 158 153 147 139 137 144 150 155 157 159 161 162 163 163 161 158 154 150 146 143 140 140 144 150 154 158 161 165 171 179 186 187 188 189 191 190 191 193 200 211 221 224 224 222 220 218 216 215 215 215 216 216 217 219 219 219 218 217 216 212 208 201 196 191 191 191 191 192 192 191 190 186 184 184 184 181 178 176 173 170 167 163 162 166 173 177 172 163 157 152 149 145 141 136 132 126 119 116 115 116 116 116 116 115 115 114 114 114 114 114 114 113 113 113 113 113 113 114 114 112 111 110 108 108 108 108 108 108 108 108 107 107 107 108 108 108 108 108 107 107 107 107 107 107 108 108 108 107 107 107 107 107 108 109 109 109 108 108 106 104 101 100 100 100 100 100 100 100 99 99 100 100 98 94 91 87 85 85 90 98 106 108 108 108 108 108 109 111 114 115 116 115 113 112 112 112 112 112 113 115 115 114 113 112 110 109 108 108 108 108 107 107 107 107 107 108 109 109 108 107 106 106 107 107 107 107 106 106 108 114 124 132 134 128 120 114 109 107 109 115 124 131 132 128 124 126 132 133 126 117 110 106 104 102 101 100 99 98 96 94 90 90 90 89 89 89 88 89 91 94 98 99 100 99 98 97 96 92 89 89 89 89 90 91 91 91 92 92 92 92 92 93 93 94 94 93 93 94 97 104 110 117 121 121 117 109 104 101 99 96 94 89 85 82 81 81 81 81 81 82 82 83 82 83 83 84 85 85 85 84 83 82 81 80 79 78 78 78 78 78 78 78 78 78 77 77 77 78 78 77 77 77 76 75 74 73 73 72 70 67 65 64 64 64 63 63 62 62 62 61 61 61 61 61 60 60 60 60 60 56 54 54 54 54 54 54 55 66 73 75 77 81 83 84 84 84 84 84 85 88 89 90 91 93 95 96 97 100 103 107 109 112 113 115 119 123 127 129 131 134 137 141 145 152 158 163 170 176 184 192 202 213 222 231 241 255 266 276 285 292 300 304 307 306 304 300 293 286 279 272 267 263 263 268 276 288 297 305 309 312 315 317 319 320 321 322 324 325 327 330 334 336 337 338 338 339 341 344 346 349
171 168 166 165 161 158 155 154 154 154 156 156 157 161 168 176 188 202 216 229 243 257 269 279 290 300 307 312 313 314 314 315 312 307 302 298 294 291 286 281 275 272 274 276 278 280 285 289 298 310 322 331 340 346 350 354 357 360 363 367 368 367 367 367 366 365 362 359 355 352 350 349 346 347 348 352 355 357 357 357 356 354 352 351 349 349 347 345 343 340 335 328 324 325 326 326 327 327 326 325 325 325 324 322 320 320 319 318 316 311 307 304 299 293 291 290 288 283 278 276 275 277 279 281 282 283 282 279 274 273 276 280 283 283 280 278 279 283 288 292 293 293 291 286 281 280 282 284 284 286 291 299 309 317 321 323 320 314 308 306 302 297 290 286 284 282 281 277 273 271 269 265 260 256 253 249 248 246 244 242 239 238 240 243 245 246 247 249 248 246 245 245 246 248 248 250 250 251 254 257 258 257 253 249 244 240 237 234 233 233 234 234 230 226 222 218 216 213 209 206 204 203 201 201 201 200 195 190 183 175 170 167 166 166 162 157 152 150 147 143 140 140 141 142 143 142 139 135 127 121 113 105 96 88 85 85 86 87 90 103 122 140 157 167 169 164 158 159 167 177 189 195 191 186 185 184 190 203 208 203 198 194 190 188 184 181 174 166 159 148 134 128 121 115 114 123 137 144 152 159 164 166 164 161 156 152 154 155 153 150 145 140 135 133 142 147 151 153 155 155 157 161 162 159 155 152 149 145 141 137 139 144 148 153 158 161 163 168 177 183 186 186 186 187 188 191 193 199 210 221 224 226 223 220 218 216 216 216 216 216 216 217 218 218 218 217 216 215 212 208 202 196 191 191 191 191 190 190 189 186 184 183 181 180 179 176 174 172 169 166 166 164 168 176 182 178 167 159 153 151 146 140 136 131 127 120 115 114 115 116 116 116 115 115 114 114 114 114 114 114 113 113 113 113 113 113 114 114 112 110 109 108 108 108 108 108 108 107 107 107 107 107 108 109 109 108 108 108 107 107 107 107 107 108 108 108 107 107 107 108 108 109 110 110 109 108 108 107 104 102 100 100 100 100 100 100 100 100 101 103 104 103 101 95 87 81 83 89 97 105 108 108 107 107 107 109 110 112 113 113 113 112 111 111 111 111 112 112 114 114 113 111 110 109 108 108 108 108 108 107 107 107 107 107 107 107 107 107 106 106 106 106 106 106 106 106 106 108 114 125 132 133 126 117 112 108 107 110 116 125 132 132 127 124 128 133 134 126 117 109 106 104 103 102 101 100 98 97 95 91 90 91 92 90 89 88 88 88 93 96 98 99 99 98 97 96 92 89 89 89 89 90 91 91 91 92 92 92 92 92 93 93 93 93 93 93 93 97 104 110 118 122 121 116 107 101 98 96 94 91 87 83 81 81 81 81 82 82 83 84 84 84 85 86 87 89 89 89 88 87 85 83 81 80 79 78 78 78 79 81 81 80 78 77 77 77 78 78 77 76 76 75 75 74 73 73 71 68 65 65 64 64 64 63 63 62 62 62 61 61 61 61 61 60 60 60 60 60 57 54 54 54 54 54 54 56 69 75 75 77 81 83 84 84 84 84 84 87 89 91 94 94 94 95 97 99 102 105 109 112 115 117 117 119 123 127 129 132 135 137 141 146 153 159 165 171 178 185 194 203 213 223 231 241 256 267 277 287 295 303 307 308 307 304 299 290 282 274 266 261 258 260 264 272 285 297 305 310 313 317 319 322 323 325 326 328 329 331 333 336 338 340 340 340 340 341 343 345 346
172 168 166 164 162 158 155 154 154 154 154 154 155 159 164 172 183 197 211 224 239 253 266 277 287 297 305 311 313 312 311 310 307 302 298 294 289 284 278 272 267 265 268 270 273 278 285 289 300 312 325 336 344 351 355 359 362 364 367 371 372 372 372 372 371 369 366 363 360 356 354 353 349 347 348 351 354 355 356 356 356 355 352 350 349 347 346 345 343 340 334 328 324 325 327 328 329 329 329 328 327 326 325 323 320 320 318 316 315 311 307 305 300 294 291 290 287 282 278 276 277 281 284 285 285 286 285 282 278 275 275 276 279 278 275 273 274 278 283 287 290 290 288 283 280 280 283 285 285 288 293 301 311 319 323 324 321 316 311 307 303 297 291 286 285 284 284 280 276 273 270 265 260 255 252 249 248 249 247 244 241 240 241 243 244 243 244 245 243 239 236 236 237 238 240 242 244 246 249 253 255 254 251 247 243 240 236 233 233 233 234 234 231 226 220 216 213 211 208 207 205 201 198 198 198 197 194 188 180 172 167 167 168 168 164 158 153 151 149 145 142 140 141 141 141 141 138 133 126 118 110 101 93 87 83 83 84 87 94 107 124 142 158 168 168 161 155 157 162 172 184 188 183 179 178 179 188 202 206 203 198 194 191 188 184 182 174 163 158 150 137 126 120 114 109 115 126 137 147 155 161 162 161 158 152 145 144 145 145 141 138 135 129 128 138 144 146 147 149 151 154 158 158 155 153 150 147 145 140 136 137 141 146 152 156 158 161 166 173 179 182 183 183 184 187 191 193 198 209 219 222 227 225 220 217 216 215 215 215 216 216 216 217 217 217 216 215 213 211 208 202 197 192 190 190 189 188 187 186 185 184 182 181 179 178 176 174 173 172 170 168 166 168 176 183 180 169 161 154 152 146 140 136 132 128 121 114 114 114 115 115 115 114 114 113 113 113 113 113 113 113 113 112 112 112 113 114 114 112 110 109 108 108 108 108 108 107 107 107 107 109 111 111 110 110 108 108 108 107 107 107 108 108 108 108 108 108 108 108 108 109 110 111 111 110 109 109 107 105 102 101 103 104 104 104 104 103 102 105 107 109 110 107 99 86 80 82 89 97 104 107 107 107 106 107 109 110 111 111 111 111 111 111 111 111 111 112 112 113 113 112 110 109 108 108 108 108 109 110 110 110 109 108 107 107 107 106 106 106 106 105 105 105 105 105 105 106 108 114 125 132 131 124 115 110 107 106 110 117 126 132 131 126 124 130 134 134 125 116 110 107 105 104 103 101 100 99 97 95 92 90 94 94 91 89 88 88 88 92 95 97 98 98 97 97 96 92 89 89 89 89 90 90 90 91 91 91 91 92 92 93 93 93 93 93 92 92 96 103 111 119 123 121 114 106 100 97 94 91 88 84 82 81 81 81 82 84 85 86 87 87 87 87 88 90 92 93 93 92 91 89 87 84 83 81 80 80 82 83 84 84 82 80 77 77 77 78 78 77 76 76 75 75 74 72 72 69 66 65 64 64 64 63 63 63 62 62 62 62 62 61 61 61 60 60 60 60 60 57 54 54 54 54 54 54 56 70 76 76 77 81 83 84 84 84 84 85 88 91 94 96 97 96 96 99 101 104 108 112 115 118 121 122 123 127 131 133 135 137 138 141 148 155 160 166 172 179 187 195 203 213 223 232 242 256 268 279 290 298 305 308 308 307 303 296 287 278 269 261 256 255 257 261 269 281 294 304 310 315 319 322 324 327 329 330 331 332 334 336 338 340 341 342 342 341 342 343 344 345
171 168 165 164 162 159 155 155 155 153 152 152 154 157 161 168 179 193 206 219 233 248 261 272 283 294 304 309 310 309 308 307 305 299 294 289 283 276 269 264 261 260 263 266 271 277 285 289 301 314 328 340 349 356 360 364 366 367 370 374 377 377 377 376 375 372 369 365 363 361 359 357 353 351 351 352 354 355 356 356 355 352 349 347 347 346 346 345 342 338 333 328 325 326 328 329 330 332 332 331 330 327 325 323 320 320 319 317 315 312 308 304 298 294 291 289 286 282 280 279 281 285 288 289 289 289 289 286 282 277 276 274 274 274 271 269 270 274 278 283 286 286 284 279 277 279 283 285 286 289 293 302 312 320 325 326 324 319 313 308 304 298 293 289 288 287 286 282 277 274 270 266 262 257 252 250 250 250 248 246 244 241 242 243 242 241 241 243 240 234 231 229 230 231 233 236 238 240 244 249 251 250 248 245 242 238 234 234 234 236 236 234 231 225 217 212 211 209 208 209 206 201 197 195 194 194 192 186 178 170 166 167 171 169 165 159 154 151 150 147 145 143 141 140 138 138 134 130 124 116 107 97 89 83 80 81 83 87 98 112 127 143 159 168 166 157 153 154 158 167 179 182 176 173 172 174 185 198 203 203 199 195 191 188 184 182 175 164 158 152 142 129 122 115 109 108 113 128 143 152 158 159 157 153 147 138 134 135 136 135 133 130 126 126 134 139 141 141 144 150 151 152 153 154 152 148 145 142 139 136 136 140 146 151 153 155 160 165 169 175 177 180 183 184 188 192 193 198 209 217 221 227 226 219 215 215 215 215 215 216 216 216 216 216 216 215 213 211 210 207 202 198 193 190 190 189 187 186 185 185 185 185 183 180 178 178 178 177 175 173 170 167 168 175 182 180 170 161 154 152 146 141 137 133 128 121 114 114 114 115 115 115 114 114 113 113 113 113 113 113 112 112 112 112 112 113 113 113 112 110 110 108 108 107 107 107 107 107 107 109 112 112 112 111 110 109 108 108 108 108 108 108 108 108 108 108 108 108 108 109 110 111 111 111 110 110 109 107 106 103 104 107 107 108 107 107 106 106 109 112 114 115 112 100 85 79 82 89 97 104 108 108 105 105 106 109 112 112 111 111 111 111 111 111 111 111 111 111 112 112 112 111 109 108 109 110 111 112 113 114 113 112 111 110 110 107 106 106 105 105 105 104 104 105 105 105 105 108 114 125 132 128 122 113 109 106 106 110 118 128 132 130 125 125 131 135 133 123 114 110 108 107 105 104 101 101 98 96 95 93 93 97 96 93 90 88 88 88 92 95 96 98 98 97 96 96 91 89 89 89 89 90 90 90 90 91 91 91 92 92 93 93 93 93 93 92 92 95 102 111 119 123 120 114 105 100 95 91 88 85 82 82 82 82 82 84 86 88 90 90 90 90 90 91 93 95 97 98 98 96 94 91 88 86 84 84 84 86 87 87 86 83 81 78 77 77 78 78 77 76 76 75 75 74 72 71 67 65 65 64 64 64 63 63 63 62 62 62 62 62 61 61 61 60 60 60 60 60 57 54 54 54 54 54 54 57 71 76 77 77 81 83 84 84 84 84 86 89 93 96 99 99 99 98 100 103 106 110 114 118 122 127 130 132 135 139 141 143 142 142 143 149 157 163 169 175 181 188 195 203 212 222 232 242 257 269 280 292 300 306 309 309 307 302 293 283 275 266 258 254 253 255 259 266 277 290 301 310 315 320 325 328 331 332 333 334 335 337 338 340 342 342 343 343 343 344 345 345 345
170 167 164 164 163 161 157 154 153 151 150 151 153 155 159 165 175 187 199 212 226 241 256 267 278 289 299 305 306 305 304 303 301 297 290 284 278 270 263 258 255 254 258 262 269 276 285 289 302 316 332 344 355 362 365 368 370 371 374 377 380 381 381 380 378 375 370 366 364 362 362 360 358 355 354 354 355 356 357 356 355 351 347 346 346 345 344 341 338 335 331 328 326 327 330 333 334 335 335 334 332 329 326 324 321 321 321 319 317 313 308 303 298 295 292 288 286 284 282 282 284 287 290 291 292 292 292 289 285 280 276 274 271 269 267 265 267 270 274 278 281 281 279 276 274 276 281 284 286 287 293 303 312 321 326 327 325 320 315 310 306 302 297 293 292 291 288 283 277 275 272 269 264 260 255 252 251 251 249 247 245 243 242 242 241 239 238 239 238 233 227 224 225 226 228 231 233 235 240 243 245 246 244 242 239 235 232 233 235 238 236 233 229 222 215 211 210 208 208 209 206 201 196 193 190 190 191 186 178 169 166 168 171 170 165 159 155 151 150 148 146 144 141 138 135 133 130 126 120 112 103 94 85 79 78 80 84 89 100 114 129 144 157 165 163 155 150 151 155 162 173 175 170 167 166 169 183 195 200 203 199 195 191 188 184 181 176 169 161 154 144 134 126 119 110 102 103 116 135 148 154 155 151 146 139 129 126 130 129 130 129 126 124 125 131 134 134 137 142 145 145 147 151 155 152 147 142 140 137 135 135 140 144 148 150 154 159 162 165 170 172 179 183 186 189 192 193 198 209 216 220 224 223 218 214 213 213 213 215 215 215 215 216 216 215 213 211 208 207 205 202 197 193 190 189 189 188 189 189 189 189 188 185 183 181 181 181 180 177 174 171 168 167 173 180 179 168 159 153 150 145 141 137 133 128 121 114 114 114 114 114 114 114 114 113 113 113 112 112 112 112 112 112 112 112 112 112 112 112 110 109 108 108 107 107 107 107 107 107 111 113 113 113 112 111 110 110 110 110 109 108 108 108 108 109 109 109 110 110 110 111 111 112 112 111 110 110 107 106 105 106 108 108 109 109 109 109 110 114 117 119 119 115 101 84 79 82 89 96 102 106 106 104 104 106 110 115 116 114 112 111 110 110 110 110 110 111 111 111 111 111 111 110 111 112 113 113 115 117 118 117 116 115 114 111 108 107 106 105 105 105 104 106 107 106 104 105 107 112 124 129 126 119 112 108 106 106 110 118 129 132 128 124 125 132 135 131 120 113 110 109 107 105 104 101 100 98 95 95 94 96 100 98 95 92 89 88 88 90 93 95 97 97 96 95 93 89 89 89 89 89 90 90 90 90 91 91 91 92 92 93 93 93 93 93 92 93 95 102 110 119 123 120 113 105 100 95 90 87 84 82 82 82 82 84 86 88 90 92 93 93 93 93 93 95 99 101 103 104 103 100 95 92 90 88 88 88 89 90 89 88 85 81 78 77 77 78 78 77 76 76 74 74 73 72 69 66 65 65 64 64 64 63 63 63 62 62 62 61 61 61 61 61 60 60 60 60 60 56 54 54 54 54 54 54 58 72 76 77 77 81 83 84 83 83 84 87 91 95 99 101 101 100 100 101 104 109 113 117 122 130 136 140 143 145 148 149 149 149 146 146 151 158 165 171 177 183 190 195 202 212 222 231 242 257 269 282 294 302 307 309 309 306 300 290 281 273 263 257 253 251 253 257 263 273 286 299 309 315 322 327 331 333 334 335 336 338 339 340 342 343 344 344 344 345 346 347 346 345
171 166 165 165 163 162 160 157 153 151 150 150 150 152 156 162 170 181 192 205 219 235 250 262 273 282 291 297 298 297 296 295 294 291 285 278 272 265 258 253 250 249 253 259 266 273 282 288 303 319 336 350 361 367 371 373 374 376 378 379 382 384 384 383 380 376 371 367 365 364 364 363 361 359 357 356 356 356 357 356 354 350 346 345 345 343 340 337 334 333 331 330 328 329 334 337 339 339 338 337 336 333 329 325 323 322 322 321 318 312 307 303 300 298 293 289 287 285 283 284 286 288 292 293 293 293 292 289 286 282 278 274 270 267 264 262 264 267 270 273 276 276 276 272 270 272 278 282 284 287 292 303 313 321 326 327 326 321 316 312 308 305 301 298 296 294 289 283 279 277 275 272 267 262 258 254 253 252 250 248 246 243 242 241 239 236 235 235 234 230 225 221 221 223 225 227 230 234 237 239 240 240 239 238 236 232 231 232 235 236 233 230 226 219 214 210 210 210 209 209 206 201 194 191 186 187 188 185 177 168 166 167 169 169 165 161 156 153 150 148 146 142 138 134 131 128 126 122 116 108 101 93 85 79 78 80 86 90 100 115 129 143 154 162 160 152 146 147 151 159 168 168 161 160 158 163 180 191 196 201 199 195 191 188 184 181 177 172 165 157 148 142 136 126 111 99 98 105 121 139 146 146 144 140 132 124 121 125 123 125 125 121 122 125 128 129 130 133 135 136 140 145 151 155 152 147 141 137 134 133 135 139 143 146 149 153 157 158 161 165 170 178 183 186 189 192 193 198 209 216 219 221 220 216 214 213 211 210 212 213 214 215 215 214 212 210 208 204 203 201 199 196 192 189 188 188 191 193 195 195 193 191 188 185 183 184 184 183 179 176 172 169 167 172 179 177 165 156 150 147 143 140 136 133 129 122 114 113 113 114 114 114 113 113 113 112 112 112 112 112 112 112 112 112 112 111 111 110 110 110 109 108 108 107 107 107 107 107 110 112 114 114 113 112 112 111 111 111 111 110 108 108 108 107 108 109 110 111 111 111 112 112 113 113 112 111 110 107 107 106 107 108 109 110 110 110 112 114 118 122 124 124 118 98 81 79 83 89 94 98 100 101 101 103 105 109 117 120 118 115 112 110 110 110 110 110 111 111 111 111 111 111 111 112 114 115 116 118 120 121 121 121 119 118 115 112 110 107 105 105 105 107 110 111 112 107 104 105 111 122 126 124 116 110 107 106 106 111 120 129 131 127 124 126 133 135 129 119 113 110 109 107 105 103 101 100 98 95 95 95 100 102 101 97 95 92 88 88 88 89 92 95 96 95 93 90 89 89 89 89 89 89 90 90 90 91 91 91 92 92 93 93 93 92 92 92 93 96 103 110 118 123 119 113 105 100 95 90 87 83 82 82 82 84 86 88 91 93 95 96 96 96 96 96 98 102 106 109 111 110 106 102 97 94 92 92 92 93 93 92 90 86 82 79 77 75 78 78 77 76 76 74 74 72 71 68 66 65 65 64 64 64 63 63 63 62 62 62 61 61 61 61 61 60 60 60 59 58 55 54 54 54 54 54 54 58 72 77 77 77 81 83 83 83 83 84 88 92 96 100 102 102 102 101 102 106 111 115 121 128 136 143 148 152 154 155 155 154 153 151 150 153 158 168 174 179 185 190 195 202 211 222 231 241 256 269 282 295 304 308 310 309 305 297 287 279 270 261 256 252 251 251 255 261 270 282 295 307 315 323 330 334 335 337 338 339 340 342 343 345 346 346 345 345 345 346 347 346 343
172 168 166 165 163 163 162 158 153 151 149 148 147 149 153 159 166 175 185 198 212 227 242 254 265 273 282 287 289 288 287 286 286 284 278 271 265 259 253 249 247 246 250 256 265 273 283 289 305 321 339 354 365 372 376 378 379 381 381 382 384 385 386 386 382 377 372 368 366 365 365 366 364 362 359 357 356 356 356 355 352 347 345 343 342 339 336 333 332 333 335 334 332 333 338 342 344 343 342 341 340 337 331 326 324 324 324 322 318 311 305 303 301 298 294 289 288 286 285 287 288 289 293 294 293 292 290 288 286 283 280 277 273 267 262 261 262 265 266 268 271 273 272 269 266 268 275 280 283 286 292 302 313 321 325 325 324 321 318 314 309 306 304 302 300 297 291 286 282 280 278 274 269 264 260 257 254 253 251 249 247 243 240 239 238 235 233 231 231 228 224 220 220 221 223 225 228 233 237 238 237 235 235 234 233 230 228 228 231 232 230 228 224 219 214 213 213 214 213 211 207 202 194 190 185 185 185 182 175 169 166 167 169 169 166 161 157 153 151 148 144 140 135 131 128 126 123 119 112 105 99 92 86 81 78 80 84 89 100 115 128 140 151 158 157 150 143 143 146 155 160 159 152 150 150 159 177 187 191 197 196 193 190 188 184 180 177 172 168 161 154 151 148 135 119 102 98 99 109 128 138 139 137 134 126 118 118 121 119 122 120 115 121 125 125 125 127 129 129 133 140 146 152 155 152 147 140 134 132 132 135 139 143 145 147 149 152 154 157 164 170 178 182 185 189 192 193 198 208 215 216 217 218 215 213 212 210 209 210 211 213 215 215 212 208 206 205 201 198 197 195 193 190 187 186 188 194 199 201 201 199 195 191 187 184 185 186 185 181 176 172 169 166 172 180 176 165 153 146 143 140 138 135 133 129 121 114 113 113 113 113 113 113 113 112 112 112 111 111 111 111 111 111 111 110 110 110 110 109 109 109 107 107 107 107 107 107 107 110 112 113 113 112 112 112 112 113 113 112 109 107 107 107 107 108 109 111 112 112 113 114 114 114 114 113 111 110 107 107 107 108 108 109 110 111 112 113 118 123 127 130 129 119 95 80 79 83 88 93 94 95 98 101 102 104 108 116 121 121 118 113 110 110 110 110 110 111 111 111 111 111 112 112 113 116 118 119 120 122 123 124 125 124 122 119 115 112 109 105 105 106 110 114 116 117 113 106 105 109 119 124 121 114 109 106 104 106 113 121 128 130 126 124 127 133 134 127 117 111 109 108 106 104 103 100 99 98 95 95 96 102 104 103 100 98 95 91 88 88 88 89 92 94 94 92 89 88 88 88 89 89 89 89 89 90 91 91 91 91 91 92 92 92 92 92 91 91 96 103 109 118 123 119 113 105 99 95 90 86 83 82 82 83 85 88 91 94 96 97 98 99 99 99 99 101 106 111 115 118 117 114 109 103 99 96 96 97 97 95 93 91 87 83 79 75 73 78 78 77 77 76 74 73 71 70 67 66 65 65 64 64 64 63 63 63 62 62 62 61 61 61 61 61 60 60 60 59 56 54 54 54 54 54 54 53 59 75 77 78 78 79 82 83 83 86 87 88 92 97 101 102 103 103 103 104 107 112 117 125 133 141 149 153 158 161 162 161 159 157 155 155 157 161 170 177 181 186 191 197 203 211 222 231 241 255 268 283 297 305 310 311 310 304 295 285 277 267 259 254 251 250 250 253 259 267 279 292 304 315 325 332 336 338 339 340 342 343 344 345 347 348 347 346 345 344 344 344 342 341
175 170 167 165 163 163 162 158 154 151 148 145 145 149 152 157 162 170 180 191 204 218 233 245 256 264 271 277 279 279 278 277 277 275 270 264 259 253 249 247 246 246 249 256 264 274 284 289 305 322 339 355 368 375 379 381 383 383 382 383 385 385 386 386 383 378 372 368 366 366 366 367 366 364 361 358 356 356 356 354 350 346 343 341 339 336 334 333 334 337 340 340 338 338 342 345 346 345 345 345 342 337 332 327 326 326 325 322 318 312 306 303 301 297 293 289 288 287 287 288 288 289 292 292 291 290 289 288 286 283 281 279 275 269 262 261 261 263 264 265 267 269 268 266 264 267 274 279 280 284 290 299 309 317 321 322 323 321 319 315 310 307 305 304 303 300 294 290 286 282 279 275 270 265 261 258 255 253 252 249 247 242 239 239 237 234 233 231 231 228 224 220 220 219 221 223 227 232 236 236 234 232 231 230 229 226 224 225 227 228 228 227 224 220 217 217 217 218 217 214 209 203 196 192 186 184 181 178 174 170 168 168 169 169 166 161 158 152 148 144 141 137 132 128 126 124 120 115 109 104 100 95 90 84 81 81 82 86 96 112 126 137 147 154 155 148 140 137 140 147 152 149 142 140 146 160 176 183 186 192 192 191 189 187 183 180 176 172 169 163 158 154 150 140 126 109 99 97 101 116 130 134 132 129 121 114 116 118 116 118 115 113 120 123 123 124 124 124 126 132 140 146 152 155 152 147 139 133 131 132 135 139 142 143 144 145 147 152 158 165 170 177 180 182 187 192 193 197 204 212 214 214 214 213 211 211 210 208 208 211 213 213 213 208 204 204 203 199 195 193 191 190 188 186 185 188 197 204 205 205 204 200 193 188 186 187 187 185 182 176 172 169 166 172 180 176 165 154 144 142 137 135 133 130 125 120 114 113 113 113 113 113 112 112 112 111 111 111 111 111 111 111 111 110 110 110 110 110 109 108 108 107 107 107 107 107 107 110 111 112 113 113 113 113 113 113 113 114 112 109 106 107 107 107 108 110 112 113 114 115 116 115 115 115 114 112 110 107 107 107 108 108 109 111 111 113 115 121 128 132 134 134 120 92 79 79 83 88 92 93 95 98 101 103 106 108 113 119 121 119 115 111 111 111 111 111 111 111 111 111 111 112 113 115 118 120 121 123 124 126 127 127 127 125 123 119 115 110 105 105 109 114 118 120 121 118 113 109 109 116 122 119 112 108 104 102 106 114 122 127 128 125 124 129 133 133 125 115 109 107 107 106 104 102 100 98 97 95 95 97 103 106 105 103 101 98 95 91 88 88 88 90 92 92 90 89 88 88 88 89 89 89 89 89 89 90 90 91 91 91 92 92 91 91 91 91 91 96 102 109 117 122 119 112 104 99 94 89 86 83 82 82 84 87 90 93 96 98 100 101 102 102 102 103 105 111 117 122 125 124 120 116 109 104 101 100 101 99 97 94 91 87 82 79 75 73 78 78 78 77 77 74 72 71 69 67 66 65 65 64 64 64 63 62 62 62 62 62 61 61 61 61 61 60 60 60 58 54 54 54 54 54 54 54 53 63 76 78 78 78 79 80 82 85 89 90 90 93 98 101 102 104 104 104 105 108 114 121 129 138 146 153 158 163 168 170 168 164 160 158 160 161 165 171 178 183 188 193 198 204 212 222 230 241 255 268 283 298 306 312 312 309 302 291 282 273 263 257 253 250 249 249 251 256 264 275 289 301 314 326 333 338 340 342 343 344 344 345 346 347 347 346 344 342 341 340 340 338 337
179 173 169 165 163 163 162 158 153 150 147 145 145 149 152 156 161 166 173 184 196 209 223 235 245 253 260 266 269 270 269 268 268 267 263 258 253 248 245 244 244 245 249 256 264 273 283 288 302 320 339 355 369 379 383 385 385 384 383 382 383 383 383 383 382 378 372 368 367 367 367 367 367 365 362 359 357 355 355 353 348 344 342 340 338 334 334 334 338 341 345 345 344 344 346 346 346 346 346 345 342 337 332 329 328 328 326 322 319 314 308 304 301 298 295 291 289 288 288 288 287 288 290 291 291 291 291 289 285 283 282 280 276 270 264 260 259 261 262 262 263 265 264 262 262 267 272 276 278 282 288 296 305 313 318 320 320 320 319 316 312 310 308 306 305 303 298 293 289 285 281 278 272 267 262 258 255 254 253 250 247 243 239 238 237 235 234 235 234 232 227 223 220 219 220 221 224 230 233 232 231 229 227 225 224 222 221 222 225 227 227 227 225 223 222 223 223 222 221 218 212 205 198 195 187 183 180 177 174 173 171 170 169 169 166 161 155 149 144 140 138 134 129 125 122 120 116 112 108 106 105 102 96 88 82 81 81 83 90 107 123 134 143 151 152 145 137 132 133 139 143 139 133 134 148 163 174 179 182 185 188 187 187 186 183 179 175 171 168 164 158 155 148 141 131 115 102 97 97 105 121 129 128 124 116 110 114 115 112 112 110 114 120 122 121 121 121 122 125 131 139 146 151 153 150 145 137 131 131 133 135 138 138 139 141 142 146 153 160 166 169 174 177 178 185 190 192 195 200 209 212 212 212 211 210 210 210 207 206 211 211 210 210 205 200 201 201 198 193 190 190 190 188 185 185 189 198 205 206 205 205 201 194 190 188 188 188 185 182 176 172 168 166 170 177 174 163 154 145 142 136 134 131 126 121 117 114 113 112 112 112 112 112 112 111 111 111 110 111 111 110 110 110 109 109 110 110 110 109 108 108 107 107 107 107 108 110 112 113 113 113 113 113 113 113 114 114 114 112 109 108 108 108 108 109 111 113 115 117 119 118 118 117 116 115 113 110 107 107 107 108 108 109 111 111 113 117 124 131 136 138 135 119 91 80 80 84 89 90 92 96 100 101 104 106 109 111 115 121 121 118 114 112 112 111 111 111 111 111 111 111 113 114 116 120 123 124 126 128 130 130 129 128 127 125 121 116 110 106 107 113 118 123 127 127 124 118 114 109 111 117 116 111 107 102 102 107 114 123 126 127 124 124 130 133 131 122 112 107 106 106 105 103 102 100 98 96 94 94 98 104 107 108 106 104 101 98 94 90 88 88 89 90 91 89 89 87 87 87 89 89 89 89 89 89 90 90 91 91 91 91 91 91 91 91 91 92 95 101 109 117 122 118 111 104 99 94 89 86 83 82 82 85 89 93 96 99 101 103 105 106 106 105 106 109 116 122 128 130 129 125 121 114 107 104 103 103 101 97 94 90 85 81 79 73 73 79 79 78 77 76 74 72 70 68 67 66 65 65 64 64 64 63 62 62 62 62 62 61 61 61 61 61 60 60 60 55 54 54 54 54 54 54 54 57 71 78 77 77 77 79 80 84 88 91 92 93 94 98 101 102 104 104 105 106 110 116 124 133 141 150 156 162 168 173 175 174 169 162 161 163 165 168 172 179 185 190 195 200 205 213 222 230 240 255 268 283 299 307 312 313 308 298 287 277 268 260 255 252 250 248 247 248 253 261 272 286 298 312 325 334 340 343 345 346 346 347 347 346 345 344 342 340 338 337 336 336 333 330
183 177 173 169 166 164 162 157 153 148 146 146 149 150 151 154 158 162 168 176 187 200 212 223 233 241 249 255 259 260 259 259 260 260 257 252 248 245 244 243 242 244 249 255 262 271 280 286 298 316 334 351 367 379 384 385 385 382 380 380 381 381 380 380 379 375 371 369 369 368 367 367 367 365 363 360 357 355 354 351 345 342 340 338 336 334 334 338 342 346 349 350 350 349 349 347 346 346 346 344 341 336 333 331 329 329 326 322 319 314 308 304 301 299 296 292 290 289 288 286 286 288 289 291 291 292 292 289 285 283 283 282 277 272 267 261 258 258 259 259 259 260 260 258 259 264 269 274 278 281 286 293 301 308 313 316 318 319 319 317 316 314 312 310 308 306 302 297 292 288 284 280 275 269 262 257 255 254 252 250 248 243 240 238 239 237 237 239 239 236 232 227 224 221 220 219 220 225 229 229 227 226 224 222 220 220 220 221 223 227 228 227 226 226 227 229 229 227 226 222 216 209 200 196 188 183 180 179 177 175 172 170 168 167 164 159 152 147 142 137 134 131 127 122 119 117 115 112 111 113 114 111 105 95 86 81 79 80 86 101 118 131 140 147 148 142 133 126 128 132 133 130 128 134 150 164 173 176 177 179 182 183 183 183 181 177 173 170 167 163 158 155 147 142 133 120 105 98 94 99 113 123 124 120 113 108 110 109 108 107 110 116 120 121 120 120 119 120 124 130 138 145 150 152 149 143 136 130 130 131 133 134 135 136 137 141 149 156 161 166 168 170 173 173 181 189 191 193 198 206 210 210 210 209 208 209 209 205 205 210 210 209 207 201 198 199 199 196 192 190 190 190 188 185 185 189 198 203 204 204 204 200 195 191 188 188 188 185 181 176 171 168 165 168 173 172 162 154 146 143 138 134 131 125 120 116 113 112 112 112 112 112 111 111 110 110 110 110 110 110 110 110 110 109 109 109 110 110 110 110 110 110 108 107 108 111 113 114 114 113 113 113 114 114 114 115 115 114 112 111 111 112 111 110 111 113 116 119 120 120 120 119 118 117 115 113 110 107 107 107 108 108 109 111 111 113 118 125 133 139 141 136 115 90 80 80 84 88 89 94 99 102 103 104 106 108 110 114 121 121 120 117 114 112 112 111 111 111 111 111 111 113 114 117 121 125 127 129 132 132 131 130 128 127 125 121 116 110 106 111 118 124 129 133 133 130 123 114 108 106 111 112 110 106 102 102 107 115 123 125 126 125 125 130 133 129 119 111 107 105 105 104 103 102 100 98 95 94 95 100 105 109 110 109 106 103 100 96 91 88 87 86 86 88 89 88 86 86 86 88 89 88 88 88 89 90 90 91 91 91 91 91 90 90 90 91 93 94 99 107 116 121 116 110 103 99 94 89 86 82 82 83 86 90 94 98 101 104 106 108 109 109 108 109 113 120 127 133 135 132 128 123 117 110 105 104 103 101 97 93 88 84 81 78 72 72 79 79 78 77 75 72 71 69 68 67 66 65 65 64 64 64 63 62 62 62 62 61 61 61 61 61 61 60 59 57 54 54 54 54 54 54 54 56 67 80 79 77 77 77 79 81 85 90 92 95 96 97 98 101 102 104 104 105 107 111 118 127 135 144 152 159 166 173 178 179 177 170 163 163 166 168 172 175 181 187 191 196 201 207 215 222 230 240 255 267 282 299 307 312 312 307 294 282 271 263 256 253 251 249 247 246 247 251 258 268 282 296 309 324 335 342 346 348 348 348 348 348 346 342 340 338 335 332 331 330 328 326 323
188 182 177 173 169 166 163 158 153 148 146 149 152 152 151 152 156 159 163 170 178 190 202 212 222 230 238 244 249 251 250 251 253 253 250 246 243 241 243 243 242 244 247 253 260 270 280 284 295 311 329 347 363 375 381 383 381 379 378 378 378 378 377 377 376 373 370 369 369 369 367 366 366 365 364 361 357 355 352 349 344 340 338 336 334 334 336 341 346 350 353 355 355 354 352 350 347 347 345 343 341 336 334 331 329 327 327 323 320 314 308 303 301 299 296 292 290 289 287 285 285 288 289 290 290 292 292 289 286 286 285 283 279 273 267 261 258 256 255 255 255 256 256 254 255 260 267 272 276 279 284 290 296 303 308 311 314 317 318 319 320 318 316 314 312 310 305 300 295 290 286 282 276 270 263 257 255 254 252 249 247 243 241 241 241 239 240 244 244 241 238 233 229 226 222 218 218 220 224 225 223 222 222 221 220 220 220 220 222 227 228 228 228 230 232 234 234 232 230 227 221 212 203 198 189 184 183 182 179 175 172 168 164 163 160 155 149 144 140 136 133 130 127 124 122 120 119 119 120 123 124 121 111 100 89 81 78 78 82 96 114 128 137 143 144 139 129 121 123 126 126 123 123 135 150 164 170 172 173 175 177 178 178 178 177 173 170 167 164 161 158 153 145 141 134 122 109 100 94 95 107 115 117 116 109 103 102 101 104 109 114 117 120 120 119 119 118 119 123 129 137 144 148 150 147 141 134 128 127 129 130 131 133 134 137 143 152 157 161 164 165 166 166 168 177 186 190 192 196 203 209 208 207 206 205 208 208 203 204 210 209 206 203 199 196 198 198 194 191 191 191 190 188 185 185 189 197 201 202 201 200 197 193 189 187 186 187 185 180 175 170 167 165 166 170 170 162 155 149 147 142 137 133 128 121 116 112 112 112 111 111 111 110 110 110 109 109 109 109 109 109 109 109 108 108 109 110 110 111 113 114 114 111 108 109 112 114 115 115 114 114 114 115 115 115 115 115 114 113 114 115 115 114 112 112 115 119 121 122 122 121 120 119 117 115 113 110 107 107 107 108 108 109 111 111 113 118 125 134 142 144 136 112 87 80 80 84 88 90 96 101 103 105 105 106 108 109 112 117 120 120 119 116 114 113 112 112 112 112 111 111 113 114 117 122 126 128 132 132 133 131 130 128 126 124 120 115 110 109 116 123 129 134 138 138 136 129 118 108 106 107 109 108 104 101 102 107 115 123 125 125 125 125 131 132 126 116 108 106 105 105 103 102 102 99 97 95 94 96 103 108 111 113 111 109 105 101 97 93 89 87 85 84 85 88 88 86 84 85 87 88 88 88 88 88 90 90 91 90 90 90 90 90 90 90 91 93 94 98 106 115 118 114 108 103 99 94 89 86 82 82 83 87 91 96 100 104 106 109 112 113 113 112 113 117 125 132 138 139 134 130 124 118 111 106 104 102 98 94 90 85 82 80 77 72 72 79 80 78 77 74 71 70 68 67 66 66 65 65 64 63 63 62 62 62 62 62 61 61 61 60 60 60 59 57 54 54 54 54 54 54 54 54 63 81 83 80 78 77 79 81 83 87 91 93 96 98 100 101 101 102 104 105 106 109 113 120 129 137 146 153 162 170 178 182 181 177 169 164 166 169 172 176 179 183 188 192 197 202 209 217 224 230 239 254 266 280 298 307 309 308 303 288 274 265 258 253 251 250 248 247 245 245 248 255 263 276 292 306 322 333 342 347 348 349 349 349 347 342 337 334 332 329 326 323 321 320 318 315
193 188 184 178 173 168 165 161 155 150 148 151 154 153 152 152 154 157 161 165 171 180 191 200 210 218 226 233 237 240 241 243 245 245 243 241 240 240 243 243 243 243 245 251 259 269 279 283 292 305 321 339 355 368 376 379 377 375 374 374 375 374 374 374 374 371 368 365 365 365 367 366 366 365 364 361 358 355 352 348 342 338 335 334 334 335 339 344 349 354 357 357 357 357 355 352 349 347 345 344 341 337 334 329 327 326 325 323 320 315 308 304 302 299 295 292 290 288 286 285 285 288 289 290 290 290 290 289 287 287 286 284 279 273 266 260 255 253 252 252 253 255 254 252 253 258 265 270 274 276 281 287 293 299 303 307 312 316 318 321 324 323 321 318 315 312 307 303 297 291 287 283 278 271 264 259 255 254 252 249 248 246 244 243 243 243 244 248 248 246 244 240 236 232 226 222 219 219 220 220 218 219 220 220 220 220 220 221 224 227 229 229 231 234 236 238 238 237 234 230 224 215 205 200 191 186 184 183 180 175 170 165 160 157 153 150 146 143 141 139 136 134 134 132 131 130 130 131 132 133 131 126 115 102 90 81 77 77 80 92 110 125 133 138 140 135 124 117 119 121 120 118 121 131 146 162 167 168 169 171 173 173 173 173 172 169 166 163 160 158 156 151 143 139 133 122 113 103 94 94 99 106 109 108 104 97 96 101 107 112 115 117 120 120 119 118 118 119 123 128 135 143 147 147 143 139 133 127 126 126 128 130 131 133 139 146 152 157 159 161 162 161 160 166 175 184 189 192 193 199 207 206 204 203 203 206 205 201 202 208 206 202 200 195 193 194 194 191 190 190 191 191 187 184 184 188 196 200 200 198 197 195 192 188 185 185 186 184 179 174 169 166 164 164 167 168 163 156 151 149 145 139 134 128 121 117 113 112 112 111 111 110 110 110 109 109 109 108 109 109 109 109 109 108 108 109 110 111 113 117 118 117 113 110 111 113 114 116 116 116 117 117 116 116 116 116 115 114 115 117 118 118 116 113 113 116 120 122 124 124 123 122 120 118 115 113 110 107 107 107 108 108 109 111 111 113 118 125 135 142 145 136 112 87 80 80 84 86 91 98 102 105 107 106 106 108 109 111 115 118 120 119 118 116 114 113 112 112 112 111 111 113 115 117 122 127 128 132 132 132 131 129 128 126 123 119 114 112 114 122 129 134 139 142 143 141 134 122 109 106 106 107 106 103 101 102 106 115 124 125 125 124 125 131 130 123 114 107 106 104 104 103 102 101 99 96 94 95 99 106 111 114 115 113 110 105 101 98 93 90 87 84 84 84 87 87 85 84 84 85 87 87 88 88 88 90 90 91 90 90 90 90 90 90 90 90 92 93 97 105 112 114 111 106 102 99 95 89 85 82 82 84 88 92 96 101 104 108 112 115 116 117 116 117 121 130 137 142 142 136 131 125 118 112 106 103 99 95 92 87 84 82 80 77 72 72 79 80 78 76 73 70 69 68 66 66 65 64 64 64 63 63 62 62 62 61 61 61 61 61 60 60 60 59 55 54 54 54 54 54 54 54 54 64 84 83 80 78 78 82 83 85 89 92 94 98 101 103 103 102 103 105 105 107 111 115 121 130 138 147 154 163 172 179 182 179 173 167 165 168 171 175 179 183 186 189 193 198 204 211 219 226 232 241 253 264 277 295 304 305 303 294 279 267 260 254 251 250 249 248 247 245 245 246 252 259 269 286 302 318 330 338 344 347 347 347 344 339 334 329 326 324 321 318 315 313 311 309 308
197 194 191 185 177 172 166 162 158 153 149 151 154 154 152 151 151 154 159 162 166 173 181 190 198 206 214 220 226 230 232 235 237 237 237 238 239 239 240 241 242 243 244 250 258 267 276 280 288 299 314 331 347 361 370 374 373 371 370 370 371 371 371 372 371 368 364 361 360 361 364 366 366 365 364 363 360 355 350 344 339 336 334 334 334 337 342 347 351 355 358 358 358 358 357 354 351 348 346 345 342 338 334 329 326 325 324 322 320 316 309 305 302 298 295 292 291 288 286 286 287 289 290 290 289 289 288 287 285 286 286 284 279 272 264 259 254 251 251 251 253 254 252 251 252 257 263 268 271 274 279 285 292 297 302 306 311 315 318 322 325 325 323 319 316 314 309 304 298 293 289 284 279 272 266 260 256 254 252 250 251 250 248 247 246 247 249 253 253 253 250 246 241 237 231 225 220 219 219 219 217 218 219 221 221 222 224 225 228 229 231 233 235 238 240 239 239 238 234 231 224 216 206 201 193 187 185 184 179 172 166 161 157 153 149 147 146 146 147 147 146 144 143 143 142 141 141 141 142 141 136 129 117 104 92 81 77 77 79 88 104 120 128 132 133 130 122 114 114 117 114 113 118 127 143 160 163 164 164 167 169 169 168 168 167 165 162 159 155 154 152 147 142 138 131 122 117 107 97 94 95 99 101 101 98 95 99 107 112 114 115 117 119 119 118 118 118 119 123 127 135 142 146 145 142 137 132 127 125 126 127 129 131 133 140 146 152 156 158 158 158 154 156 164 174 183 189 190 189 196 205 205 203 202 202 205 203 198 200 205 203 199 197 193 190 191 190 188 190 191 191 190 187 183 183 188 196 199 197 195 194 193 190 187 185 185 185 184 178 173 169 166 163 163 163 164 162 156 152 150 146 140 134 127 120 117 114 112 112 111 111 110 110 110 109 108 108 108 108 108 109 109 109 108 108 108 110 112 116 121 123 119 114 111 112 113 115 116 116 117 118 118 117 116 116 116 116 116 118 119 119 119 117 114 114 117 121 123 125 125 124 123 121 119 115 112 110 107 107 107 108 108 109 111 112 114 119 125 135 143 145 135 113 87 80 80 82 85 91 99 103 106 107 107 107 108 109 111 114 117 119 119 119 116 115 113 112 112 112 111 112 114 116 118 122 127 128 131 131 130 130 129 127 125 121 118 114 113 119 127 134 139 144 147 147 144 138 126 112 106 106 106 104 102 101 103 106 115 124 125 124 124 125 129 127 121 113 106 105 104 104 102 101 100 97 95 94 96 102 108 113 117 116 113 110 105 101 97 93 90 88 84 84 84 87 87 84 84 84 85 86 86 87 87 88 90 90 91 90 90 90 90 90 90 90 90 92 93 98 105 111 111 109 105 101 98 94 89 85 82 83 84 88 91 96 101 105 109 114 118 119 120 120 121 126 133 139 144 143 136 131 125 118 111 106 101 98 94 89 85 83 81 80 77 72 71 77 80 78 75 71 69 68 67 66 66 65 64 64 63 63 63 62 62 62 61 61 61 61 61 60 60 60 57 54 54 54 54 54 54 54 54 56 70 84 82 80 78 79 83 85 87 90 93 95 99 104 106 105 103 103 105 106 108 112 115 121 130 138 147 155 164 173 179 179 175 168 165 166 170 174 178 182 186 189 192 195 199 204 212 219 227 234 242 253 263 275 291 300 300 295 285 270 262 256 252 250 250 248 248 246 244 244 245 249 256 264 277 296 312 326 334 338 340 341 340 337 331 326 321 318 316 314 311 308 306 305 304 305
203 200 197 191 183 175 167 164 160 154 150 151 154 154 153 149 148 151 156 160 162 167 172 179 187 195 202 209 215 219 223 227 230 231 233 235 236 237 239 239 240 242 244 250 256 264 273 277 284 293 307 321 337 351 361 366 367 365 364 364 366 367 368 368 366 363 358 357 358 360 362 364 365 365 364 363 360 354 347 341 338 336 336 335 337 341 344 349 353 356 358 358 358 359 358 355 351 349 346 344 343 339 336 332 327 325 323 322 321 317 311 306 302 298 296 292 290 289 289 288 289 292 292 291 289 289 287 285 283 282 281 280 276 270 263 259 254 250 248 250 252 252 249 249 251 255 260 264 267 270 276 283 291 296 302 307 311 316 320 323 325 326 325 321 318 314 310 305 300 295 291 285 280 273 268 263 259 257 256 255 256 256 255 253 253 254 257 259 259 258 255 251 247 241 235 229 223 219 217 216 216 218 221 225 225 227 230 232 233 234 236 238 240 243 242 239 237 235 232 227 221 214 205 201 193 188 185 182 176 169 162 158 154 153 153 152 153 155 157 158 157 155 155 154 153 152 152 151 149 147 142 133 122 109 96 84 77 77 79 83 95 108 118 122 123 123 119 113 110 109 108 108 116 125 141 156 158 158 158 161 164 164 163 163 163 161 157 153 149 147 145 141 138 134 127 122 119 113 102 95 95 94 95 95 93 92 101 111 114 115 115 117 118 118 117 117 117 119 122 127 133 140 143 142 139 134 130 126 125 126 126 129 131 134 141 146 151 154 155 154 152 149 155 163 171 180 187 187 185 191 202 205 203 200 200 202 200 196 198 203 201 197 195 191 187 186 185 186 189 191 191 189 185 181 183 189 196 197 194 190 190 189 187 184 183 183 184 182 177 171 167 163 162 160 159 159 157 154 152 150 146 140 134 127 120 117 114 113 110 110 110 110 109 109 108 108 108 108 108 108 109 109 108 108 108 108 110 113 118 124 124 119 113 112 113 114 115 117 118 119 119 119 118 117 117 117 117 118 119 121 121 121 119 115 116 119 123 125 125 125 125 124 123 120 116 112 110 107 107 107 108 108 109 111 112 116 121 127 135 143 144 133 112 88 80 80 82 84 91 100 104 106 108 108 108 109 110 111 114 116 118 119 119 116 115 113 112 112 112 112 112 114 116 118 122 126 128 129 129 128 127 127 126 123 119 116 114 116 124 133 139 145 149 151 151 147 140 127 114 106 105 104 103 102 101 103 107 115 123 124 124 124 125 126 124 117 109 106 105 104 103 102 101 98 96 94 94 98 104 110 116 119 117 111 107 103 99 95 92 90 88 84 83 84 87 87 84 83 83 85 85 86 87 87 88 90 90 91 91 91 90 90 90 90 90 90 92 95 100 106 110 109 106 103 100 97 93 88 84 83 83 84 87 90 95 101 105 110 116 120 121 122 123 125 129 135 140 144 144 136 131 124 116 108 102 98 94 91 86 83 82 81 80 77 72 70 75 79 76 72 70 69 67 66 65 65 65 64 64 63 63 63 62 62 62 61 61 61 61 61 60 59 56 54 54 54 54 54 54 54 54 61 69 81 84 81 79 78 81 84 87 90 92 93 95 100 105 106 105 104 104 105 106 109 114 118 122 131 139 148 156 165 174 177 174 168 163 164 168 172 177 181 185 188 192 196 200 204 208 213 220 228 235 243 253 262 272 286 294 291 285 275 264 258 253 251 250 249 247 247 246 244 244 244 247 252 259 270 289 304 318 328 332 333 332 330 327 322 317 313 311 309 307 305 302 300 300 302 304
208 206 203 197 189 179 170 164 161 157 153 152 153 153 152 148 146 148 153 156 158 161 166 173 179 186 193 199 205 211 216 221 224 227 230 232 233 234 236 237 239 242 247 251 256 263 272 276 283 290 300 311 325 339 351 358 361 361 360 361 363 364 365 363 361 357 354 355 358 359 360 361 362 362 362 361 358 351 345 341 340 339 337 338 340 344 347 350 354 358 360 360 359 359 359 355 351 348 345 343 342 339 337 333 328 325 323 321 319 316 311 307 302 299 296 292 291 292 292 291 292 293 293 291 290 289 286 285 282 280 277 275 273 269 263 259 254 248 246 248 250 250 247 247 250 255 258 260 263 267 273 281 290 297 303 308 313 318 322 324 325 328 327 322 319 314 311 306 301 297 293 287 281 275 270 266 264 262 261 261 262 262 261 260 259 260 263 265 265 262 258 255 250 246 239 232 226 220 216 216 217 220 225 229 230 233 237 239 239 239 241 243 244 244 242 236 232 229 226 221 214 208 200 196 190 186 183 179 173 166 160 157 157 158 161 162 164 166 168 168 166 165 165 164 163 161 160 157 155 151 145 137 126 114 101 88 80 78 78 83 89 95 103 108 109 113 111 112 110 104 102 107 115 127 142 151 152 152 152 156 158 158 156 157 159 156 151 145 141 139 138 135 133 129 125 122 121 116 106 97 95 93 93 91 89 90 98 110 114 116 116 116 117 117 117 116 116 118 122 126 131 136 139 138 135 132 129 125 123 125 126 129 131 135 142 146 148 150 150 149 146 145 154 160 168 176 184 185 184 187 198 207 204 198 197 199 197 193 195 200 199 195 193 190 185 181 183 186 188 189 190 188 184 179 182 189 195 195 192 187 186 186 184 181 181 181 181 180 175 169 165 161 158 157 154 154 154 152 150 149 146 140 133 126 120 117 117 113 108 108 109 109 109 109 108 108 108 108 108 108 109 109 108 108 108 109 111 115 121 125 123 117 113 113 114 115 116 118 118 120 120 120 118 118 118 118 118 119 121 122 122 122 120 118 118 120 124 125 126 125 125 124 124 121 116 112 110 108 107 107 108 108 109 112 112 117 122 129 136 142 142 132 112 88 80 80 81 84 91 100 104 107 109 109 109 110 110 111 113 115 117 118 118 115 115 114 113 113 113 113 113 114 116 118 123 126 127 127 126 125 125 125 123 121 118 115 114 121 129 136 143 149 153 154 153 149 141 129 115 106 105 103 102 101 101 103 108 116 121 123 124 125 125 125 121 113 106 105 104 103 103 101 99 96 94 94 95 101 107 112 117 119 115 108 105 101 98 94 92 90 88 85 83 84 85 86 84 83 83 84 85 85 87 87 88 89 90 91 91 91 90 90 90 90 90 90 93 96 101 107 109 107 104 101 98 95 91 87 84 83 83 84 87 89 94 101 106 112 118 122 124 123 123 126 130 136 141 144 142 135 129 122 112 104 99 95 92 87 83 82 81 81 80 78 74 69 72 77 74 70 68 67 66 66 65 65 64 64 64 63 62 62 62 61 61 61 61 61 61 61 59 56 54 54 54 54 54 54 54 54 58 72 79 83 82 80 79 80 84 86 88 93 94 94 95 100 104 106 105 105 105 106 107 110 116 120 123 131 139 148 156 165 172 172 167 161 162 165 170 175 179 183 187 190 194 199 204 209 213 215 220 229 236 243 252 260 268 279 284 281 274 268 260 255 252 250 249 249 248 247 246 244 244 244 246 250 255 264 280 296 308 318 322 323 323 320 317 313 309 306 305 303 301 299 297 297 299 301 304
211 210 207 202 192 181 172 166 163 159 155 152 153 152 151 149 147 148 151 153 155 158 163 168 173 180 187 193 198 203 208 213 218 223 228 230 231 232 233 236 242 247 252 256 261 266 273 276 283 289 295 304 314 327 341 348 353 355 356 358 360 360 360 358 355 351 350 353 356 358 358 358 359 359 359 359 354 348 344 342 342 340 339 341 345 347 348 352 357 360 362 362 360 359 359 356 350 346 344 342 342 339 337 334 328 326 323 320 317 313 309 306 303 300 296 293 293 295 296 295 294 295 294 292 291 290 288 286 284 281 277 275 271 267 261 257 251 245 243 245 246 246 245 247 250 255 257 259 261 265 271 279 288 296 304 308 313 319 324 325 327 330 329 324 319 315 311 307 304 300 295 289 283 277 273 271 269 268 267 269 270 269 267 265 263 264 267 269 270 267 263 259 255 251 244 237 230 224 220 218 219 224 228 232 235 239 243 244 243 242 242 243 244 241 237 231 225 220 217 212 206 200 194 191 186 183 180 176 173 168 165 164 165 168 174 177 178 177 177 174 172 171 171 171 170 169 167 163 160 156 150 142 131 119 105 93 84 80 80 81 84 84 86 87 90 95 100 107 110 104 101 105 115 128 142 147 147 147 148 150 152 151 149 152 153 149 143 137 134 132 132 131 128 125 125 127 124 118 109 98 93 92 90 89 89 89 94 107 114 115 115 115 116 116 116 115 114 116 121 125 129 132 134 133 131 129 127 122 120 123 126 129 132 135 139 143 145 145 145 143 141 144 153 158 163 172 180 182 181 184 193 203 203 197 194 196 194 190 193 198 197 194 192 189 184 179 179 182 183 185 187 187 182 178 181 189 195 195 191 185 182 181 180 178 179 178 177 177 173 168 164 159 154 153 151 149 150 150 148 147 143 137 129 122 118 118 117 111 107 108 108 108 108 108 108 108 108 108 108 108 108 108 108 108 108 109 112 116 122 125 122 116 113 113 114 115 117 118 119 120 120 120 119 118 118 119 121 122 124 124 124 123 121 119 119 121 124 125 126 125 125 125 125 122 117 113 111 108 107 107 108 108 109 111 112 117 123 129 136 141 140 131 112 89 80 80 80 83 91 99 104 107 109 109 110 111 111 112 113 114 115 117 117 116 116 115 113 113 113 114 114 115 117 120 123 125 125 124 123 122 122 122 120 119 117 115 118 124 132 139 146 153 157 157 156 150 141 129 116 106 104 102 101 101 101 104 110 116 121 122 123 124 125 123 117 109 105 104 103 102 102 99 97 95 94 94 96 102 108 113 118 118 113 107 104 100 97 94 91 90 88 85 84 83 83 84 83 83 83 84 84 85 87 87 88 89 90 91 91 91 90 90 89 89 89 90 94 97 102 104 105 104 101 98 96 93 89 86 83 83 83 84 87 89 94 101 106 113 119 124 125 123 123 126 130 135 140 140 137 131 125 117 107 100 95 92 89 85 82 82 81 81 80 78 76 70 67 72 71 68 67 66 66 65 64 64 64 63 63 62 62 62 61 61 61 61 61 60 60 60 56 54 54 54 54 54 54 54 54 54 66 76 80 83 81 79 79 82 85 87 91 94 94 95 96 100 102 104 105 105 105 107 109 112 118 122 125 131 139 147 155 162 167 164 159 159 162 167 172 177 182 186 189 193 197 201 206 212 217 220 222 229 236 243 250 257 264 270 274 271 267 263 257 253 250 248 250 250 249 247 245 244 244 244 245 248 252 259 271 287 299 307 312 313 313 311 309 306 302 300 300 298 297 296 295 295 298 301 304
214 213 211 206 196 186 175 167 164 160 155 153 153 152 151 151 151 150 151 152 153 157 162 166 170 176 182 186 191 196 200 204 211 218 224 228 230 231 233 240 247 253 259 263 266 271 275 278 284 290 294 300 307 318 330 339 344 347 350 353 355 357 357 354 350 346 346 348 352 355 356 357 358 359 358 357 352 346 343 343 343 341 341 343 346 348 350 353 358 360 363 363 361 360 359 355 350 346 343 343 342 339 337 333 328 327 323 319 315 311 308 306 303 301 297 294 294 296 299 299 298 296 294 293 293 293 291 288 285 284 282 277 272 266 260 256 250 244 241 241 241 243 244 247 250 255 257 258 260 264 270 278 286 294 300 306 313 320 324 326 328 331 331 327 322 318 313 310 306 302 297 291 285 279 277 276 275 274 273 275 277 275 272 269 267 268 271 274 275 273 269 264 260 256 250 242 235 229 225 223 224 226 229 234 239 243 245 245 243 242 241 240 239 236 232 225 217 211 207 203 199 193 188 186 184 182 179 177 176 174 175 174 175 180 186 189 189 188 183 180 177 176 176 176 176 175 174 170 166 161 155 147 138 125 110 98 88 83 81 80 79 78 77 76 76 78 85 100 109 105 100 103 113 124 137 142 141 141 143 145 146 144 143 145 145 139 134 130 125 125 126 126 126 128 130 131 127 120 110 100 93 91 90 89 88 88 90 102 113 115 115 115 116 116 116 114 114 115 119 124 127 129 129 130 129 127 125 120 119 123 127 130 132 134 136 138 140 140 139 138 139 145 151 153 158 168 177 181 179 180 188 198 201 196 191 191 191 187 190 196 195 192 189 188 184 176 174 177 178 181 186 185 179 176 180 189 193 193 189 183 178 177 175 175 176 174 173 173 171 167 163 158 150 150 149 146 145 146 144 143 139 133 125 119 116 115 113 108 107 108 108 108 108 108 108 108 108 108 108 108 108 108 108 107 107 110 112 118 123 123 120 116 113 113 114 116 118 119 120 120 121 121 121 120 121 122 124 126 127 127 126 125 122 120 120 122 125 125 126 126 126 126 125 122 117 113 111 108 107 107 109 109 109 111 112 115 121 128 135 138 137 129 111 91 81 80 80 82 89 97 103 106 109 110 112 112 112 112 113 113 115 116 117 117 117 116 115 114 114 114 115 116 118 120 121 121 122 121 120 119 119 119 119 118 117 117 121 127 135 142 150 156 159 159 157 151 141 129 116 106 104 102 101 101 101 105 110 117 121 121 122 122 122 119 112 106 104 104 103 102 100 97 95 95 94 95 97 103 109 113 117 116 112 106 104 100 96 94 90 89 88 85 84 83 83 83 83 83 83 84 84 85 87 87 88 90 90 91 91 91 90 90 89 89 89 90 93 96 99 101 101 100 98 96 93 91 88 85 83 83 84 85 87 90 94 100 106 113 120 123 123 120 119 123 127 132 135 135 132 126 120 109 101 95 92 89 86 84 82 82 80 80 80 78 77 72 66 66 68 67 66 65 65 65 64 64 64 63 63 62 62 62 61 61 61 61 61 60 59 59 55 54 54 54 54 54 54 54 57 63 72 77 80 81 79 79 80 84 86 88 92 94 94 94 96 100 102 103 105 105 106 108 112 115 120 123 129 133 138 145 152 157 159 157 155 159 164 168 173 178 183 187 190 194 198 202 207 213 220 224 227 229 234 240 246 252 258 262 266 265 263 260 256 252 247 245 250 251 250 247 245 243 243 243 244 247 251 256 264 277 290 298 302 305 305 303 301 298 295 293 294 293 293 291 291 293 297 300 304
216 215 214 209 200 189 179 171 165 160 156 153 152 151 152 154 152 151 151 151 153 157 161 164 168 173 177 182 187 192 196 199 206 216 223 227 229 233 238 245 253 259 266 270 272 276 280 282 288 294 298 300 306 314 323 329 335 339 342 347 350 353 353 350 345 341 341 343 347 351 353 355 357 358 358 355 349 344 343 344 344 342 344 345 347 349 351 356 360 362 363 363 362 360 359 355 350 346 345 344 343 339 336 332 328 326 322 317 314 310 310 308 306 303 300 295 295 297 300 301 300 297 295 294 294 294 291 289 287 287 286 282 275 268 261 255 250 243 240 239 240 241 243 246 250 253 255 256 258 262 269 277 283 289 296 302 310 318 322 325 328 330 331 328 326 323 318 314 310 306 299 292 286 282 281 282 281 279 278 279 281 279 275 272 272 273 276 279 280 278 274 270 265 260 254 248 241 236 232 228 227 227 228 233 240 244 245 244 241 239 237 235 234 230 226 218 210 203 199 197 193 191 188 187 187 185 183 182 182 183 185 185 186 191 196 198 197 194 189 184 181 180 180 180 180 181 180 176 172 166 161 154 145 133 119 104 92 85 82 81 78 75 74 74 73 73 78 94 104 102 97 102 111 121 132 138 136 135 137 140 140 138 137 137 135 130 127 124 123 123 125 126 129 132 134 133 128 121 111 102 94 91 91 91 89 88 89 97 109 114 114 115 115 115 115 114 114 114 118 122 125 127 127 127 127 125 122 119 122 126 128 131 133 134 134 134 134 134 134 136 138 141 144 148 155 165 175 178 176 177 183 193 199 196 189 186 186 184 189 194 193 190 186 185 182 173 168 170 174 178 182 182 176 174 179 186 190 190 187 181 175 173 170 171 172 171 169 170 169 167 162 156 149 148 147 143 142 142 139 138 133 128 121 116 113 112 109 107 107 108 108 108 108 108 108 108 108 107 107 107 107 107 107 107 107 110 113 119 122 120 116 113 113 113 115 117 119 120 121 122 122 123 123 124 125 126 128 130 130 130 128 126 123 122 121 123 125 125 126 126 126 126 125 123 117 113 111 108 108 108 109 109 110 111 111 114 120 127 133 136 133 124 109 93 84 80 80 80 85 93 101 106 109 111 113 113 113 113 113 113 115 116 117 119 119 118 117 116 115 115 115 117 118 119 118 119 119 119 118 117 117 118 119 120 118 118 122 129 137 145 153 158 161 161 158 151 140 128 115 106 104 102 101 100 100 103 109 115 120 120 120 120 118 115 108 104 103 102 102 100 97 95 95 95 95 96 98 104 109 113 116 116 111 107 104 100 96 94 89 89 88 87 85 84 83 83 83 83 83 84 84 86 87 88 89 90 91 91 91 91 90 90 89 89 89 90 92 94 96 97 98 97 95 93 91 89 87 84 83 83 84 85 87 90 94 99 106 113 118 120 118 116 116 118 122 127 130 128 126 119 110 101 96 93 89 86 84 83 81 80 80 80 79 78 78 73 66 65 66 66 65 65 65 64 64 64 63 63 63 62 62 62 61 61 61 61 61 60 59 56 54 54 54 54 54 54 54 56 63 74 76 77 78 79 78 79 82 85 87 89 91 93 93 94 96 100 102 103 105 105 106 110 114 119 123 127 132 136 139 143 148 152 152 152 156 161 166 170 174 179 184 188 192 196 199 203 208 214 221 226 230 233 236 239 243 247 252 256 260 261 259 257 254 249 245 244 250 252 250 248 245 242 242 242 244 246 249 254 260 269 280 288 293 296 297 296 293 290 286 284 286 288 288 287 287 291 295 299 304
218 217 216 211 203 193 183 175 168 163 158 153 150 150 152 153 151 150 150 150 153 158 160 163 167 172 177 183 189 195 198 200 207 216 222 227 231 237 243 251 258 265 272 276 278 282 285 287 291 298 301 303 307 313 318 322 327 331 335 341 345 348 348 345 341 339 339 341 346 348 350 352 354 355 353 350 345 342 342 344 344 345 348 348 348 349 354 359 363 365 364 364 363 360 359 356 352 348 346 344 343 339 336 332 327 325 321 317 315 314 313 311 308 304 301 295 295 297 301 303 302 298 295 294 294 294 291 289 288 288 287 284 279 272 264 257 250 244 240 239 240 240 242 245 249 252 253 253 256 261 267 274 280 284 291 298 307 315 320 322 325 327 329 330 331 328 323 318 313 308 301 294 288 285 283 285 286 284 281 280 281 279 278 277 278 280 281 284 285 283 281 277 272 266 259 253 247 242 238 234 230 227 226 230 237 242 244 241 238 235 232 230 228 225 219 212 205 200 197 196 195 195 193 192 192 191 189 188 189 191 193 193 195 199 203 203 202 200 195 189 185 184 184 185 185 184 183 180 176 172 167 160 151 140 128 114 100 90 86 85 80 76 75 76 76 74 75 86 97 96 97 105 110 117 128 134 130 130 133 134 134 133 132 131 128 125 123 123 123 125 129 131 133 134 134 132 127 120 112 105 98 94 94 92 89 88 89 92 103 112 114 115 115 115 115 114 114 114 118 121 123 125 126 126 125 123 120 119 123 127 129 132 133 133 131 128 126 129 132 134 135 137 139 144 151 161 171 175 173 173 179 188 194 194 187 182 181 181 188 191 189 185 182 181 177 169 163 164 170 175 178 178 173 171 177 183 187 187 184 178 173 170 166 167 169 168 166 166 166 162 158 152 146 145 143 139 137 137 134 132 126 122 117 113 111 109 108 107 107 108 108 108 108 108 108 108 108 107 107 107 107 107 107 107 107 110 114 119 121 118 113 112 112 113 117 119 120 121 121 123 123 124 126 127 128 130 132 133 133 132 130 127 124 123 122 123 126 126 126 126 126 125 125 122 117 113 111 110 108 109 109 109 110 111 111 114 120 126 133 134 129 119 106 95 87 81 80 80 82 91 99 105 109 111 113 114 114 113 113 113 115 117 117 120 120 119 117 117 116 116 116 118 118 118 118 118 118 118 117 117 117 121 124 124 120 119 123 130 138 148 156 160 163 163 158 150 139 128 115 106 104 102 101 100 99 101 107 114 118 119 119 117 115 111 106 102 101 101 99 97 95 95 95 95 97 98 99 103 108 113 116 116 112 107 104 100 96 94 93 92 90 89 87 86 83 83 83 83 83 84 85 86 88 89 90 91 91 92 91 91 90 90 89 89 89 89 90 92 93 94 94 94 93 91 89 88 87 85 84 84 85 85 87 89 93 98 104 110 115 115 113 111 112 114 117 120 122 121 116 109 102 96 92 90 86 83 82 80 79 79 79 79 79 78 77 71 66 65 65 65 65 64 64 64 63 63 63 62 62 62 61 61 61 61 61 61 61 59 55 54 54 54 54 54 54 54 55 60 70 76 75 76 77 78 78 80 83 85 88 89 91 91 92 94 96 100 102 103 105 106 107 112 117 122 126 130 134 139 142 143 146 148 149 153 159 163 168 172 176 180 184 189 192 197 200 203 209 214 221 228 233 238 241 243 243 245 249 253 257 258 257 255 252 247 242 242 249 252 251 248 244 241 241 242 244 245 249 252 257 263 269 277 283 286 288 287 285 280 275 274 278 280 282 282 284 289 294 298 303
220 218 216 212 205 196 186 178 170 164 159 153 149 149 151 151 151 151 150 150 153 157 160 165 171 176 181 188 194 200 203 205 212 220 226 231 236 242 249 257 264 271 276 281 284 288 290 292 296 303 306 308 311 313 316 317 321 325 329 335 340 343 343 341 340 339 340 343 346 346 347 349 350 350 347 343 340 341 342 343 345 349 351 349 349 352 358 363 365 365 364 364 363 361 360 358 354 351 349 347 344 340 336 332 327 325 321 318 317 317 316 314 309 304 300 296 295 296 299 301 301 298 296 294 294 293 291 290 289 288 287 285 280 275 267 260 252 246 242 241 241 242 242 244 248 250 250 251 254 258 265 271 276 279 285 294 303 312 317 320 324 326 329 332 333 333 329 323 316 309 303 295 290 287 286 287 288 287 285 282 281 281 282 283 285 287 287 289 291 290 288 284 278 272 265 258 252 246 241 238 233 227 224 226 232 237 239 236 233 230 227 224 222 218 213 209 207 205 203 201 201 201 200 200 198 197 196 196 196 196 197 198 201 204 206 205 204 202 198 194 190 189 189 190 190 188 186 183 180 177 172 166 158 148 137 125 111 102 97 90 84 85 86 84 79 74 74 80 89 91 97 105 110 114 124 129 126 126 128 130 129 127 126 125 123 122 122 123 124 127 132 134 134 134 132 129 124 118 112 108 103 99 96 92 88 86 86 88 95 107 113 114 115 115 114 113 113 114 116 120 122 123 124 124 123 122 118 118 124 128 129 131 131 129 126 123 125 131 131 131 132 135 138 141 147 157 167 170 170 170 174 183 189 190 183 177 175 180 186 187 184 180 177 176 172 166 160 161 166 171 174 174 169 167 174 180 183 183 181 176 170 165 162 164 166 164 161 162 162 157 151 147 143 144 141 135 132 132 129 126 120 116 114 112 110 108 107 107 107 108 108 108 108 108 107 107 107 107 107 107 107 107 107 107 107 110 112 116 119 117 113 112 112 114 118 119 120 121 122 124 125 127 129 130 132 134 136 136 135 134 132 128 125 124 123 124 126 126 125 125 125 125 124 121 117 113 112 111 110 111 111 110 110 111 112 114 120 126 132 132 125 115 104 96 87 82 80 80 81 90 97 104 108 111 112 113 113 113 113 113 114 116 117 119 119 120 118 117 117 117 117 118 118 118 119 120 120 119 118 118 122 127 128 126 122 121 123 131 139 149 157 161 163 164 158 148 137 126 114 106 103 102 100 100 99 102 108 114 117 117 116 115 113 109 104 101 100 99 98 96 95 95 95 96 98 100 100 103 107 112 115 115 112 107 104 100 97 95 96 96 95 93 90 88 84 83 83 83 83 84 84 86 88 89 90 91 91 92 91 91 90 90 89 89 89 88 88 89 90 90 91 92 91 89 88 88 87 85 85 85 85 85 86 88 92 97 102 107 110 110 108 107 108 110 111 113 114 112 107 101 96 92 90 87 83 81 80 79 78 78 78 79 78 77 75 69 65 65 65 65 65 64 64 63 63 63 62 62 62 62 61 61 61 61 61 60 59 55 54 54 54 54 54 54 54 57 60 63 76 76 73 74 76 77 78 82 84 86 88 89 89 90 92 94 97 100 102 103 105 106 108 113 119 124 128 132 137 141 143 145 146 147 150 155 161 165 170 174 178 182 186 189 192 197 200 203 209 214 221 229 236 241 244 246 246 247 249 252 255 256 255 253 250 245 240 240 246 252 250 246 242 240 240 241 244 245 248 250 254 259 262 267 273 278 280 279 276 271 266 268 270 273 275 277 281 286 292 298 303
223 219 216 212 205 197 188 178 170 164 158 152 148 148 149 149 150 151 150 150 153 157 161 170 176 182 187 194 200 206 210 213 219 227 234 239 244 251 258 265 271 276 281 286 290 293 296 298 302 308 311 313 316 315 315 314 316 319 325 332 336 338 338 338 338 339 341 343 344 344 343 344 345 344 342 339 338 339 341 343 347 350 352 352 353 357 361 364 366 366 364 364 363 362 361 359 357 354 352 349 346 342 337 333 328 325 322 318 318 317 318 316 311 304 299 296 295 295 296 297 297 297 296 293 293 292 291 291 290 288 286 285 282 277 271 264 256 248 244 242 242 242 243 244 247 249 249 250 251 255 260 266 271 274 281 291 301 309 315 319 324 326 329 333 335 335 332 325 318 310 303 297 292 290 288 288 288 288 286 284 283 284 285 288 291 293 294 296 298 297 294 289 283 277 270 263 256 249 244 240 234 227 224 224 228 232 234 232 229 225 221 218 216 213 211 211 212 213 212 211 210 210 209 208 206 205 203 202 202 200 200 201 203 205 206 205 205 202 200 197 195 194 194 194 194 192 189 186 183 181 176 171 164 156 147 136 126 117 111 103 101 102 99 94 85 77 74 78 83 87 92 98 106 113 120 124 122 124 126 126 125 124 123 120 119 120 122 125 125 126 131 134 134 133 130 126 121 116 111 109 106 102 97 92 87 84 84 86 90 100 109 113 114 114 114 113 113 113 115 118 120 121 122 123 122 120 116 117 124 127 128 129 128 124 121 122 128 131 128 128 130 134 137 137 144 154 163 165 165 165 168 177 183 184 178 172 174 180 184 182 177 172 171 170 168 163 156 157 162 166 168 168 164 164 171 177 180 180 178 174 169 162 158 161 162 159 155 157 157 151 145 142 141 141 137 130 127 126 124 122 118 113 112 110 108 108 107 107 107 108 108 108 107 107 107 107 107 106 106 106 106 106 106 107 107 108 111 114 116 115 113 112 112 114 118 119 120 122 123 125 128 130 132 133 135 137 139 139 138 136 134 130 125 124 124 124 125 125 125 125 125 125 124 120 116 113 113 112 112 112 112 111 111 112 113 115 120 125 130 130 123 113 103 94 86 82 80 80 83 90 96 102 107 110 112 113 113 113 113 113 114 115 116 118 119 119 119 118 118 118 118 119 121 123 126 128 128 125 122 123 128 132 131 127 125 124 124 131 140 150 157 162 164 164 156 146 134 123 113 105 102 101 99 99 99 104 109 113 115 115 115 113 111 106 102 100 99 98 96 95 95 95 96 98 100 102 103 105 109 114 115 115 111 106 103 100 98 99 101 101 99 97 94 90 87 83 83 83 83 84 84 85 88 89 90 91 91 92 91 91 90 90 89 88 88 87 85 85 86 87 89 89 89 88 87 87 86 85 85 85 84 84 85 88 91 95 100 103 105 105 103 103 104 105 106 107 106 104 99 95 92 90 87 84 81 80 79 78 78 78 78 78 78 76 73 67 65 65 64 64 64 64 64 63 62 62 62 62 62 61 61 61 61 61 61 59 55 54 54 54 54 54 54 54 57 63 66 65 72 74 72 73 74 76 79 83 84 86 87 88 89 89 92 95 98 100 102 102 102 105 108 114 121 127 131 135 140 143 144 146 147 148 152 156 161 166 171 175 180 183 187 190 192 197 200 203 209 214 221 230 237 242 246 247 248 249 251 252 254 254 253 251 247 243 239 238 243 249 249 245 241 239 239 241 244 245 248 249 251 254 256 260 264 268 270 270 267 264 264 267 269 269 272 274 277 284 290 296 301
224 220 216 213 205 198 189 178 170 163 157 152 147 147 148 148 149 150 150 150 152 157 162 171 179 185 191 197 204 210 214 217 223 231 238 243 248 255 262 268 274 279 284 290 294 297 300 302 306 310 314 316 317 316 314 314 315 318 324 330 335 337 337 337 337 340 341 342 343 343 342 342 342 342 340 338 338 339 340 344 348 351 353 353 354 358 362 365 366 366 365 365 364 362 362 360 357 355 353 350 347 342 338 334 328 325 321 318 317 317 318 317 311 305 299 296 295 295 295 296 296 296 296 293 292 291 291 291 291 288 286 285 282 278 272 265 257 249 245 243 243 243 243 244 247 249 249 249 251 254 259 263 268 273 280 290 300 308 314 319 324 327 330 334 336 335 333 326 319 311 303 297 293 290 288 288 289 289 287 284 284 285 286 289 293 297 297 299 301 300 297 291 285 279 273 265 257 251 246 240 235 227 223 223 227 231 232 230 227 223 219 215 214 212 211 212 215 217 216 215 214 213 213 212 210 208 206 205 204 202 201 202 204 205 206 205 205 202 201 198 197 196 196 196 195 194 191 188 185 182 178 172 166 160 151 141 132 124 118 110 109 109 104 98 88 78 74 77 82 85 88 95 105 112 118 121 121 123 124 125 124 123 121 119 117 119 123 126 126 125 130 133 134 132 129 125 120 116 111 110 107 102 98 91 86 84 84 86 89 97 107 112 113 114 114 113 113 113 114 117 120 120 121 122 121 119 115 116 124 126 127 128 127 123 120 121 128 130 126 127 130 134 136 136 142 153 161 163 163 162 165 173 179 181 175 170 174 181 183 180 173 169 169 169 167 162 154 155 161 163 165 165 161 163 170 175 179 179 176 173 168 161 157 159 160 157 153 156 155 150 144 141 140 139 135 129 124 123 122 121 117 112 111 109 108 108 107 107 107 108 108 108 107 107 107 107 107 106 106 106 106 106 106 107 107 108 110 113 115 114 113 113 113 114 118 118 120 123 124 126 129 131 133 135 137 139 140 140 139 137 134 130 126 124 124 124 125 125 125 124 125 125 123 119 116 113 113 112 113 113 112 111 111 112 113 116 120 124 129 129 122 112 103 93 85 81 80 81 84 91 96 101 106 110 112 113 113 112 112 112 113 114 115 118 118 119 119 119 118 118 118 120 123 127 130 132 131 128 124 125 131 133 131 128 126 125 125 131 141 150 158 162 165 164 155 145 133 122 113 104 102 100 99 99 99 105 109 113 114 114 114 112 110 105 102 100 98 98 96 95 95 96 97 98 101 103 104 106 110 115 116 115 110 105 102 99 99 101 102 102 101 98 95 92 88 84 82 82 82 83 83 84 88 89 91 92 92 92 92 91 90 90 89 88 88 87 84 84 85 86 88 88 88 88 87 86 86 85 85 85 84 84 84 87 90 94 99 102 104 103 102 102 102 103 104 104 103 100 96 94 92 89 86 83 80 79 78 77 77 77 78 78 77 75 71 66 65 65 64 64 64 63 63 63 62 62 62 62 62 61 61 61 60 60 60 58 55 54 54 54 54 54 54 54 58 66 69 66 70 73 72 72 74 76 80 83 84 86 87 87 89 89 93 96 99 101 102 102 101 104 108 115 121 127 132 136 140 144 145 146 147 149 153 157 162 167 171 176 181 184 187 190 193 197 200 202 209 213 221 230 238 243 247 248 249 250 251 253 253 253 252 250 246 242 239 238 242 248 248 244 241 239 239 241 244 245 248 249 250 252 254 257 261 265 266 266 264 262 264 267 269 269 271 274 276 282 289 295 300
229 223 218 213 205 198 189 178 170 162 156 152 147 146 145 146 149 150 150 150 151 158 167 176 185 193 200 206 212 217 222 226 232 240 247 252 257 263 269 275 280 285 291 296 301 304 307 309 312 315 318 319 319 317 316 314 314 316 321 327 332 333 333 334 336 338 338 339 341 342 341 339 338 337 337 337 338 339 341 345 348 351 354 357 358 361 364 365 366 366 366 366 364 364 362 360 359 358 356 352 348 344 340 335 329 325 321 318 315 315 317 317 313 307 301 297 295 294 294 294 295 297 296 293 291 291 291 291 291 288 287 285 283 279 274 267 259 250 245 244 244 244 244 245 247 249 248 247 249 253 257 260 265 271 279 287 297 306 312 319 325 327 331 335 338 338 335 328 319 311 303 297 294 292 289 289 288 288 287 286 287 288 290 294 298 303 305 306 307 305 301 294 288 282 277 270 262 256 249 243 235 228 223 222 222 225 227 226 222 218 215 213 213 213 215 217 221 222 222 222 221 221 220 219 217 214 212 210 208 205 205 205 205 205 206 205 205 202 201 201 201 200 199 199 198 197 195 192 189 187 183 177 172 166 158 149 141 134 130 124 120 115 110 103 93 82 75 74 77 79 82 90 102 110 113 116 117 120 121 121 121 120 117 114 115 121 128 127 123 121 125 130 131 129 126 122 118 115 111 110 108 103 98 91 85 83 83 85 87 92 101 108 113 113 114 112 112 113 114 116 118 120 120 121 120 116 114 117 123 124 125 125 124 120 120 121 125 125 123 127 130 133 132 131 137 149 156 158 158 157 160 167 174 174 169 167 174 180 181 177 168 165 165 164 163 159 152 150 155 158 160 159 156 161 166 171 174 175 173 169 166 158 152 154 155 150 148 150 149 145 141 137 135 133 128 124 120 119 118 117 114 112 111 109 108 108 107 107 107 108 108 108 107 107 107 106 106 106 106 106 106 106 106 107 107 108 109 111 113 113 113 113 114 115 118 118 120 123 125 129 133 135 137 138 140 142 144 144 143 141 137 132 127 124 124 124 124 124 124 124 124 124 121 118 115 113 113 113 115 114 112 111 111 112 113 116 118 122 126 126 120 110 99 88 83 80 80 82 87 91 95 99 105 109 112 112 112 112 112 112 113 113 115 117 118 119 119 119 119 119 121 125 130 136 140 140 138 133 129 130 134 136 134 130 128 126 127 131 141 150 158 163 165 162 153 143 131 118 110 104 101 99 98 98 99 104 108 111 112 112 112 110 107 103 101 99 98 97 96 95 95 96 97 99 102 106 108 107 112 117 116 114 109 104 102 100 101 104 107 107 105 102 98 95 90 86 82 82 82 82 82 84 89 91 91 92 92 93 92 92 90 90 89 88 88 87 84 83 83 83 85 86 87 87 86 86 86 85 85 85 84 84 84 86 89 93 96 98 99 99 98 97 98 98 99 98 97 95 93 91 89 86 83 81 79 78 77 76 76 76 78 78 76 73 68 65 64 64 64 64 64 63 63 63 62 62 62 61 61 61 61 61 60 60 60 57 54 54 54 54 54 54 54 55 63 71 72 70 70 72 72 73 75 76 81 83 84 85 85 86 89 90 93 97 100 102 102 101 100 103 109 116 123 129 134 138 142 144 145 147 148 150 153 157 162 167 171 176 181 184 188 190 193 197 200 202 208 213 220 230 238 244 247 250 251 251 252 253 253 252 249 246 243 239 237 236 240 244 245 243 239 239 239 241 244 245 247 248 249 250 251 252 256 259 261 261 260 261 265 269 271 273 275 276 277 280 285 292 298
234 228 222 215 206 198 188 178 169 162 156 152 147 144 142 143 148 150 150 150 153 162 172 183 192 201 208 215 221 226 231 236 241 249 256 261 266 272 278 282 288 294 299 304 308 310 314 315 318 321 323 322 320 318 317 316 315 316 320 324 329 330 331 333 335 336 335 337 339 340 339 337 336 336 336 336 338 339 341 345 348 352 356 360 361 364 366 365 365 365 366 366 365 365 363 361 361 361 358 354 350 347 343 339 333 328 324 319 315 313 314 315 313 308 303 298 294 292 292 293 295 297 295 292 291 291 293 293 291 289 287 285 283 279 274 267 260 250 245 242 241 243 244 246 247 246 246 246 249 254 259 262 267 273 279 286 295 303 310 318 322 326 331 336 338 339 336 328 318 309 302 297 294 292 289 288 288 289 289 288 289 290 294 299 304 309 312 313 313 310 304 297 290 285 279 273 265 257 250 243 236 230 225 222 221 221 223 223 220 217 215 216 218 218 221 224 228 228 228 228 228 228 226 225 223 219 218 216 213 209 207 207 208 207 206 205 205 203 203 203 204 203 202 201 201 200 198 196 194 191 188 183 178 172 165 157 149 142 137 131 126 120 115 108 98 87 78 74 74 74 76 85 100 109 111 112 114 117 119 119 117 115 112 110 115 125 132 128 122 118 121 125 127 126 123 120 117 114 111 110 108 103 98 90 84 83 83 85 86 90 98 107 113 113 113 112 112 113 114 116 118 118 119 119 118 113 114 118 122 123 123 123 122 120 119 121 121 120 121 125 127 129 128 127 135 145 152 154 152 152 154 160 166 166 160 165 174 177 176 172 165 162 162 159 158 156 150 144 146 151 154 152 153 159 163 166 168 169 168 165 162 156 149 148 147 144 142 144 142 139 135 131 129 126 122 120 118 116 115 114 112 111 110 109 108 108 107 107 107 107 107 107 107 107 106 106 106 106 106 106 106 106 106 107 107 108 108 109 111 112 112 113 114 116 118 119 121 123 126 131 136 138 140 142 143 145 147 148 146 144 139 133 127 124 124 124 123 123 123 122 122 122 119 117 114 113 113 116 118 116 112 111 111 112 113 115 116 120 123 123 118 106 95 86 81 80 80 83 88 92 94 97 102 107 110 110 111 111 111 111 113 113 114 116 117 119 120 120 121 121 123 128 135 141 146 145 144 139 132 132 136 138 136 132 129 127 128 132 141 150 158 163 164 160 151 141 128 114 107 102 100 99 98 98 98 103 107 110 110 110 109 108 105 102 100 99 97 97 96 95 95 96 98 100 104 109 111 111 115 119 116 112 107 103 102 101 105 108 110 110 108 105 101 97 92 87 82 81 80 80 81 84 90 92 92 92 92 93 93 92 91 90 90 89 88 87 84 83 83 83 83 83 85 85 85 85 85 85 85 84 84 84 84 84 87 90 93 94 95 95 94 94 94 93 93 93 92 91 90 87 85 83 81 80 78 77 76 75 75 75 77 77 73 69 66 65 64 64 63 63 63 62 62 62 62 62 61 61 61 61 60 60 60 59 57 54 54 54 54 54 54 54 54 60 69 73 73 72 71 74 76 76 76 76 81 84 84 84 83 84 87 90 94 98 101 102 101 99 99 103 109 117 124 129 135 139 143 145 145 147 149 150 154 157 162 167 171 176 180 184 188 191 193 197 200 203 208 213 220 230 239 245 248 251 252 253 253 253 252 248 245 243 240 237 235 235 237 241 242 241 239 238 239 241 244 245 247 248 248 247 247 249 251 253 256 256 258 261 266 270 272 274 277 279 280 280 282 289 295
235 231 223 216 206 196 184 174 166 160 156 153 148 143 141 143 148 150 149 150 157 167 179 190 200 209 217 223 230 235 240 245 249 257 264 270 274 279 284 289 295 302 307 312 315 317 320 321 323 324 326 325 323 322 321 320 318 317 319 322 325 328 329 331 334 334 333 334 337 339 338 337 336 336 337 339 341 341 343 346 349 352 357 361 364 365 366 365 365 365 366 366 366 365 364 362 362 363 360 356 353 351 347 343 337 331 327 322 317 312 312 314 312 308 304 299 294 292 292 292 294 296 294 292 291 291 293 294 292 289 287 283 279 276 271 266 258 249 242 240 241 242 244 246 246 245 244 246 251 258 264 269 274 279 284 289 294 301 308 315 319 324 330 335 338 339 335 326 316 308 302 296 292 290 287 287 288 289 289 289 290 293 297 303 309 313 318 319 318 314 308 301 293 287 281 274 266 258 250 243 237 232 228 225 223 223 224 224 222 220 220 221 223 224 227 231 234 234 234 234 234 234 232 230 226 222 220 220 218 213 211 209 208 208 207 208 207 207 206 206 206 205 202 201 201 202 201 200 199 196 192 188 183 177 171 163 155 148 143 136 129 123 117 111 103 93 83 75 74 74 74 80 95 107 110 111 112 113 114 115 112 107 106 109 117 129 132 127 121 118 119 121 122 121 120 118 116 114 111 110 108 103 96 88 83 83 83 85 86 90 98 107 111 111 111 111 111 113 115 116 117 117 117 117 115 110 114 118 121 121 121 121 120 119 119 119 119 119 120 121 122 124 124 125 134 141 147 147 144 145 149 154 157 156 155 163 170 172 171 166 160 157 158 155 152 151 147 139 139 143 146 146 151 158 160 160 162 163 162 160 157 153 145 142 141 138 137 135 133 130 127 125 124 122 119 117 116 116 114 112 110 110 110 108 107 107 107 107 107 107 107 107 106 106 106 106 106 106 106 106 106 106 106 107 107 108 108 108 109 112 113 114 116 117 119 120 122 124 127 132 137 140 142 144 147 149 151 151 150 148 142 134 128 124 124 124 123 123 122 121 121 120 118 117 114 113 116 119 120 118 113 111 111 111 113 113 114 118 122 122 115 103 90 83 80 79 80 85 89 92 93 95 101 106 108 110 110 110 111 111 113 113 114 116 117 118 119 119 121 123 126 131 136 141 147 148 146 141 135 135 137 140 139 135 131 128 128 132 140 149 158 161 161 156 148 137 125 112 104 101 100 99 98 98 99 103 106 108 109 109 107 105 102 101 100 98 97 96 96 95 95 97 99 101 106 111 114 114 119 120 115 109 106 102 102 103 108 111 113 113 112 108 103 98 94 88 83 80 80 80 80 82 89 92 92 92 92 94 93 93 92 91 91 89 89 87 86 84 83 83 83 83 83 84 84 84 85 84 84 84 84 84 83 83 84 86 88 90 91 91 91 90 90 90 89 88 87 86 85 84 83 82 81 79 77 76 76 75 74 74 75 73 69 65 65 65 64 64 63 63 63 62 62 62 62 62 61 61 61 60 60 60 59 57 54 54 54 54 54 54 54 54 56 65 72 73 74 75 75 78 80 78 76 76 80 84 84 83 83 83 87 90 94 98 100 100 97 95 98 103 110 118 124 129 135 139 143 144 145 147 149 151 154 157 162 167 171 175 179 183 187 191 193 198 201 204 210 215 221 230 239 246 249 252 253 254 254 252 248 244 242 241 238 235 233 233 236 239 240 239 237 237 239 241 244 245 247 247 246 246 245 246 248 251 253 256 258 262 267 270 273 275 278 282 282 281 281 285 292
