ncols         746
nrows         32
xllcorner     -73.09933
yllcorner     42.50789
cellsize      1.0E-5
NODATA_value  -9999
617 620 621 623 625 627 629 632 636 640 643 647 650 651 652 651 650 648 645 638 635 633 631 630 630 633 635 636 640 641 642 641 639 639 642 643 646 649 652 655 656 656 658 659 661 663 665 668 670 671 672 671 670 666 665 664 664 663 659 652 645 639 634 630 625 622 619 614 609 605 604 603 602 602 604 603 604 605 603 600 599 597 595 595 595 595 595 595 595 596 595 593 592 592 595 597 597 597 597 597 595 593 591 588 587 586 588 592 595 599 602 607 611 617 624 631 638 644 647 650 654 657 659 660 660 659 656 651 645 639 636 630 626 623 618 617 615 612 609 604 600 599 597 594 592 588 586 581 576 576 580 584 586 588 590 592 594 598 603 605 603 600 587 571 560 553 548 546 546 545 539 534 529 521 513 506 498 496 495 497 503 504 502 495 488 485 485 484 478 472 468 467 466 466 465 466 470 473 472 474 477 479 482 490 496 499 501 502 504 506 507 507 508 509 509 509 508 505 502 503 506 506 506 507 508 509 509 509 508 507 505 504 504 504 504 504 503 502 502 502 501 499 496 496 495 495 496 496 497 498 498 497 495 491 488 484 477 473 472 471 470 469 467 462 461 466 470 474 477 483 490 498 508 516 522 527 530 533 536 538 540 539 539 543 547 551 554 558 559 562 564 568 574 579 581 585 590 596 601 605 607 609 609 608 606 605 605 605 606 609 610 609 607 606 605 603 602 602 601 602 605 609 612 614 615 616 616 614 610 605 599 594 587 582 585 589 593 596 599 603 605 606 606 604 602 599 595 592 589 584 577 570 562 554 544 540 536 536 532 529 530 530 528 522 517 513 511 509 506 501 501 507 512 517 523 531 539 543 546 546 544 540 537 534 532 529 526 522 517 512 507 500 494 489 480 467 461 464 467 468 467 468 471 475 474 475 479 483 483 480 473 468 461 449 437 432 424 414 406 400 390 380 371 363 354 344 335 324 313 304 298 292 284 277 270 265 259 251 244 237 231 227 221 215 210 205 202 198 197 197 197 195 193 192 193 202 213 223 232 240 247 253 257 262 267 276 285 293 303 316 325 338 353 367 378 386 393 406 420 431 438 439 434 424 413 401 389 377 367 357 349 345 339 332 325 318 314 311 307 303 300 294 288 282 275 268 263 258 251 243 234 225 222 220 216 213 210 205 200 195 192 188 186 184 184 185 190 193 195 199 204 207 211 218 226 235 243 246 251 255 259 262 264 268 274 280 285 289 293 300 308 318 325 332 340 348 355 364 376 386 395 403 410 414 413 414 415 413 409 403 396 388 379 372 368 365 360 353 346 336 328 316 306 302 297 285 279 285 293 301 307 311 315 317 319 319 317 316 313 308 301 295 288 284 281 278 271 263 253 244 241 237 232 227 224 222 220 215 209 205 203 199 195 192 189 186 182 180 182 182 180 177 174 172 171 171 171 173 173 174 173 171 167 164 162 156 152 151 153 156 156 160 165 167 168 168 168 168 168 168 168 168 167 167 167 165 163 160 156 153 152 152 152 152 154 155 157 160 162 166 169 169 170 170 172 173 174 173 173 172 172 172 171 172 176 178 172 164 155 153 152 152 152 152 153 155 156 157 157 157 157 157 157 157 157 157 157 156 156 155 155 154 155 154 154 154 154 154 154 154 154 156 157 157 157 157 156 156 156 156 157 157 157 158 157 155
617 621 622 624 626 627 630 633 636 639 642 646 648 650 651 650 649 648 644 638 633 632 630 630 630 632 634 635 640 643 644 643 642 640 642 644 648 650 652 654 656 657 658 659 661 663 664 667 669 670 670 670 668 664 663 662 661 660 657 651 644 639 635 629 623 619 617 612 607 605 606 608 606 602 600 601 603 605 602 599 597 595 595 595 595 596 597 599 601 602 601 599 598 598 600 600 599 598 598 597 596 594 592 589 588 587 589 593 596 599 602 607 611 616 623 630 638 643 647 650 653 656 659 661 661 659 657 653 648 640 636 631 626 623 619 617 614 611 608 605 601 599 596 594 592 589 587 580 576 581 588 590 591 592 595 597 598 602 606 607 605 602 590 574 562 554 547 545 545 544 540 533 529 522 514 508 501 498 496 496 501 503 503 497 491 487 485 485 478 472 468 467 466 466 466 466 467 470 471 474 479 483 487 492 497 501 504 504 506 509 510 509 510 510 510 510 510 509 507 506 509 509 508 508 508 509 509 509 508 506 505 503 503 503 503 503 502 501 501 499 497 496 496 495 493 493 493 493 494 495 496 495 492 486 483 479 474 473 472 472 471 470 467 462 463 469 474 478 481 484 489 494 503 511 516 521 526 530 533 534 536 536 540 545 550 553 556 558 560 562 565 568 573 578 580 584 589 594 598 603 606 606 607 607 606 605 604 604 606 609 611 611 609 607 607 606 606 606 606 606 608 611 613 614 615 615 614 611 606 600 596 592 585 579 581 586 589 592 595 599 603 605 605 603 601 598 594 592 589 586 580 573 565 555 547 544 542 540 537 535 535 533 530 526 522 519 517 514 512 508 506 510 516 522 528 534 540 543 546 545 541 537 534 532 528 524 520 515 511 508 502 496 490 485 477 466 455 453 456 457 456 456 461 463 463 464 471 477 479 478 472 468 461 452 441 434 425 414 407 400 391 382 373 364 356 346 336 326 314 302 293 283 274 268 263 257 250 244 238 233 229 225 220 215 210 205 202 198 197 198 197 195 192 192 196 206 217 226 235 242 249 255 260 266 272 278 286 292 301 314 324 335 349 362 373 381 387 403 420 430 435 435 428 418 405 393 381 370 361 351 342 337 331 324 317 309 304 301 298 295 292 287 282 278 272 266 261 255 249 243 235 229 229 227 222 216 212 207 202 196 192 188 185 184 184 187 192 196 199 203 207 212 218 225 233 242 249 252 257 261 264 267 270 273 279 286 291 294 298 305 314 322 329 337 345 354 363 371 382 393 398 407 418 421 420 420 420 418 414 410 401 391 382 377 374 371 366 359 351 342 334 323 315 311 305 295 285 285 293 303 310 314 318 322 324 324 324 323 321 317 312 303 296 292 289 284 278 271 261 252 249 245 239 233 230 229 228 224 219 216 212 208 204 201 197 192 189 189 189 188 187 184 181 176 174 173 175 178 180 182 182 179 174 171 168 165 162 157 153 152 152 155 160 162 163 164 166 167 167 167 167 167 166 163 160 158 154 152 152 151 152 154 156 157 158 161 164 167 169 170 172 172 172 172 173 174 175 174 173 175 177 176 174 178 184 185 183 175 164 158 153 152 152 152 152 153 154 155 155 156 156 156 156 156 156 155 155 154 154 154 154 153 152 149 146 146 146 146 146 146 146 147 149 150 151 151 151 151 151 151 151 152 151 150 149 146
618 623 626 626 627 628 630 634 636 639 641 644 646 648 648 648 648 647 643 637 633 631 630 629 630 632 634 635 640 644 646 647 646 643 642 645 648 651 652 654 657 659 659 659 660 662 663 665 666 668 668 668 666 664 663 661 659 657 654 647 642 638 633 628 623 619 616 610 606 607 611 612 609 603 599 599 602 605 602 599 597 594 594 595 595 597 601 603 605 607 606 604 604 605 603 602 601 600 600 599 599 597 594 592 591 588 590 593 596 600 602 607 611 615 621 628 635 641 645 648 651 654 658 661 661 659 657 654 648 641 636 631 628 623 620 618 615 611 608 605 601 599 596 595 594 592 587 580 580 587 592 595 595 597 600 602 603 605 608 610 607 604 597 579 566 556 549 543 542 542 540 533 529 523 516 511 505 499 496 496 499 502 502 499 494 487 485 485 479 472 468 467 466 466 466 466 466 468 471 474 480 485 489 495 498 503 506 508 509 510 512 512 512 511 512 511 511 510 510 510 510 510 510 509 509 510 509 509 508 506 505 503 502 501 501 502 501 501 501 499 497 496 495 494 493 491 491 491 492 493 493 493 490 484 479 475 473 473 472 472 472 470 466 463 465 472 477 482 486 489 491 495 501 507 512 516 521 525 527 530 533 536 542 548 551 555 557 559 560 562 565 568 572 576 578 582 586 591 595 599 602 604 605 605 605 604 603 603 605 608 611 611 609 609 608 608 608 608 608 608 610 611 612 613 613 614 614 609 602 597 593 589 583 578 579 583 585 589 593 597 600 602 602 601 599 596 593 591 589 586 581 573 566 557 552 551 548 544 539 536 534 532 530 527 525 525 523 520 517 513 511 512 519 526 531 535 539 542 544 543 540 536 533 531 526 521 515 508 505 502 496 491 486 480 472 462 451 443 444 446 445 445 448 450 450 451 459 467 472 473 470 467 461 453 443 435 425 415 407 400 391 383 375 366 357 347 336 326 314 302 292 283 275 267 260 254 247 240 234 228 224 221 217 213 209 205 202 199 199 198 197 195 192 192 197 210 220 228 236 243 251 256 263 270 277 282 288 293 301 312 321 332 345 356 368 380 388 404 420 430 433 431 422 409 397 386 373 363 353 345 335 328 323 317 311 306 295 292 291 289 286 282 278 274 269 264 259 253 249 243 237 236 236 233 227 220 214 208 202 196 192 188 185 186 188 191 196 201 204 206 211 218 225 232 240 248 256 259 263 266 270 273 276 278 284 291 296 299 304 310 318 326 333 343 352 362 371 379 388 397 404 413 422 424 425 424 424 423 421 416 407 395 388 385 381 376 370 365 357 348 338 330 323 319 313 305 294 288 293 305 312 317 322 326 329 331 331 331 329 327 323 314 307 302 299 293 286 277 268 262 258 253 246 241 239 238 236 233 230 227 223 219 214 209 203 197 197 197 196 194 191 188 184 180 179 177 179 183 185 187 186 184 181 179 176 172 168 165 162 157 153 151 152 152 153 155 158 160 160 161 161 160 159 155 153 153 152 152 154 156 159 162 164 163 164 169 171 173 174 175 176 175 174 174 174 176 176 175 178 182 185 181 179 183 187 188 187 180 168 161 159 156 153 152 152 152 153 153 153 154 154 154 153 153 153 154 154 153 153 153 154 153 151 150 146 146 146 146 146 146 146 146 145 145 145 145 145 145 145 145 147 146 145 144 144 145
621 627 630 628 630 630 631 634 636 638 640 642 645 646 647 647 647 646 641 635 632 630 629 628 629 632 634 635 641 645 648 649 649 647 644 645 649 651 652 654 657 659 658 658 660 661 663 664 665 666 666 665 665 663 663 661 659 657 654 648 642 638 634 628 622 618 615 610 609 611 612 612 609 603 600 598 600 604 601 598 596 594 594 595 595 598 603 605 607 608 608 609 609 608 606 606 604 604 602 600 602 601 599 594 592 591 590 592 595 600 602 606 610 615 620 626 633 640 644 647 649 652 656 660 661 659 657 654 648 641 635 631 627 623 621 618 616 612 608 605 600 599 596 594 593 592 583 581 586 592 596 598 599 601 605 607 607 608 609 610 610 604 599 584 571 559 550 543 539 538 539 535 531 525 518 512 505 500 497 497 498 501 503 501 495 489 484 484 479 472 468 467 466 466 466 466 467 469 471 474 480 485 491 497 500 505 508 510 512 514 515 514 513 513 512 512 512 511 511 511 511 511 510 509 509 509 509 509 508 507 505 502 501 499 500 500 500 501 502 502 501 497 495 494 493 492 491 491 491 492 493 492 489 483 476 474 473 473 472 473 474 472 467 465 468 474 481 487 491 496 500 503 507 509 512 515 518 521 525 530 535 538 543 549 553 556 557 560 560 562 564 567 571 575 577 580 583 588 592 595 598 600 601 602 602 602 602 603 604 607 609 609 609 609 608 608 608 608 609 609 609 611 612 612 613 613 611 606 599 594 590 586 581 576 576 579 582 586 591 595 598 600 600 599 597 594 590 587 586 584 579 573 566 561 557 556 551 545 538 533 529 527 527 526 526 526 526 524 521 518 515 516 523 529 532 535 537 539 540 541 539 536 534 531 527 523 516 507 502 498 494 490 482 475 465 455 444 432 432 435 433 434 437 439 439 439 446 454 460 464 464 463 460 452 442 435 425 415 407 399 391 382 374 366 356 346 336 326 314 301 290 284 276 268 262 257 250 243 236 228 223 218 214 209 206 203 202 200 199 198 197 196 196 196 199 211 221 230 237 245 253 258 266 274 281 286 291 297 304 312 320 327 340 354 366 381 391 406 421 431 432 425 414 402 389 376 364 355 347 337 328 319 314 310 309 301 290 286 284 283 280 276 274 270 265 261 257 252 248 243 240 242 241 237 231 223 216 209 202 197 192 189 188 190 192 194 200 205 207 210 216 224 231 238 248 256 263 266 270 273 276 280 281 284 290 297 302 305 309 316 323 331 340 349 359 369 378 387 397 405 411 417 425 428 428 428 427 428 428 422 411 400 395 392 388 382 376 369 361 352 342 336 331 326 320 313 303 293 294 305 314 320 325 330 334 337 338 338 337 334 330 325 318 313 307 302 294 285 277 272 267 262 255 250 249 248 246 243 240 237 233 229 223 217 210 206 204 203 201 200 196 193 188 184 183 180 181 185 187 187 187 186 186 185 184 181 176 173 170 166 163 160 155 152 151 151 152 153 154 154 153 152 152 153 154 156 159 162 165 167 169 171 172 170 169 174 178 179 180 181 182 181 179 178 178 179 177 176 178 182 185 183 183 185 187 188 185 176 167 166 166 164 162 159 157 155 154 154 154 154 154 154 154 153 154 154 155 155 156 156 157 158 157 155 153 151 148 148 148 147 146 147 146 145 145 146 145 144 145 144 146 145 146 148 150 151
627 631 633 631 631 632 633 634 636 638 639 640 642 644 645 645 645 643 639 635 631 629 628 627 629 632 634 635 640 645 649 651 651 649 645 645 648 650 652 655 658 659 658 656 658 660 661 662 663 664 665 665 665 664 664 663 662 660 657 653 646 641 637 633 626 620 616 615 613 612 612 611 607 603 600 598 598 600 599 597 595 594 594 595 595 599 605 607 609 610 611 612 612 612 612 610 607 607 605 604 605 605 601 596 596 596 593 593 595 600 603 606 610 613 619 625 631 638 642 644 647 649 653 656 658 659 657 655 647 640 634 629 625 622 620 617 616 613 610 607 603 599 597 594 590 586 583 585 590 595 600 602 605 607 608 610 611 611 609 610 611 604 599 585 572 562 552 543 540 535 535 535 533 524 517 510 505 502 498 497 497 501 503 502 494 487 483 482 478 470 467 467 466 466 466 467 468 470 472 474 480 485 491 499 502 506 509 512 514 515 515 515 514 514 513 512 512 512 512 512 511 511 510 509 508 509 508 508 508 507 504 501 498 497 498 499 500 501 502 504 504 502 498 495 492 492 491 491 490 490 492 491 487 482 476 477 477 474 473 474 475 473 467 466 470 477 484 491 496 502 508 511 514 517 519 521 521 522 528 534 538 543 547 550 553 556 558 560 560 561 563 566 569 573 575 577 581 584 587 591 594 596 597 598 599 599 601 603 604 605 606 607 607 608 607 607 607 607 608 608 608 609 610 611 612 611 608 603 596 591 587 583 578 574 573 576 580 584 587 591 594 597 598 598 595 591 587 583 583 582 578 573 568 565 562 559 552 543 533 527 523 522 522 523 524 526 526 524 522 521 520 521 526 529 531 533 534 536 538 539 537 535 534 532 529 525 518 510 506 502 497 491 483 475 463 451 438 425 421 422 421 423 425 427 427 426 432 440 447 452 456 458 455 449 440 433 424 414 406 398 389 380 372 364 355 345 335 326 312 299 290 285 277 269 262 256 250 243 237 230 226 222 216 210 205 202 201 199 198 197 197 197 198 199 202 213 222 231 238 245 254 261 268 278 285 290 295 301 308 315 321 327 340 355 368 383 393 409 423 430 428 418 405 392 377 365 356 347 337 329 321 312 308 307 303 295 286 280 278 276 274 271 267 263 260 258 255 250 246 243 243 245 245 240 234 226 218 210 202 198 193 190 191 194 195 199 204 208 211 217 223 229 236 245 257 265 271 273 276 279 282 285 286 289 296 303 307 311 315 321 328 337 347 357 367 377 387 398 408 415 419 423 428 431 431 431 431 434 434 425 414 403 400 396 393 388 381 372 363 353 345 339 336 332 326 319 310 299 297 306 316 322 328 333 339 342 343 344 345 343 340 335 330 324 318 311 302 292 286 282 276 269 262 260 260 259 257 255 251 247 243 239 233 225 220 216 212 209 207 205 202 197 192 188 186 183 182 186 188 188 188 188 188 188 188 187 186 183 177 173 172 168 165 162 159 156 154 153 153 152 152 153 155 158 163 165 168 171 174 177 178 179 180 178 173 179 185 184 184 187 189 189 185 181 181 181 180 178 178 180 182 182 184 186 186 187 181 174 172 173 174 174 173 172 169 164 163 162 160 159 159 159 159 159 161 163 165 166 168 169 170 171 171 169 167 163 159 156 155 154 154 155 152 149 148 148 148 151 151 151 151 151 153 155 158 161
632 635 637 635 633 633 634 634 636 637 638 639 640 641 642 641 641 641 638 635 631 630 627 627 629 632 633 635 639 645 651 653 653 651 648 646 648 650 652 654 657 659 657 653 656 659 660 660 661 663 666 666 665 665 665 665 665 664 659 653 647 643 640 635 628 621 620 619 617 614 612 610 605 602 599 597 597 598 598 596 595 594 594 595 595 599 606 609 611 611 613 614 615 615 615 613 611 610 606 605 608 608 603 603 603 601 597 597 596 600 604 606 610 613 619 625 630 636 640 642 644 646 649 652 654 656 657 655 648 640 633 629 625 621 615 612 612 612 611 608 604 600 599 594 589 585 587 590 593 599 602 606 610 612 614 615 615 612 607 608 611 604 599 588 575 564 551 541 539 534 531 534 532 524 517 511 508 505 499 496 496 500 502 501 494 487 482 480 475 468 467 467 466 466 466 468 473 475 475 477 481 487 491 499 503 508 511 512 514 515 515 516 515 515 513 513 513 512 512 512 511 511 511 508 508 509 508 507 507 506 503 500 498 496 497 498 498 500 502 503 504 504 501 497 492 491 491 491 489 489 490 488 484 480 479 481 480 478 477 476 475 472 467 466 471 479 488 495 501 507 512 517 521 524 526 527 526 526 530 536 541 545 549 552 555 556 558 560 560 560 562 564 567 570 573 574 578 581 583 587 590 592 594 595 597 598 601 602 604 604 604 604 605 606 605 605 605 606 606 605 604 604 607 608 608 607 605 600 595 591 587 583 578 573 571 574 577 580 583 586 590 593 595 596 594 589 586 582 579 579 577 574 570 567 563 561 552 542 531 524 520 519 519 519 520 522 522 521 520 521 523 524 526 528 530 531 531 533 535 536 535 533 532 531 529 526 521 516 512 508 500 494 485 477 465 452 438 425 415 412 410 413 415 415 413 413 418 426 434 440 445 448 446 442 434 428 420 412 405 396 386 377 369 362 353 343 334 325 311 300 292 285 277 268 261 255 249 242 237 232 227 223 216 211 206 202 198 196 196 196 197 198 199 201 206 216 225 233 240 248 256 263 272 281 289 294 299 304 310 317 324 332 344 357 370 384 395 409 423 428 424 411 396 382 367 356 348 338 327 320 313 305 302 301 296 289 283 277 272 268 267 263 258 255 255 254 251 248 244 244 245 249 247 243 236 229 220 211 206 200 194 192 195 197 199 203 207 212 218 224 230 235 244 255 266 272 277 278 282 285 288 290 292 296 303 308 312 316 321 326 334 344 354 365 375 384 396 408 416 423 427 429 431 434 435 435 435 438 436 427 417 408 404 401 397 392 387 378 368 358 348 345 341 336 332 325 316 306 301 308 318 324 330 336 342 345 348 349 351 352 351 346 340 334 327 320 310 300 296 292 286 277 272 271 270 269 267 264 261 258 254 248 241 235 231 227 221 215 212 209 206 201 195 193 192 189 186 187 190 191 190 190 192 192 192 192 191 189 185 183 182 178 175 173 170 167 164 162 161 160 161 163 165 168 171 176 179 182 185 187 188 188 187 184 177 182 188 187 187 191 196 196 192 187 185 185 183 180 179 179 180 182 184 186 187 186 180 179 182 183 183 183 183 182 179 174 174 177 175 174 173 173 173 174 175 179 181 182 183 184 185 185 184 182 179 173 168 165 165 164 164 163 160 157 156 155 155 156 157 157 156 156 156 160 163 168
634 639 641 638 634 633 633 634 635 636 637 638 638 639 639 639 639 639 637 635 631 630 626 626 629 631 633 634 639 646 652 655 654 652 649 647 648 650 652 653 655 656 654 652 654 656 656 656 659 662 666 667 666 666 668 667 667 666 661 653 649 646 642 636 629 623 623 622 618 616 612 609 605 601 598 595 595 595 595 595 594 595 595 595 595 599 606 610 613 614 616 617 617 618 617 617 615 613 610 609 611 611 605 607 607 605 602 602 600 600 607 609 611 614 619 625 629 635 637 639 641 643 646 648 650 653 655 654 648 640 633 629 626 621 614 611 611 610 610 608 605 601 599 593 588 587 592 595 597 601 605 610 616 619 620 620 618 613 607 604 607 603 599 589 575 563 548 538 535 532 527 531 530 525 518 512 509 504 499 495 495 497 497 496 493 486 480 477 473 467 467 467 467 467 468 471 476 478 478 480 482 487 492 499 504 509 512 512 514 515 515 516 515 515 514 513 512 512 511 511 511 510 510 509 508 508 508 506 506 504 502 500 497 495 496 496 497 498 500 502 503 504 502 499 495 491 491 491 489 486 486 485 483 481 481 482 481 480 479 476 474 471 466 466 472 481 490 498 505 512 518 525 529 531 532 533 531 529 532 537 541 548 550 554 556 556 557 559 559 559 561 562 565 567 570 571 575 579 581 584 587 591 593 595 597 599 601 602 603 602 603 602 602 603 603 603 603 604 604 603 600 599 601 603 603 603 601 597 593 591 590 585 580 574 569 571 574 577 579 581 585 589 592 594 593 590 587 582 578 575 574 574 571 567 563 561 552 543 533 527 522 520 519 518 516 518 518 518 519 520 522 523 525 527 528 529 529 530 532 533 533 532 531 530 529 527 524 521 517 511 503 494 486 477 466 452 438 427 414 402 399 402 404 404 401 401 406 413 420 427 431 434 434 432 426 422 416 408 402 393 383 371 364 358 349 340 332 324 310 300 292 285 277 267 259 254 249 242 237 232 227 222 216 211 205 200 197 196 196 196 197 199 200 203 211 220 227 234 241 250 258 266 276 285 293 299 304 308 313 319 327 338 349 360 372 385 395 408 422 425 418 402 389 376 359 346 338 328 319 312 307 300 294 292 288 283 279 275 268 262 260 256 251 250 250 249 247 245 244 244 247 251 250 245 239 231 223 215 208 199 195 196 199 200 202 206 212 219 226 232 236 244 254 265 272 277 281 283 286 290 294 297 300 303 308 314 318 322 326 333 342 352 363 374 382 393 406 416 425 430 433 433 434 436 438 438 438 441 438 430 422 414 408 405 400 395 391 384 373 361 355 352 346 340 336 330 322 313 304 309 320 326 333 339 344 349 353 356 359 362 362 358 350 342 335 327 318 309 306 302 296 286 281 282 280 278 275 272 270 268 263 257 249 244 241 237 231 223 217 213 209 204 200 199 198 195 191 192 194 194 192 194 196 196 196 196 196 194 191 189 190 187 185 184 181 177 173 171 169 169 170 172 174 177 182 187 192 195 196 196 196 195 192 188 181 183 190 190 190 195 201 203 198 191 188 187 187 184 180 179 180 183 185 187 188 186 183 185 188 190 190 190 190 189 186 182 184 188 187 185 184 184 185 185 185 189 193 197 198 199 199 199 198 194 188 181 174 173 174 174 173 171 168 165 164 162 161 160 159 158 157 156 157 162 168 176
637 641 642 639 635 633 632 632 633 635 636 636 636 637 637 638 637 637 636 634 631 630 627 623 628 630 632 634 639 647 654 657 657 653 650 649 648 650 651 652 653 652 652 652 652 653 653 654 659 662 666 668 669 669 671 672 669 667 663 654 650 646 642 638 630 626 625 623 620 617 612 610 606 601 598 595 595 595 595 595 594 595 595 595 596 599 607 611 614 615 617 619 619 620 620 620 619 616 611 611 612 613 609 611 611 608 607 607 603 601 608 611 613 616 620 625 629 634 636 638 639 640 641 643 644 647 649 651 646 640 633 629 625 622 614 611 611 610 610 606 603 598 594 591 590 593 597 599 600 603 608 615 622 626 628 625 620 614 607 601 601 601 597 588 575 562 548 538 534 531 526 527 526 522 518 512 508 503 497 492 491 493 493 489 487 481 474 473 469 467 467 467 468 472 474 475 479 482 484 485 485 488 493 500 505 509 512 512 513 515 515 516 515 515 514 513 512 511 510 510 510 510 510 509 507 506 505 503 504 502 500 498 496 494 495 495 496 497 498 500 502 502 501 499 497 492 491 490 488 486 485 484 483 482 482 482 481 481 479 475 471 467 465 468 473 481 491 501 509 517 525 532 536 538 539 538 535 532 533 537 542 548 550 554 556 556 557 557 557 558 560 561 563 565 567 571 577 580 583 585 588 592 594 596 598 600 602 603 602 601 600 599 599 600 599 599 599 599 599 598 596 594 595 597 598 598 598 594 593 592 590 586 581 575 569 568 570 572 574 576 580 585 589 591 592 590 589 584 579 574 570 569 569 566 563 560 552 544 538 533 528 526 522 519 516 514 515 516 517 519 519 521 522 524 525 526 527 528 530 531 531 531 530 529 529 527 525 521 518 512 504 496 486 477 466 453 437 426 414 398 389 390 392 391 388 388 395 401 407 413 418 422 423 422 418 415 410 405 397 388 377 365 358 352 344 335 328 321 309 299 291 283 274 266 258 254 249 242 237 231 227 221 215 209 203 198 197 197 197 197 198 199 201 205 214 223 228 234 243 252 260 269 280 289 297 303 308 312 316 321 329 341 352 362 374 386 395 408 419 420 410 395 382 368 354 339 328 321 313 305 300 295 288 285 281 277 274 271 264 258 255 253 252 251 250 249 247 245 245 246 249 252 252 248 243 235 228 220 209 199 197 199 201 202 204 210 218 226 233 240 246 254 263 271 276 281 285 288 292 296 300 303 307 309 314 319 323 327 332 341 352 362 373 382 391 403 415 425 433 436 436 436 436 436 438 440 441 443 440 432 425 417 411 408 403 398 393 387 376 367 363 358 352 345 339 334 327 317 308 312 322 329 335 341 347 352 358 362 366 369 368 365 359 350 343 334 326 319 317 313 306 297 292 292 291 289 286 283 280 276 272 267 259 255 251 246 240 233 225 219 213 207 205 206 205 202 196 195 198 199 198 197 200 201 201 201 201 199 197 195 196 194 193 192 190 187 184 182 180 178 179 183 183 188 195 201 204 205 205 205 202 199 195 190 184 185 192 193 192 196 202 204 200 195 191 191 191 190 186 183 181 184 185 188 190 189 186 187 191 194 196 196 196 195 193 190 189 191 193 193 193 194 194 194 193 196 202 208 211 211 212 212 210 204 198 188 182 180 182 182 182 180 177 174 172 170 167 165 163 160 159 158 160 166 175 183
639 641 641 639 635 632 630 629 631 633 634 634 634 635 636 636 635 634 634 633 631 630 627 623 625 629 631 634 640 648 654 658 658 654 651 651 650 651 651 651 652 652 652 652 652 653 653 654 659 663 667 671 672 672 673 673 670 668 664 657 650 646 643 639 631 627 626 623 620 616 612 609 605 601 599 595 595 595 594 594 594 595 595 595 597 600 608 612 615 617 618 621 622 622 622 623 623 619 615 614 615 615 612 613 614 611 612 612 608 604 610 613 615 616 621 626 629 632 635 636 637 638 638 638 640 641 642 644 643 639 633 628 624 621 614 611 611 611 611 605 599 596 595 595 595 598 600 602 603 606 611 620 627 631 632 629 624 617 610 601 592 595 592 584 574 562 548 538 534 530 525 522 522 519 514 509 506 501 496 492 491 486 484 481 479 474 473 473 469 467 467 468 474 476 478 480 486 487 489 490 489 490 494 501 506 509 512 512 513 515 515 516 516 516 514 513 511 510 509 509 510 509 509 509 506 504 502 502 503 501 499 496 495 493 492 492 494 496 497 498 500 500 500 499 499 494 491 489 488 487 486 485 485 484 483 483 481 481 479 475 471 466 465 469 476 484 494 504 513 524 534 539 542 543 542 541 540 536 533 537 542 548 550 553 555 555 556 555 555 556 558 560 562 565 568 574 579 583 586 589 591 594 596 598 599 601 603 604 603 601 600 598 596 596 596 595 595 596 596 595 592 591 591 592 593 594 593 592 592 593 591 589 584 578 573 567 565 567 569 572 576 580 584 587 589 590 590 586 582 577 570 565 565 564 561 558 553 548 543 538 535 532 528 524 520 515 513 513 514 515 515 516 519 520 522 523 524 525 527 528 529 529 529 528 528 526 524 521 517 512 504 496 486 477 465 453 437 426 414 400 387 378 378 379 377 377 384 389 395 401 407 410 412 412 410 409 405 399 392 383 370 357 352 346 338 331 324 315 305 297 290 282 273 265 258 254 249 242 237 230 225 218 212 206 200 197 197 197 197 198 199 200 202 207 217 225 230 236 244 254 264 273 283 293 300 306 312 315 320 325 332 344 354 365 376 387 396 406 415 413 401 389 374 359 345 332 321 316 309 300 293 289 285 280 275 270 267 264 260 256 255 256 257 255 252 251 249 248 248 247 250 252 252 250 246 239 231 222 210 201 199 200 202 204 207 215 225 232 240 248 256 262 268 274 280 285 292 295 299 303 306 309 313 315 318 324 328 333 341 351 362 373 382 392 402 413 424 433 438 441 440 438 437 437 438 440 442 443 441 434 427 419 414 410 405 400 394 388 379 372 368 363 357 349 342 337 331 321 311 313 323 330 337 343 349 355 363 367 371 374 375 372 366 358 350 341 333 329 327 323 317 308 304 304 303 301 299 295 292 287 282 274 269 266 262 256 248 241 233 225 217 212 212 213 212 209 201 200 203 204 203 202 204 206 207 208 208 206 204 203 203 201 200 201 199 198 196 195 192 189 190 194 194 200 207 211 214 214 213 211 207 201 198 193 186 186 195 198 198 199 201 202 201 197 197 197 197 196 193 189 186 185 186 190 192 195 194 191 194 199 201 201 202 200 199 197 194 196 198 199 198 199 201 202 202 203 209 215 217 218 220 221 219 214 206 195 189 187 188 189 188 186 183 181 179 176 172 169 166 162 160 160 163 170 179 186
640 640 640 637 634 631 629 628 628 631 632 632 632 633 634 635 634 632 632 632 631 630 626 623 623 627 630 634 642 648 654 657 658 654 651 650 649 650 650 651 651 651 652 652 653 653 653 655 659 664 670 674 676 675 675 675 671 669 666 662 655 648 643 639 632 628 626 623 619 615 611 608 604 601 599 595 595 595 594 594 594 595 595 596 598 603 609 613 616 618 620 622 623 624 624 625 624 621 617 617 618 618 615 616 617 615 617 617 612 607 611 614 616 617 622 626 629 631 633 635 635 636 635 635 636 637 637 638 639 637 632 627 622 617 614 610 610 611 611 607 598 598 600 599 599 601 602 604 605 609 615 623 630 633 634 632 627 619 610 601 590 586 584 578 571 562 548 538 534 530 525 522 521 517 514 510 508 504 501 498 497 490 487 482 481 481 480 476 472 467 467 471 478 481 484 489 491 491 494 495 494 492 496 503 507 511 513 513 513 515 515 516 516 516 513 510 510 509 509 508 508 507 507 507 504 502 500 499 499 499 497 495 493 492 491 490 492 494 495 496 497 498 499 499 499 495 491 489 486 486 487 486 486 485 483 483 481 481 480 476 471 467 466 470 479 489 498 509 519 531 540 545 547 547 546 544 542 539 535 537 542 547 550 552 553 555 557 553 552 554 555 558 563 567 571 576 580 584 588 590 592 596 599 601 602 604 605 605 604 602 600 597 593 592 592 591 592 593 593 592 590 588 586 585 587 588 588 589 592 594 593 592 588 583 577 570 564 563 565 568 571 574 578 580 584 588 589 588 583 578 571 563 561 560 558 557 554 551 548 544 541 538 533 529 525 519 514 513 513 512 512 513 514 515 516 518 520 522 524 526 527 527 526 525 523 523 521 519 516 511 504 495 486 476 464 452 438 426 413 404 391 376 367 365 364 365 371 378 384 390 395 400 402 402 402 400 395 390 386 377 365 353 345 339 331 325 318 309 301 295 288 280 271 264 257 254 249 242 237 230 224 218 211 203 198 197 197 199 200 200 201 202 203 209 219 226 231 238 246 257 267 276 286 295 302 310 315 319 324 330 338 346 355 366 377 388 396 404 411 407 394 381 366 352 340 330 319 310 303 297 290 285 282 279 274 268 263 261 259 259 260 262 263 261 257 254 252 251 250 249 251 253 252 251 248 242 234 224 212 205 202 201 204 208 214 223 232 240 248 256 261 267 273 279 286 292 298 301 304 308 312 315 319 323 326 330 335 341 350 360 372 382 392 402 412 421 431 439 443 445 445 441 438 437 438 441 442 443 441 435 428 420 414 410 407 402 396 390 384 378 373 367 361 354 347 340 334 325 315 316 324 332 339 346 353 359 366 370 375 380 383 381 374 366 357 347 339 337 334 332 327 320 316 316 315 313 311 308 304 300 293 284 279 276 271 266 258 249 241 232 223 219 219 218 217 213 207 205 208 208 208 207 209 211 213 214 214 212 210 209 210 208 208 208 208 207 206 205 203 199 199 204 206 210 216 218 218 218 218 214 210 205 200 194 188 189 197 201 202 202 202 203 202 200 200 203 203 203 200 196 193 190 188 192 198 205 205 197 197 203 206 207 208 207 206 204 201 200 203 204 204 204 206 208 210 210 213 221 226 227 230 231 229 224 214 203 196 193 193 194 193 192 190 187 184 180 176 171 169 165 160 162 166 175 181 187
640 639 639 636 634 630 628 626 626 628 629 629 628 630 632 632 631 629 629 630 630 630 627 622 622 625 628 634 641 648 654 656 655 652 650 649 649 649 649 650 651 651 652 653 653 653 653 656 660 665 671 676 678 677 677 678 674 670 668 665 659 650 643 638 632 629 627 623 619 614 610 607 603 599 597 595 595 595 595 595 595 595 596 598 602 606 611 615 618 620 622 624 625 626 626 626 625 622 619 620 620 620 618 620 621 620 621 621 616 612 612 615 618 619 622 625 628 631 631 632 633 633 633 632 632 633 633 633 634 633 631 627 622 616 612 610 609 610 610 604 599 603 605 604 604 604 605 606 609 614 619 626 632 636 637 636 629 618 608 599 588 578 575 573 568 562 549 538 534 530 528 524 522 519 517 518 517 511 505 504 502 497 496 490 489 488 484 477 472 468 468 475 482 487 492 496 498 497 498 500 500 498 498 504 509 512 514 514 514 515 515 516 516 516 513 510 509 508 508 507 507 506 506 505 503 500 497 495 495 495 494 493 492 491 490 489 490 492 493 494 495 497 498 498 498 495 492 489 485 485 486 486 486 485 483 482 482 482 480 476 471 468 467 471 482 491 501 512 524 536 545 550 552 552 550 547 544 541 538 538 541 546 549 550 551 554 557 552 550 551 554 559 565 570 572 577 581 584 588 590 593 596 599 603 605 606 606 606 606 604 601 597 592 590 589 589 590 590 590 589 589 587 584 580 580 581 584 587 592 595 595 595 592 587 581 574 566 563 563 566 568 569 571 574 580 587 589 588 584 578 571 564 558 557 556 556 555 555 553 550 547 543 538 534 529 524 519 515 514 512 510 510 511 511 511 514 516 519 520 522 523 522 521 519 517 517 517 516 513 508 502 494 485 475 463 452 440 427 414 405 395 382 366 355 353 355 360 366 371 378 384 389 391 392 391 390 384 380 377 370 360 350 338 330 324 318 311 303 296 291 285 276 269 262 257 253 248 242 237 231 225 219 211 202 197 197 198 200 201 201 202 204 207 211 220 227 233 239 249 260 270 280 289 297 306 314 319 323 329 337 344 349 356 367 377 388 395 402 407 402 390 376 363 350 339 330 318 309 302 296 289 284 280 278 273 267 264 264 265 265 266 268 268 266 262 259 257 255 252 250 252 253 253 253 248 242 235 224 213 205 203 202 206 213 223 232 240 249 256 261 266 272 278 285 292 299 303 305 309 313 317 322 326 330 335 338 343 350 359 370 382 392 402 411 418 427 437 445 449 451 450 445 441 439 439 441 442 444 441 436 428 421 414 411 409 403 397 393 389 384 378 371 364 359 352 344 337 330 319 321 327 333 341 348 356 362 369 373 380 388 392 390 383 374 364 352 346 344 341 338 334 329 327 326 326 323 321 318 315 309 302 296 293 288 281 275 268 257 247 237 231 227 225 223 220 217 212 211 212 214 213 213 214 217 218 219 219 219 216 216 216 215 215 216 216 215 214 213 211 208 208 212 214 217 221 223 223 222 220 217 213 208 203 195 193 195 199 203 206 206 206 207 206 205 207 210 211 211 208 205 202 198 192 196 205 211 210 203 200 207 210 212 213 214 213 211 209 206 206 209 210 211 212 214 216 216 218 227 234 236 240 240 240 234 224 210 202 200 200 200 199 197 195 192 187 183 178 172 168 165 161 165 172 179 184 190
640 640 639 636 634 630 627 625 624 625 626 626 626 627 629 629 628 627 627 629 630 629 628 622 622 623 627 634 639 647 654 655 655 651 648 647 648 649 649 649 650 651 653 653 654 653 653 655 661 665 672 677 678 678 678 678 676 672 670 666 660 650 640 634 631 629 626 623 619 614 610 606 603 597 595 595 595 595 595 595 595 595 597 600 604 609 612 616 620 623 624 625 627 628 629 628 625 622 623 623 623 622 622 625 625 624 624 623 618 616 614 616 619 620 623 624 627 630 630 630 630 630 630 631 631 631 629 630 630 631 630 627 623 617 613 610 608 607 605 604 605 607 608 608 607 607 607 608 611 616 622 628 633 637 638 638 629 618 608 600 589 578 572 567 563 559 548 539 536 535 532 527 525 524 522 523 519 515 509 508 504 501 499 495 492 488 483 479 476 469 470 477 486 492 498 502 503 504 503 503 505 504 502 504 511 512 514 514 515 516 516 516 516 515 513 510 509 507 507 507 505 504 504 502 501 498 495 492 491 491 491 490 489 488 487 486 487 490 491 492 493 494 496 496 496 494 492 490 485 484 485 485 484 483 482 481 481 481 479 475 470 469 468 473 483 493 503 514 525 538 547 551 554 554 553 550 547 543 540 540 542 544 546 548 547 548 552 548 547 551 555 560 565 571 574 578 582 584 588 590 593 597 599 604 606 606 607 607 607 604 602 597 593 590 586 586 587 588 587 587 586 585 583 578 575 578 582 587 591 595 597 597 596 591 583 576 569 562 561 563 565 566 568 571 578 585 588 587 584 579 572 564 558 554 554 554 555 557 557 555 552 549 544 538 533 528 525 521 517 514 510 509 507 507 507 509 511 513 514 516 516 515 513 511 510 511 511 510 507 502 496 490 481 472 462 451 439 428 416 406 397 386 369 353 346 345 350 354 359 364 369 375 378 380 380 379 374 371 368 362 356 345 335 328 322 314 305 297 291 286 279 271 265 262 257 253 248 243 239 233 226 219 209 200 197 197 200 202 204 203 204 208 212 217 222 229 236 244 253 263 272 283 292 301 309 317 324 330 336 342 348 353 359 367 376 387 394 400 404 399 389 376 363 350 338 327 317 308 301 295 288 283 280 276 272 268 269 270 271 271 272 272 272 270 268 265 261 257 255 253 254 254 253 252 247 241 233 223 213 205 204 206 211 220 231 239 248 256 261 266 272 277 284 292 299 304 309 310 315 319 324 328 333 338 343 347 352 359 368 382 394 404 411 416 422 431 440 450 456 456 453 449 446 442 442 442 442 444 441 435 428 421 415 412 409 403 398 395 392 389 383 375 369 362 356 350 342 333 322 324 332 336 342 352 358 365 372 376 384 393 397 396 389 380 368 358 353 349 346 343 339 335 334 335 335 332 329 327 324 318 310 307 304 298 293 285 276 266 254 244 239 235 231 227 225 221 216 215 217 218 217 218 219 222 224 226 226 226 223 222 222 221 221 223 222 222 221 219 218 215 214 218 221 223 225 226 227 226 224 220 216 211 204 197 198 201 202 206 209 210 211 213 212 212 214 217 219 218 216 213 209 206 201 201 210 213 211 204 205 211 215 217 219 220 220 219 217 213 212 214 216 216 217 221 223 222 226 234 241 243 247 248 247 243 234 220 208 205 206 207 205 202 199 195 190 183 178 171 167 165 167 173 178 184 189 195
641 641 640 637 634 630 626 623 623 623 622 622 623 625 626 626 625 624 625 627 628 628 628 622 621 622 625 631 637 644 652 654 654 650 646 646 648 649 649 649 650 650 653 653 653 653 653 654 660 665 671 676 677 677 677 678 677 675 672 666 660 649 640 634 631 628 625 622 617 614 610 605 601 597 595 595 595 595 595 596 597 598 599 603 607 611 614 618 622 625 626 628 629 631 631 629 625 624 626 625 626 624 624 629 630 629 629 626 621 618 616 618 620 621 623 623 626 628 628 628 628 628 628 629 630 629 628 627 627 628 628 626 624 619 615 611 607 605 605 607 610 611 611 611 610 610 610 610 613 617 623 629 634 638 640 639 633 621 613 602 592 578 571 566 561 555 548 544 543 540 535 532 532 527 527 526 521 517 513 510 507 505 501 497 492 488 484 482 477 470 472 478 489 496 504 507 508 509 509 508 509 510 508 508 511 513 515 515 515 516 516 516 516 515 512 511 509 508 507 507 504 504 503 501 498 496 494 492 491 490 490 488 486 485 484 484 485 487 489 490 490 491 493 494 493 492 491 489 485 482 484 484 483 481 480 480 480 480 478 473 470 469 471 476 484 492 503 513 524 537 545 551 554 554 554 552 550 546 543 542 542 544 545 545 543 544 545 545 546 552 557 562 567 573 575 579 582 584 587 590 593 596 599 604 606 606 606 606 606 604 601 598 594 590 587 585 583 584 584 584 583 582 580 576 575 576 580 585 591 595 597 599 599 594 584 576 570 561 559 561 563 564 566 569 576 583 586 586 583 578 571 564 558 551 551 552 554 557 558 557 555 552 548 542 537 532 529 525 521 517 513 510 507 505 504 505 506 507 508 509 509 508 506 503 504 503 502 500 497 493 488 481 474 467 458 448 437 428 416 406 397 387 372 357 347 338 339 343 347 352 356 360 362 365 366 366 364 362 360 357 351 342 335 328 323 316 306 297 291 285 279 271 266 262 258 254 249 245 241 234 226 218 208 200 197 199 201 203 205 207 208 212 218 223 227 233 241 249 257 265 275 286 296 304 313 322 331 338 344 349 353 357 364 370 376 386 393 399 401 397 387 374 362 350 336 326 317 307 301 294 287 283 280 276 272 271 273 274 275 275 275 276 275 274 271 269 264 259 257 256 256 255 253 250 246 240 232 221 211 206 207 212 220 229 238 247 255 261 266 272 277 284 292 299 304 309 314 316 320 325 330 335 340 345 349 354 361 369 380 393 404 412 415 418 426 433 442 454 462 459 455 453 449 444 442 441 442 442 439 434 428 421 417 413 410 404 400 398 396 392 386 379 372 367 361 354 346 337 327 329 336 340 345 354 361 367 375 380 387 396 400 399 393 385 374 365 361 358 352 348 343 340 339 340 341 340 337 334 331 327 319 316 313 307 302 295 283 272 262 251 247 243 236 233 230 225 218 219 223 223 222 223 225 228 231 234 234 233 231 230 230 230 230 231 231 231 229 226 224 222 220 222 226 227 228 230 231 231 228 224 220 214 205 201 204 206 207 211 214 216 217 218 219 218 221 224 226 226 223 220 217 214 209 206 213 216 212 207 209 216 221 224 225 225 225 225 224 221 218 220 222 223 224 227 230 231 233 240 246 248 251 252 252 249 242 229 217 213 214 213 210 206 203 198 191 183 178 172 167 167 174 180 184 188 195 202
642 642 642 637 634 629 625 622 622 621 620 620 620 622 623 624 623 622 623 626 627 627 626 623 621 621 623 627 634 642 650 653 653 649 646 646 647 648 648 649 650 650 652 653 653 653 653 654 658 664 670 674 676 676 676 677 678 678 673 666 658 648 641 638 633 629 625 622 619 615 611 605 599 596 596 595 595 595 596 598 599 600 602 606 610 613 615 619 624 627 628 629 631 632 632 630 627 627 630 628 629 630 629 631 631 631 630 629 624 622 618 619 621 622 623 623 624 627 627 628 628 628 628 629 629 629 628 627 625 625 626 625 624 621 616 611 608 606 607 611 613 614 614 614 613 613 613 613 616 620 625 630 636 641 641 640 636 625 615 603 592 579 572 567 566 557 553 549 546 540 537 536 535 531 529 527 523 520 516 512 509 505 502 496 491 489 487 482 474 471 476 483 492 500 508 513 513 513 513 512 512 513 511 511 511 513 515 515 516 516 516 516 516 515 513 511 510 509 508 507 505 504 503 501 498 497 495 493 492 491 490 489 487 485 485 484 484 485 486 487 488 488 490 490 490 489 488 486 485 481 479 481 480 479 478 478 478 478 476 473 471 471 475 481 486 492 501 512 523 534 543 550 552 554 554 553 552 548 545 544 543 543 543 542 540 539 540 541 546 552 558 562 568 574 576 580 582 584 587 589 592 596 599 603 605 605 605 606 605 603 600 598 594 591 589 586 583 579 580 580 579 578 576 574 574 574 579 584 590 594 597 600 600 595 586 577 570 561 556 558 560 561 563 567 572 578 582 583 580 576 569 562 558 552 548 549 552 555 556 557 556 554 551 546 540 535 531 529 524 520 516 512 507 504 502 502 503 503 504 504 503 500 496 493 494 493 491 489 485 481 476 470 463 457 449 440 433 426 415 405 397 387 373 360 350 338 331 333 337 341 345 347 350 352 353 353 353 353 353 351 346 338 334 328 323 318 309 300 292 287 281 273 267 263 259 256 251 245 241 234 226 217 207 199 197 200 202 204 207 210 213 217 223 228 233 236 243 252 259 268 278 289 298 307 319 329 340 348 354 359 363 367 372 375 378 386 391 397 399 394 384 373 361 350 336 325 316 307 300 294 288 285 281 278 276 276 276 277 278 279 279 279 277 276 273 270 266 261 259 259 258 256 253 249 244 239 228 217 209 208 213 221 229 236 245 254 260 267 272 277 284 291 299 304 309 314 319 322 327 333 337 341 345 350 355 363 372 380 391 403 412 415 416 419 426 434 442 455 463 460 458 456 450 446 442 440 440 439 436 433 427 421 417 414 410 406 404 402 398 394 390 382 376 371 365 359 351 342 331 332 340 344 347 354 363 370 378 384 392 399 404 402 396 388 381 373 369 366 361 355 347 343 343 345 346 347 345 341 337 333 328 325 322 315 309 303 289 277 267 256 254 250 242 240 236 227 222 226 229 229 228 230 233 235 239 240 241 241 240 240 240 239 239 239 238 238 236 233 231 228 224 226 230 232 233 234 235 235 233 228 223 216 207 207 211 212 213 215 218 221 223 225 228 228 229 233 234 233 230 226 223 221 215 211 215 217 214 209 213 221 226 230 232 233 234 234 231 229 225 226 230 231 231 234 236 238 240 244 249 251 254 256 256 254 247 238 225 219 219 218 215 211 206 200 191 183 177 172 168 172 179 186 190 194 201 208
642 642 641 637 633 628 624 621 619 618 616 617 616 617 619 620 621 621 623 625 626 626 625 623 621 621 622 624 632 641 647 650 650 646 645 645 646 647 647 648 649 650 651 653 652 653 653 654 658 662 669 672 674 675 676 677 677 677 674 665 657 651 647 641 635 629 624 621 618 616 611 605 599 596 596 596 596 597 598 601 602 603 606 609 613 615 617 621 626 630 630 632 633 633 633 631 628 631 635 633 633 633 632 632 632 632 631 629 628 625 621 622 622 623 623 623 625 627 627 628 628 628 627 628 629 629 627 626 623 623 623 623 623 620 617 612 609 608 611 614 616 618 618 619 619 619 619 620 622 624 627 631 637 640 641 639 636 627 616 605 594 583 575 572 568 561 558 553 548 542 539 539 539 533 531 529 525 521 517 514 509 505 501 496 491 490 486 481 472 473 481 488 494 503 510 516 517 517 517 515 515 516 514 513 513 514 516 516 516 516 517 517 516 515 514 512 511 510 509 508 506 504 503 502 500 499 497 496 495 494 493 491 489 487 485 483 483 484 484 484 485 486 487 488 488 487 485 483 482 480 478 477 477 477 476 476 475 474 473 472 472 472 477 483 489 493 499 510 520 531 539 546 551 553 553 553 552 550 546 545 544 543 542 541 539 538 538 541 546 553 558 562 569 574 576 580 582 583 586 589 592 595 598 600 603 603 604 605 604 602 599 598 594 592 590 587 584 579 574 574 575 574 574 572 573 574 578 582 588 592 596 599 600 595 586 578 571 562 556 554 555 558 561 565 568 573 577 578 575 570 565 562 560 554 547 545 546 550 553 555 553 552 551 547 542 537 534 530 527 522 518 515 509 505 503 501 498 498 497 496 494 490 485 481 481 480 477 473 469 464 458 454 450 443 436 430 425 418 410 403 395 384 372 360 351 342 331 324 325 330 333 336 339 341 342 342 342 344 345 345 341 335 333 328 322 317 309 302 293 287 281 273 267 264 259 256 251 245 241 234 225 216 205 199 198 201 203 206 209 214 219 223 228 234 239 241 246 254 261 270 281 291 300 312 325 337 349 357 364 371 377 380 381 380 382 386 390 396 397 391 380 370 360 349 336 325 315 307 300 298 296 293 288 284 282 280 279 279 281 282 282 281 279 276 273 271 267 264 263 261 259 257 252 247 240 231 220 213 209 212 220 229 236 244 252 260 266 273 278 284 290 297 304 309 314 320 325 329 335 340 343 346 350 355 361 371 380 388 399 410 414 416 416 419 425 434 443 455 463 462 460 456 450 447 443 438 436 436 434 431 427 421 418 415 412 410 408 405 401 396 392 387 380 375 369 363 356 346 335 335 342 347 350 356 365 373 382 388 396 404 407 405 399 393 388 380 375 373 368 361 354 349 347 349 352 354 353 349 344 338 335 333 330 323 315 307 296 282 270 261 257 253 248 246 240 228 227 232 235 235 235 238 241 243 246 248 249 250 249 249 249 248 248 247 246 245 243 240 237 233 229 230 233 235 236 236 236 235 234 230 225 218 210 212 216 217 218 220 223 226 230 233 236 237 237 240 241 240 238 235 231 227 222 217 218 219 216 214 217 225 232 237 239 241 243 243 239 235 232 232 236 236 238 240 243 245 246 247 251 253 257 260 260 259 253 243 231 224 224 223 220 215 209 201 190 180 175 173 171 176 185 192 197 202 207 213
642 641 640 636 631 627 622 620 618 615 613 613 612 614 615 616 617 620 623 624 625 625 624 623 620 621 622 623 630 638 644 646 646 643 642 643 644 645 646 647 648 649 650 651 651 653 653 655 658 663 667 671 672 674 674 675 675 676 673 665 660 656 652 643 636 628 623 619 617 615 611 603 598 597 597 597 597 598 599 604 606 608 609 613 617 619 620 624 629 631 633 634 636 636 635 633 631 634 638 638 637 636 634 634 635 634 633 632 631 629 624 625 626 626 626 627 626 627 627 628 628 628 627 627 627 627 626 625 623 622 622 620 620 619 617 613 610 610 613 616 619 622 623 624 625 625 626 627 627 629 631 634 637 639 639 636 630 624 617 608 599 586 576 573 569 564 559 554 549 547 542 541 540 534 532 529 525 521 519 514 508 503 500 497 494 489 483 475 472 477 486 491 497 504 510 517 520 521 521 518 518 518 516 515 514 515 517 517 518 518 519 518 517 516 514 514 513 512 511 510 508 507 505 505 504 502 500 499 498 497 496 493 491 488 486 483 483 484 484 483 483 484 485 485 485 486 484 480 478 478 477 475 474 474 474 474 474 474 473 473 473 473 478 484 490 495 500 507 517 526 534 541 546 550 551 551 551 550 547 545 543 542 542 541 538 538 538 541 547 554 558 562 568 574 576 580 582 583 586 587 590 593 596 598 600 601 601 602 601 600 598 597 594 592 590 588 584 579 573 570 571 572 571 570 572 575 578 580 586 591 595 598 598 593 584 577 571 562 556 551 551 555 560 563 566 569 571 571 568 564 562 562 562 554 548 543 541 544 547 548 547 548 548 546 542 538 534 531 528 524 519 515 512 510 507 503 498 493 488 486 483 480 474 470 468 466 460 455 451 445 439 435 430 422 416 412 408 405 401 397 390 381 370 360 351 344 333 322 316 318 322 326 329 331 332 333 333 335 339 339 336 333 330 326 322 316 309 301 293 287 281 273 267 263 259 256 251 245 241 234 224 215 205 200 199 201 204 208 213 221 225 228 233 238 243 246 250 256 264 273 283 292 302 316 330 344 357 365 374 383 389 390 391 388 386 386 388 393 393 386 377 368 359 348 337 326 317 312 307 306 304 300 294 289 285 282 280 281 283 286 286 283 280 276 273 271 268 266 265 263 261 257 250 243 236 224 214 211 212 219 227 235 242 251 258 266 272 278 284 290 296 303 308 314 320 326 333 336 342 346 348 350 354 359 367 376 385 394 407 414 414 415 416 418 424 434 442 453 461 462 459 455 450 449 445 439 436 433 431 428 424 421 419 417 415 413 411 408 405 400 395 390 384 379 373 366 360 352 341 338 344 351 355 360 366 375 386 392 399 407 410 409 405 400 393 387 383 378 372 366 362 356 353 354 358 361 360 357 351 344 341 339 335 329 321 311 302 286 273 264 258 255 253 249 240 230 233 238 241 241 241 243 247 248 250 254 256 259 259 258 259 258 257 255 253 251 249 246 243 239 236 235 236 238 238 237 235 234 233 229 225 219 214 217 220 223 224 225 227 230 236 240 244 245 245 247 249 248 246 243 239 234 228 223 223 222 219 218 221 230 238 243 247 249 251 250 247 241 238 239 242 243 245 247 250 252 253 253 254 256 260 263 265 264 259 248 238 230 229 227 223 218 211 202 192 182 175 176 177 181 190 198 203 208 212 218
641 641 637 634 630 626 620 617 617 613 611 609 609 611 613 614 615 619 622 624 624 624 623 622 620 620 621 623 628 636 640 642 642 640 640 641 642 644 645 646 647 648 650 650 651 653 653 656 660 664 667 670 672 673 673 673 673 673 672 666 662 659 652 645 637 628 624 619 615 613 608 600 597 597 597 597 598 598 602 607 610 611 612 616 620 623 625 627 631 633 634 636 637 637 637 636 634 636 640 641 641 639 636 636 636 635 635 634 635 632 627 628 630 629 629 628 628 628 628 628 628 628 627 626 626 626 625 624 623 622 622 618 616 617 617 612 610 611 615 618 622 625 627 629 630 631 631 632 633 633 635 637 638 639 638 635 627 623 618 608 599 587 577 573 569 565 562 556 554 551 545 541 539 535 534 530 526 524 521 513 508 504 501 499 495 489 480 473 474 481 488 493 498 504 511 519 522 524 524 522 520 521 519 518 516 516 517 518 519 520 520 519 518 516 515 515 514 513 512 511 510 508 507 507 506 505 504 503 502 500 498 496 493 490 488 486 485 484 484 483 481 481 482 482 482 483 481 479 477 477 475 474 474 473 473 474 474 474 473 472 472 475 481 486 491 497 500 506 513 521 529 535 540 545 548 549 550 549 547 545 542 541 541 541 539 538 538 541 548 553 558 562 568 574 577 580 582 583 585 586 587 590 594 596 598 599 599 599 599 597 595 594 592 591 589 587 583 577 571 567 568 569 568 569 572 575 578 580 583 589 593 595 594 590 583 576 570 562 555 550 549 553 558 561 563 565 565 564 560 558 559 562 561 554 548 543 536 537 539 540 540 542 544 543 540 536 533 531 529 526 522 517 515 514 511 507 501 495 486 479 474 470 465 458 453 449 444 438 434 427 421 415 408 402 397 392 389 388 387 385 381 373 367 358 351 343 336 327 316 310 314 316 319 321 321 322 324 327 331 332 330 329 327 324 321 315 308 300 293 287 280 272 266 262 258 256 251 245 240 233 224 215 206 201 200 202 205 211 218 225 230 234 239 242 247 252 256 259 265 275 285 294 306 320 335 350 363 373 383 392 397 397 397 393 388 386 387 389 387 380 373 366 357 347 338 334 328 321 316 315 312 307 301 295 289 284 282 283 286 288 287 283 279 275 272 271 268 266 265 263 260 256 248 242 233 221 214 214 220 226 233 240 249 256 263 270 277 283 289 296 302 308 314 321 327 335 342 345 349 352 353 353 356 361 370 380 388 398 410 415 413 413 414 416 422 431 438 446 454 458 455 452 449 448 445 441 437 433 431 427 424 422 422 420 419 417 414 411 407 403 398 392 387 382 376 369 363 356 345 340 348 355 359 363 368 378 388 395 402 410 414 414 411 405 398 394 388 382 376 370 367 364 361 361 364 366 365 363 357 350 349 346 341 333 325 314 304 290 278 267 260 257 255 249 241 235 239 243 246 247 247 249 252 253 256 260 264 268 268 268 268 267 265 263 261 259 255 252 248 245 241 238 239 240 240 237 234 232 230 226 222 219 217 221 225 228 229 232 234 235 241 246 250 252 252 255 257 257 253 250 246 240 233 231 230 228 225 223 223 233 242 248 251 254 256 256 254 248 245 247 247 248 250 253 256 258 260 260 259 260 263 267 270 270 266 254 242 237 235 230 224 219 213 207 199 187 178 181 184 188 195 202 209 213 217 223
639 638 634 628 625 621 616 615 615 610 607 607 607 609 611 611 614 617 620 622 623 623 622 621 620 619 620 622 626 631 636 638 638 638 638 639 640 641 643 646 647 648 650 650 651 653 653 657 660 665 668 670 671 672 671 671 670 669 667 664 661 659 653 645 636 627 624 619 616 610 603 598 597 598 598 598 598 599 603 608 612 614 616 618 622 625 629 631 633 635 636 638 639 640 639 638 636 637 643 643 643 642 639 638 638 638 637 635 637 636 631 630 631 631 629 629 629 628 628 628 628 628 627 626 625 624 624 624 623 622 621 617 616 615 614 611 611 612 615 620 624 628 631 633 635 636 637 638 638 639 640 640 641 639 636 631 626 623 619 608 599 589 580 574 568 565 562 560 556 550 545 541 539 539 536 532 529 527 522 514 508 506 504 501 496 491 484 475 477 486 490 494 498 505 511 518 525 528 528 525 523 523 522 521 519 518 518 519 520 521 521 520 519 518 517 516 516 515 514 513 512 510 509 509 509 508 508 507 506 504 501 498 495 493 493 491 488 486 485 484 481 479 479 479 478 478 478 478 478 478 476 475 474 473 473 473 473 473 473 472 472 476 482 486 491 496 501 507 512 517 524 530 534 539 543 546 547 547 546 544 541 539 540 540 539 537 537 541 548 553 557 563 569 574 577 580 582 583 584 584 585 588 591 594 596 597 596 596 596 594 591 591 590 589 588 585 581 574 569 565 563 565 565 569 573 575 577 578 581 585 589 590 589 586 580 574 566 559 554 549 547 551 555 558 560 560 560 557 555 553 556 559 559 554 548 543 533 530 532 532 532 535 537 538 537 535 532 530 529 527 523 520 518 515 512 509 503 497 488 479 468 459 452 445 438 434 428 422 417 410 401 395 390 385 381 375 373 372 371 369 366 363 359 353 347 342 336 328 317 305 306 307 309 310 312 314 317 320 324 325 324 324 324 322 319 314 307 300 292 286 280 271 266 262 258 255 250 244 239 232 223 215 207 202 202 202 206 212 221 228 234 240 244 247 251 257 261 265 270 277 287 296 308 323 338 353 366 378 389 398 402 400 398 393 386 384 384 384 380 375 370 363 356 349 345 342 336 329 325 324 320 314 307 301 294 288 286 286 288 288 286 281 277 274 272 270 268 266 264 263 259 254 248 239 228 219 214 218 227 232 239 246 253 260 267 275 282 288 294 301 307 314 321 328 335 344 351 353 355 356 358 357 358 362 370 381 389 398 409 413 411 410 410 412 418 425 430 437 446 450 451 449 447 447 446 442 438 434 432 429 426 426 425 424 422 420 417 413 410 405 401 395 389 384 379 373 367 360 351 344 352 360 363 366 372 380 391 398 405 413 419 420 416 409 403 398 393 386 378 372 372 368 366 366 368 370 371 368 360 355 357 354 345 337 328 316 305 293 281 270 263 259 255 248 241 239 244 249 251 253 253 254 257 258 261 267 271 273 274 274 274 274 273 271 269 267 262 257 253 249 245 242 243 244 241 236 232 228 225 222 220 220 221 225 228 232 236 240 242 243 247 253 257 259 260 262 265 265 261 255 251 244 239 239 238 235 233 231 230 236 243 248 253 257 260 261 260 256 253 254 255 255 255 257 261 264 266 266 264 264 266 270 273 275 271 261 249 243 239 233 226 220 214 210 203 193 185 184 188 193 199 207 213 217 222 228
636 633 627 619 616 613 607 609 610 605 601 600 601 602 603 606 612 615 617 620 622 621 620 619 619 619 619 621 624 627 631 634 634 634 636 637 639 641 642 646 647 648 650 650 652 653 654 657 660 664 667 670 671 671 671 669 668 666 663 661 659 657 653 645 633 625 622 619 615 610 602 598 598 598 598 599 599 600 604 610 613 616 618 621 624 628 632 635 637 638 639 641 641 641 642 640 638 639 643 645 645 644 641 640 639 639 640 640 639 637 634 631 633 631 630 629 629 629 629 628 628 628 627 625 625 624 623 623 622 622 620 617 616 615 613 611 611 612 615 621 625 631 634 639 642 644 644 643 643 643 643 643 642 638 634 627 625 623 618 609 602 593 583 575 568 565 564 560 554 548 544 542 541 541 539 534 531 529 524 517 512 509 507 502 497 491 485 477 481 490 492 496 499 506 512 518 525 530 531 528 526 525 525 525 523 520 519 520 521 522 522 521 521 520 519 518 517 517 515 514 513 512 511 511 511 511 511 510 509 507 504 501 499 497 496 494 491 489 488 485 483 480 479 478 478 477 478 479 479 480 479 478 476 474 473 473 473 473 473 472 474 477 482 486 490 496 501 508 513 517 522 526 530 534 539 543 545 546 546 542 539 539 539 540 537 536 536 540 546 552 557 564 571 575 577 581 582 583 584 584 585 587 589 593 595 595 593 592 592 590 588 587 587 587 586 583 577 571 567 563 561 561 564 570 573 575 576 576 578 582 585 585 584 580 575 568 562 557 553 548 545 548 552 555 556 557 556 553 551 552 555 557 558 554 546 542 532 526 524 525 526 528 531 532 532 531 530 529 529 527 523 521 518 515 513 510 503 496 487 479 466 453 437 429 425 419 411 404 397 391 384 378 373 369 366 361 358 356 355 353 352 350 348 343 340 337 333 328 320 309 300 299 300 302 304 307 310 313 316 317 317 318 319 319 317 314 308 301 292 288 281 272 266 262 257 254 249 243 238 231 223 215 208 204 202 201 205 212 220 228 236 243 248 252 255 260 266 272 277 282 289 297 310 325 339 353 366 379 390 398 402 400 397 391 384 380 379 379 375 372 366 361 358 356 353 348 342 336 333 332 327 320 313 305 298 291 287 288 288 287 283 277 274 271 269 266 265 264 263 260 256 253 246 238 227 220 218 223 232 238 244 251 257 263 272 280 287 293 299 306 313 321 328 335 343 352 359 360 360 360 360 358 357 361 367 379 388 396 403 407 406 405 406 408 412 416 421 429 438 442 444 446 448 449 448 444 440 437 434 431 429 429 428 426 424 422 419 416 412 408 404 399 392 387 381 375 370 363 353 348 356 363 367 372 375 382 393 401 409 418 424 425 421 415 408 402 396 388 380 377 376 373 370 370 372 375 375 372 364 359 363 359 348 338 329 318 305 294 282 270 263 260 255 248 242 242 248 254 258 259 259 261 263 264 266 271 276 277 279 281 282 282 282 280 278 274 269 262 257 254 251 247 247 246 241 234 228 225 223 221 220 222 225 228 230 234 239 245 248 250 254 259 263 267 268 270 272 271 269 263 256 250 247 247 246 243 241 239 238 240 244 249 254 260 263 265 265 263 260 261 263 263 263 264 265 267 269 271 270 270 271 272 273 275 275 267 257 248 243 237 229 221 215 210 203 197 190 186 191 198 204 212 217 222 227 234
628 624 618 610 605 601 596 597 600 594 588 591 596 598 599 601 608 612 615 617 619 619 618 616 617 618 619 621 623 624 627 630 631 632 635 636 639 641 643 646 648 648 650 651 652 654 655 657 660 664 667 671 672 671 671 668 667 665 660 655 654 652 650 644 629 621 619 617 613 608 601 598 598 599 600 601 601 602 605 611 614 617 620 622 626 632 636 639 641 642 642 643 643 643 643 642 640 640 644 647 648 647 643 641 641 641 642 643 641 639 636 634 634 633 631 631 630 630 631 629 628 628 627 626 625 623 622 622 621 620 619 618 617 617 614 612 612 613 615 620 626 632 638 644 647 648 649 648 648 648 648 646 642 636 631 624 622 621 617 612 606 599 586 575 568 564 563 559 554 548 545 545 544 542 540 536 532 528 524 519 515 511 507 501 496 490 483 477 482 492 496 499 502 507 513 519 525 531 534 531 527 528 528 527 525 523 521 521 522 522 523 522 522 521 520 519 518 518 517 515 514 514 513 512 512 512 512 512 512 511 508 506 504 502 500 497 494 492 490 488 486 485 483 481 479 479 481 483 483 483 483 480 478 475 473 473 473 473 473 473 475 477 481 485 489 495 501 508 514 518 522 526 530 534 536 539 543 545 545 541 539 538 538 538 536 534 536 539 545 551 557 564 571 575 578 582 582 583 583 582 582 585 587 590 593 594 593 591 589 587 586 584 584 584 583 579 571 566 563 561 558 559 564 569 572 574 576 574 574 577 580 581 579 576 570 564 559 555 551 547 544 545 548 550 552 552 552 549 549 551 554 557 558 553 545 540 530 524 520 518 518 520 524 527 528 528 528 528 528 526 523 520 517 515 512 509 503 495 486 477 463 449 428 415 409 400 393 386 380 375 368 362 358 354 351 347 344 342 341 339 337 335 334 332 331 329 328 325 320 314 305 296 292 293 297 300 304 308 310 311 311 311 313 315 315 313 308 301 294 289 282 273 266 262 257 254 249 241 236 230 223 216 209 205 202 201 203 210 219 228 238 246 251 256 261 267 271 278 284 288 292 298 311 327 339 352 365 377 389 398 401 400 395 388 381 376 374 373 371 368 363 362 361 361 359 353 347 342 340 339 334 327 319 310 301 294 291 289 288 285 279 275 272 269 266 261 259 259 257 255 253 250 244 238 230 221 223 229 236 243 249 255 260 267 277 285 292 298 304 312 320 326 333 340 348 355 361 362 362 361 360 357 356 358 362 372 383 390 397 401 403 402 402 403 405 408 413 423 431 434 438 444 449 450 450 446 443 440 436 433 431 431 430 428 426 424 422 418 414 410 406 401 396 390 384 378 372 365 357 352 359 365 371 376 380 386 396 402 411 421 427 428 426 420 412 406 397 390 383 381 380 376 374 374 377 379 379 375 368 363 363 359 349 338 329 318 305 294 283 271 265 261 256 250 245 247 251 257 263 265 265 267 271 271 272 276 281 286 288 290 292 293 294 292 287 280 275 267 261 259 256 252 250 247 241 234 227 225 224 224 223 225 228 230 232 235 242 248 253 258 264 267 272 276 277 277 276 276 273 269 262 255 255 255 253 249 248 246 243 245 249 253 255 261 267 269 270 270 267 268 271 272 272 271 272 272 272 273 272 272 272 272 273 276 276 270 260 251 244 237 229 221 214 209 202 197 192 189 196 204 209 215 220 225 233 239
619 615 607 598 594 587 583 583 584 585 592 604 609 610 607 604 604 606 611 614 617 618 616 615 618 618 620 622 623 623 625 628 629 633 636 637 641 643 644 646 648 649 651 652 653 654 656 659 662 666 669 672 672 672 672 667 664 663 659 652 649 646 647 640 628 621 618 615 611 606 600 599 599 599 601 602 603 605 607 613 616 618 621 624 629 635 639 642 645 645 645 646 647 645 644 643 641 641 644 648 649 648 645 641 641 642 644 644 643 640 637 635 635 635 636 636 635 634 634 630 629 628 628 626 625 624 623 622 622 621 620 620 620 618 616 613 613 614 615 619 626 632 640 647 650 652 654 653 653 653 651 646 641 633 626 622 617 616 616 612 608 602 589 577 569 564 562 558 555 553 550 547 546 543 542 538 533 528 521 515 513 511 506 499 494 486 481 484 486 493 497 503 506 510 514 522 526 531 534 533 531 530 529 529 527 525 523 523 523 524 524 523 523 522 522 521 521 519 518 517 516 515 515 515 514 514 515 515 514 514 512 510 507 505 503 500 497 494 492 490 489 488 486 485 483 484 486 487 488 487 487 484 481 476 472 472 473 473 473 475 475 477 480 483 488 494 500 506 513 518 523 527 530 534 536 539 542 542 542 540 539 536 536 536 534 533 535 539 544 551 558 564 570 574 578 581 582 582 582 581 581 583 585 588 591 593 592 591 588 586 585 583 581 580 579 573 565 560 558 556 555 559 563 568 570 572 574 572 570 573 575 575 575 574 570 564 559 553 549 545 543 543 545 546 547 548 547 545 546 550 554 557 558 554 544 540 531 524 520 515 512 514 519 522 523 523 524 524 524 523 521 519 517 514 511 507 501 491 482 471 457 442 420 404 390 382 376 371 366 360 354 348 344 340 337 333 331 329 327 324 324 323 321 319 319 320 320 319 317 314 309 301 292 287 288 292 297 302 304 305 305 307 308 311 313 312 308 303 297 289 283 273 266 262 257 253 248 241 235 228 222 215 209 206 203 202 201 206 216 228 238 247 253 260 268 274 279 284 287 292 297 303 316 330 340 352 364 376 389 397 401 398 392 384 378 373 371 368 366 365 363 363 364 364 362 358 352 348 347 343 339 333 324 314 304 297 293 290 288 284 279 275 271 265 261 257 254 252 250 249 248 246 242 237 232 226 225 230 238 245 252 257 263 272 281 289 296 302 310 318 325 331 336 341 347 353 357 358 357 356 353 352 352 353 357 367 375 382 390 394 396 395 396 398 401 405 410 418 426 430 435 443 449 453 453 451 448 444 440 436 434 434 432 430 428 425 423 421 417 413 408 404 399 393 386 379 374 369 363 357 361 368 375 380 386 391 398 404 412 421 427 431 429 422 414 406 398 391 389 387 384 381 379 378 380 384 384 379 372 366 363 358 349 338 328 317 306 294 283 273 268 264 258 251 248 252 255 261 268 272 272 273 275 278 279 283 289 294 297 300 303 303 303 301 296 287 279 271 268 264 259 255 253 247 240 232 227 228 229 229 228 227 229 234 237 241 246 251 258 266 272 277 281 284 286 285 283 281 278 272 265 261 262 262 260 257 255 253 248 249 256 261 262 265 271 274 276 276 274 275 277 279 279 278 278 278 278 276 274 273 270 270 273 275 276 270 260 251 243 235 225 218 212 206 199 196 194 196 205 210 214 219 223 230 237 244
605 601 593 586 582 576 576 579 585 590 600 611 613 614 612 611 608 606 605 610 614 616 614 616 620 621 622 624 625 624 627 629 631 636 639 641 644 647 648 647 648 651 652 652 653 656 658 661 664 668 672 673 673 672 672 667 664 661 657 651 647 644 643 637 628 621 617 615 611 608 602 599 601 602 603 604 605 608 611 615 619 621 623 626 633 638 642 646 648 649 649 649 649 647 646 644 643 642 645 648 650 650 648 644 643 644 646 647 647 643 639 637 637 638 639 639 638 638 637 634 632 630 629 627 626 625 624 624 623 623 623 624 623 621 616 615 615 615 615 618 625 632 640 647 650 653 654 655 655 655 652 645 637 628 622 618 615 613 612 612 610 603 596 582 573 567 563 560 559 557 552 551 549 546 544 539 534 528 521 515 509 506 500 493 488 484 488 493 493 495 499 503 508 511 515 523 527 531 534 534 533 532 531 529 528 527 525 524 523 524 525 525 525 525 524 523 522 521 520 519 518 517 516 516 516 516 517 517 517 516 515 514 511 508 506 503 500 497 495 492 492 491 490 488 487 488 490 491 491 491 490 488 485 478 472 472 473 473 474 475 476 477 479 481 485 491 497 505 512 517 521 526 530 533 536 540 541 543 542 540 539 536 535 533 533 532 535 540 545 551 557 564 569 573 577 580 582 581 581 580 580 582 583 586 588 590 592 592 590 587 585 583 580 576 572 567 561 556 554 550 552 557 562 565 568 570 570 569 567 568 570 571 572 573 571 566 559 552 547 543 541 541 542 543 544 544 543 543 546 550 554 558 559 555 545 541 532 525 520 514 510 510 514 517 518 519 519 519 519 520 520 518 516 513 509 503 494 485 475 463 449 430 412 397 381 366 361 357 352 347 341 335 330 326 323 321 319 318 316 313 311 308 306 304 304 306 308 310 310 310 309 304 296 287 281 283 289 294 298 299 299 301 304 308 311 311 307 303 298 290 283 273 266 260 256 252 246 240 234 227 220 215 210 206 204 202 201 201 210 224 237 246 253 264 274 281 287 292 294 298 303 311 323 333 342 354 366 377 389 396 398 395 389 382 377 372 369 365 363 363 363 367 368 368 365 361 356 354 352 348 342 336 328 317 306 297 293 290 287 283 279 276 271 264 259 257 254 252 248 245 244 241 239 236 234 233 229 231 238 248 255 260 268 276 285 293 300 308 316 323 327 332 336 340 343 346 349 350 349 348 347 345 345 345 351 360 366 374 382 386 388 389 389 393 398 402 405 413 421 430 436 443 450 454 457 457 453 447 441 438 437 437 435 433 430 428 426 422 418 414 410 405 400 395 389 384 379 374 368 362 363 371 378 384 389 397 402 405 412 420 427 431 430 423 415 407 399 396 396 394 390 385 385 385 386 389 387 381 376 369 364 358 348 337 327 316 306 294 283 276 271 264 257 251 254 257 259 266 273 275 276 277 280 283 287 291 298 302 305 309 311 311 309 307 301 292 283 277 274 269 261 261 254 246 239 232 230 233 233 233 232 230 233 240 244 248 252 257 264 273 279 284 288 292 293 292 289 286 282 275 269 269 269 268 267 264 262 261 255 255 264 268 269 271 275 278 280 280 279 279 282 284 285 284 284 284 284 281 278 275 269 268 270 272 274 268 259 250 240 229 221 217 211 205 199 198 200 203 211 215 218 222 227 235 241 247
590 586 579 574 572 576 584 589 595 601 607 613 614 615 615 615 612 609 608 608 610 612 613 619 623 624 624 626 629 629 630 633 637 640 643 645 648 649 649 649 650 652 653 653 653 656 659 663 667 671 673 674 674 672 671 669 666 662 658 652 648 643 639 636 628 621 617 616 613 610 603 603 603 603 605 606 608 610 612 616 620 623 626 631 637 641 646 650 653 653 652 651 651 649 648 645 644 644 645 648 651 653 651 647 647 646 647 648 648 647 642 639 639 641 642 642 642 641 639 638 636 633 629 628 627 626 626 625 623 623 624 624 624 620 617 616 615 615 615 617 625 632 639 647 650 652 654 654 655 655 652 645 636 628 618 614 613 611 609 611 611 603 597 584 574 568 564 564 564 559 555 553 552 550 546 542 538 532 525 517 507 499 493 488 487 492 498 501 500 499 501 503 508 512 515 523 527 531 533 534 534 533 531 529 528 528 527 525 525 526 527 527 527 526 525 525 524 522 522 521 520 519 518 518 518 518 519 520 519 518 518 516 513 511 509 505 501 498 496 496 494 493 492 491 491 492 493 493 493 493 493 491 487 479 472 472 473 473 474 476 476 477 479 480 484 488 494 500 508 514 518 523 528 532 536 539 542 544 543 541 539 537 535 533 532 532 535 541 545 550 556 562 568 572 575 579 581 580 577 577 579 581 582 585 587 589 592 593 591 588 586 584 581 576 570 564 560 556 552 550 550 555 559 562 565 567 567 565 563 564 566 568 570 571 571 568 561 553 547 542 538 539 539 540 540 540 539 540 546 551 555 558 560 557 548 544 534 527 521 513 509 508 510 512 513 513 513 512 514 516 516 516 514 510 505 498 487 477 466 454 440 418 405 392 375 356 346 343 339 334 328 323 320 316 313 310 307 305 301 299 298 294 292 292 293 295 297 299 301 301 301 299 295 287 278 276 282 287 291 293 293 297 300 305 308 309 306 303 298 290 282 273 265 259 254 250 244 238 232 226 220 216 210 207 205 203 203 202 205 219 234 245 253 264 276 288 297 302 304 307 312 319 328 336 346 357 368 379 388 394 395 391 387 382 377 372 368 365 363 365 369 371 372 372 368 363 360 359 359 353 345 338 329 317 306 297 293 289 285 282 279 277 272 265 260 257 256 256 252 246 244 242 240 239 239 238 235 232 238 249 258 265 272 280 288 296 303 311 319 324 327 330 332 335 337 338 339 340 340 339 339 338 338 338 346 354 359 365 371 377 381 383 385 390 395 399 405 412 422 431 436 443 451 456 457 457 455 449 444 441 440 439 438 435 432 429 427 423 420 416 411 406 401 398 394 390 385 379 372 365 366 375 381 387 393 400 406 408 412 420 426 432 432 427 419 411 404 403 403 401 396 391 390 391 391 393 390 383 377 371 364 357 348 338 326 315 304 293 285 279 273 265 257 253 258 262 266 271 277 279 281 283 287 291 295 299 306 311 314 318 320 318 315 311 304 294 286 283 279 273 265 262 254 245 239 235 237 239 239 238 235 233 239 245 250 255 260 266 271 278 284 290 296 299 299 298 295 291 284 279 277 277 276 275 273 271 269 269 264 264 271 274 276 276 278 281 284 286 284 284 286 288 290 290 291 291 291 289 285 282 274 267 266 267 267 264 256 248 239 229 223 217 211 204 202 205 208 210 214 218 222 226 232 239 245 249
578 572 570 568 573 583 591 596 601 607 612 615 616 617 618 617 616 614 612 612 612 613 616 621 624 627 628 629 631 633 633 636 640 643 646 648 651 653 651 651 652 653 653 653 653 657 660 664 668 672 674 674 674 672 671 669 667 664 660 654 649 646 639 634 627 621 619 616 612 609 607 608 606 606 607 609 612 614 615 617 621 624 629 635 640 644 649 653 656 656 655 654 653 652 649 647 647 647 647 648 652 654 654 651 649 647 649 650 650 649 646 641 641 643 645 645 645 643 642 640 640 637 630 629 628 628 628 627 624 624 624 624 623 619 618 618 617 616 616 617 624 631 638 645 648 651 652 653 654 653 652 644 634 625 613 610 611 609 604 607 607 603 594 584 576 570 568 566 565 561 557 555 554 551 547 544 539 533 527 519 510 497 491 488 493 501 506 506 504 504 505 506 510 513 516 523 526 530 533 534 534 533 532 530 529 529 528 527 526 526 528 528 529 528 527 527 526 525 524 522 521 520 519 519 519 520 521 521 521 521 520 518 516 513 512 508 504 500 498 498 497 495 495 494 494 495 495 496 496 496 495 493 489 483 476 472 473 473 474 476 476 477 479 479 482 485 490 495 503 509 515 520 526 530 535 539 542 544 545 543 539 539 538 535 531 531 535 540 544 549 554 559 566 570 573 576 578 577 574 574 576 579 580 583 586 588 592 593 592 589 587 585 582 579 572 567 563 559 553 550 549 552 556 559 562 563 563 562 560 561 562 564 568 570 572 570 563 554 547 542 536 535 536 536 537 536 536 538 545 551 556 560 561 559 550 545 535 528 522 514 509 507 507 508 508 508 507 507 509 511 512 512 510 506 500 493 482 469 455 443 426 410 397 384 370 352 337 331 327 323 319 315 310 305 301 297 295 292 289 288 287 284 282 282 284 287 289 291 293 293 294 292 290 285 276 273 276 281 285 288 289 292 295 301 305 306 305 302 297 290 281 272 265 257 251 246 241 236 230 225 220 215 210 207 205 204 203 203 204 215 230 242 252 263 277 291 303 309 316 319 322 326 331 339 348 358 368 378 387 391 392 388 384 381 378 372 369 366 366 370 374 375 375 374 370 366 364 366 365 358 347 338 328 316 307 298 293 289 285 282 281 278 273 268 264 259 259 260 257 252 250 248 246 243 243 242 238 233 238 250 260 268 275 282 290 298 305 312 319 322 324 326 327 327 328 329 329 330 330 331 331 332 331 332 339 347 353 358 363 370 373 376 382 387 393 399 405 411 422 431 436 444 451 456 457 457 456 451 447 444 444 442 440 437 434 431 428 424 420 417 414 410 405 401 398 394 388 383 375 367 369 377 384 389 396 402 408 411 416 421 426 431 431 428 421 414 411 411 409 406 401 396 395 395 395 396 391 384 378 371 364 356 348 338 325 314 302 292 286 281 275 265 258 256 263 269 272 276 281 284 286 288 294 300 304 308 315 321 324 326 327 325 321 315 306 297 292 287 282 276 267 260 253 245 241 241 244 245 243 242 239 237 244 250 255 261 267 273 278 282 288 296 303 305 305 303 300 294 288 287 286 285 283 281 279 276 275 274 270 271 276 279 281 281 282 285 288 290 289 288 289 293 296 297 298 298 298 296 293 290 281 270 262 260 260 258 252 244 236 229 223 217 209 204 207 211 211 213 216 220 225 231 236 242 248 253
566 563 567 575 585 593 599 603 606 608 613 616 618 620 621 620 620 619 617 616 617 619 621 623 625 628 630 631 633 636 637 639 642 645 649 651 654 655 653 652 652 653 653 653 653 657 661 664 670 673 674 674 674 673 672 670 667 665 660 653 648 646 639 632 627 622 619 613 610 612 613 610 609 608 609 613 616 618 617 618 622 626 632 637 642 647 652 657 659 659 658 657 655 654 651 649 649 648 647 648 652 654 654 653 652 649 649 651 651 650 649 644 642 645 648 649 649 647 645 643 643 641 634 632 629 629 630 630 627 625 624 623 623 620 622 621 618 616 616 618 623 630 636 643 648 650 651 651 652 650 648 640 630 620 607 606 606 605 603 604 603 602 596 588 581 574 569 568 567 563 558 557 555 552 549 546 542 535 526 516 507 498 493 490 498 509 511 509 509 509 510 512 515 517 519 523 527 530 534 534 534 533 532 530 530 530 528 528 528 528 529 530 532 532 531 530 529 527 526 525 523 521 520 520 520 521 522 522 523 522 522 521 519 515 513 510 505 502 502 501 499 498 498 497 497 498 498 498 499 499 498 495 491 486 479 473 473 473 474 476 476 477 479 479 482 483 486 491 496 502 508 513 521 527 533 538 541 544 546 544 541 540 540 535 531 531 534 539 543 547 552 557 562 568 571 574 575 574 570 571 575 577 579 583 585 588 591 592 591 589 589 587 584 580 574 568 564 560 553 549 547 549 552 556 557 559 560 558 557 558 559 562 567 570 573 571 565 557 549 543 537 532 530 531 531 531 532 538 544 551 557 560 563 561 552 547 536 528 522 515 509 505 505 505 505 505 504 504 506 507 507 507 506 501 494 488 477 463 447 429 415 402 387 377 364 349 335 325 318 312 307 303 300 295 292 289 286 282 278 277 275 273 271 274 276 279 281 282 284 285 286 286 284 281 275 271 269 275 281 283 285 287 291 297 301 303 303 301 296 288 280 270 263 256 249 242 237 232 228 224 219 214 209 207 206 204 203 203 205 213 227 241 251 262 274 290 302 311 320 324 325 326 331 339 348 357 367 375 382 387 388 386 383 380 379 374 370 368 372 377 379 378 376 374 370 369 369 368 364 357 347 337 327 316 307 300 294 289 286 284 282 280 276 272 266 262 264 266 263 259 257 254 250 248 247 245 239 234 239 252 263 271 277 285 291 298 305 311 316 320 320 320 320 320 320 320 320 321 322 323 324 325 325 326 332 340 346 351 357 362 366 371 377 384 391 397 404 411 421 430 436 444 452 456 457 456 456 453 449 448 448 445 441 438 435 431 429 426 423 420 418 415 412 406 401 397 393 388 379 370 372 379 386 392 399 405 410 414 418 422 424 429 431 429 423 420 420 419 415 411 406 402 400 400 398 397 392 385 378 372 364 356 348 338 325 313 303 294 288 282 275 266 260 260 268 275 278 280 284 288 291 296 302 307 311 315 322 328 331 333 333 331 327 319 310 304 299 292 285 276 267 259 252 249 247 249 251 251 249 247 244 242 247 253 259 266 272 278 283 287 295 303 308 310 309 306 303 298 296 295 294 292 289 286 284 281 280 279 276 275 280 284 286 287 287 288 293 296 296 294 294 297 300 301 302 303 304 303 300 297 288 275 262 256 255 253 247 239 233 226 222 216 210 208 210 212 214 215 217 222 228 235 241 247 253 259
560 567 576 588 597 605 611 614 616 616 616 617 620 623 624 623 623 623 622 620 620 622 624 625 627 629 632 634 635 638 641 643 646 649 651 653 657 657 654 653 653 653 653 653 653 657 661 665 671 673 675 676 676 675 673 671 668 664 657 650 645 643 639 632 628 623 619 613 612 616 617 613 611 612 611 615 619 622 621 621 624 628 633 639 644 649 656 660 663 662 662 661 659 657 654 653 653 650 649 649 652 654 654 654 653 652 652 652 653 653 651 647 645 648 651 652 652 651 649 647 646 643 639 636 632 631 632 631 629 626 624 623 623 623 624 624 619 617 618 620 623 629 634 641 647 648 648 647 647 645 643 637 628 616 605 600 600 601 600 599 598 598 597 590 584 578 571 569 569 565 563 560 558 555 552 548 544 536 526 515 505 500 496 495 503 511 514 515 514 514 515 518 520 522 524 526 528 531 534 535 534 532 532 530 529 529 529 529 528 528 530 532 534 534 533 532 531 529 528 526 524 522 521 520 520 521 522 522 523 523 523 522 521 518 516 512 507 504 504 504 502 501 500 499 499 499 499 499 499 499 498 497 494 488 480 474 473 473 474 476 477 478 479 481 482 483 485 487 491 496 502 508 514 522 530 536 539 543 545 544 543 541 540 536 532 531 532 538 542 545 550 554 559 565 567 570 571 570 568 569 572 576 579 582 584 586 589 590 590 589 589 588 586 582 577 571 566 560 553 548 544 546 549 552 554 555 556 556 555 555 557 560 565 570 574 572 566 558 551 544 538 532 526 526 527 528 530 536 542 550 557 559 563 561 552 548 537 528 522 515 509 504 503 503 503 502 502 501 503 504 504 504 502 496 488 481 470 455 439 418 405 391 380 369 357 346 334 325 318 309 300 293 290 286 284 281 278 272 266 265 265 263 262 265 268 270 272 275 277 278 279 279 278 275 271 268 264 268 275 279 281 282 286 292 298 300 300 299 295 288 280 270 262 256 248 241 235 229 225 220 216 211 208 208 206 204 203 203 205 212 225 239 249 259 270 282 295 306 317 323 324 326 328 335 345 355 363 371 377 380 383 383 381 379 378 374 372 373 377 382 383 381 377 374 371 370 371 368 362 354 345 334 324 315 307 301 294 291 288 286 284 281 278 273 267 265 269 270 269 265 263 260 256 255 253 248 240 235 241 253 265 273 277 284 291 298 304 309 313 315 316 316 315 314 313 313 313 314 315 316 317 318 318 319 325 332 337 343 349 354 359 366 372 380 389 397 405 413 422 429 436 444 452 456 457 455 455 453 451 450 449 446 442 439 437 433 431 429 426 424 422 420 416 412 406 401 396 390 383 374 374 380 387 394 399 406 412 416 420 423 425 429 432 432 430 427 427 426 422 418 412 407 405 403 401 398 393 385 378 372 364 355 347 338 326 315 306 297 289 283 275 267 262 264 272 279 282 284 288 293 297 303 309 314 318 322 329 334 337 338 337 334 331 324 314 309 303 294 287 275 266 262 260 257 255 258 259 258 255 253 249 247 249 256 263 270 277 282 286 292 301 308 312 314 313 310 305 304 304 303 302 300 297 294 291 288 285 284 282 279 283 289 292 292 292 294 298 302 302 299 299 301 302 303 304 306 306 306 302 301 293 280 265 254 249 246 242 234 228 224 222 217 211 210 212 214 216 218 220 224 230 237 244 251 258 264
563 575 586 596 607 617 623 625 627 627 625 622 622 626 627 626 625 626 626 624 623 624 626 628 628 630 633 636 638 640 643 647 650 652 655 657 660 660 658 657 655 653 653 653 654 658 662 667 671 674 676 677 677 676 675 673 669 662 655 647 642 638 635 631 628 623 619 616 615 617 618 617 616 616 614 616 620 624 625 623 625 629 634 640 645 651 659 663 666 666 665 664 662 659 657 656 655 652 651 651 653 654 654 654 653 653 653 653 654 654 654 650 646 650 653 654 655 654 653 651 647 644 641 638 635 633 633 631 629 627 624 624 623 624 624 623 620 619 620 622 624 630 635 641 647 648 645 644 642 641 637 633 624 616 606 597 595 596 596 594 593 594 593 590 584 579 572 569 569 568 565 564 562 557 553 549 544 538 530 517 508 504 498 500 509 514 516 518 518 519 520 523 525 527 529 531 532 534 536 536 535 533 532 530 529 529 530 530 529 529 530 532 534 534 534 534 533 531 529 528 525 524 523 521 521 521 522 522 523 524 524 523 522 520 518 514 510 507 506 506 505 504 504 503 502 502 502 502 501 500 499 498 495 489 481 474 473 473 474 476 477 479 482 486 488 489 488 488 490 493 497 504 511 519 526 532 537 542 544 543 543 541 540 537 533 531 531 536 540 543 546 550 554 560 563 566 568 566 566 568 572 576 579 582 584 585 587 587 587 588 588 588 586 584 579 573 567 561 554 548 544 543 544 548 550 552 552 552 552 554 555 559 564 569 572 571 566 559 552 544 538 531 525 522 522 524 529 535 541 548 554 558 561 559 551 547 538 528 522 514 508 504 503 503 501 500 499 498 499 501 501 500 497 490 482 473 462 447 428 410 395 383 372 361 352 343 332 324 318 309 300 291 283 277 273 272 268 262 257 255 254 252 252 256 259 261 264 268 270 271 272 272 271 269 266 263 261 264 269 273 276 277 282 287 293 297 298 297 294 288 281 270 263 256 248 242 236 227 221 216 211 209 209 208 206 203 203 204 206 212 225 238 247 256 265 274 286 297 308 316 320 322 323 328 337 347 357 366 371 374 377 379 378 376 376 375 375 378 384 387 387 383 377 374 371 369 370 365 358 350 340 330 321 313 305 300 294 290 288 286 283 281 277 272 268 270 274 273 271 269 267 264 261 259 256 249 241 236 241 253 267 273 276 283 291 296 301 305 309 310 310 309 307 307 307 307 307 308 309 310 311 311 311 313 318 325 330 334 341 345 352 360 368 378 388 398 409 418 423 429 434 443 451 456 456 455 455 453 454 453 450 447 444 443 441 437 434 431 430 428 425 423 420 416 411 405 399 393 386 380 377 383 389 395 400 407 414 418 421 424 427 431 435 436 436 433 432 430 427 424 417 414 410 406 403 400 393 385 378 372 364 354 347 338 325 316 307 298 290 284 278 271 265 267 276 282 285 286 292 298 302 309 315 320 324 328 334 340 343 343 342 338 334 327 318 313 306 296 288 276 271 270 270 267 264 267 267 266 262 258 255 252 252 258 267 274 281 285 290 298 307 312 316 318 318 315 310 311 312 311 310 309 306 303 299 296 291 290 288 286 288 294 297 298 298 298 302 307 308 304 302 303 304 304 305 306 306 306 303 302 295 282 268 256 247 239 235 229 225 224 221 215 213 214 215 217 219 222 224 226 232 240 247 255 262 268
570 584 594 606 616 624 630 632 633 634 632 628 627 630 631 629 630 629 628 629 625 626 628 630 631 632 634 637 640 643 645 648 653 655 658 659 661 662 662 662 660 656 653 654 656 659 663 668 673 675 677 678 678 677 675 673 671 664 655 647 641 635 631 627 624 621 619 619 619 618 620 620 620 618 617 617 619 624 629 628 627 630 636 642 647 654 661 666 668 669 668 667 665 662 661 659 656 653 653 653 654 655 655 654 654 653 654 655 656 656 655 653 650 653 655 656 657 657 655 653 649 646 643 639 635 635 634 632 629 628 627 626 626 626 625 623 622 622 623 625 626 631 637 642 645 644 640 637 635 634 629 625 619 616 607 596 591 590 591 590 587 590 588 587 582 579 574 569 569 569 567 566 565 559 554 550 546 543 536 523 514 506 500 506 513 517 520 522 523 524 525 527 530 532 534 536 537 538 538 538 535 533 532 530 530 530 531 530 530 530 531 532 533 534 535 534 534 532 531 529 527 525 523 522 521 521 522 522 523 524 524 523 522 521 519 515 511 509 509 508 508 508 508 507 504 503 503 503 502 501 499 498 494 489 482 476 474 474 475 477 478 480 487 492 495 495 495 495 493 492 496 502 509 517 524 530 535 539 543 542 542 541 540 538 534 532 532 533 538 541 544 547 551 556 559 563 564 563 563 566 571 576 579 582 583 584 586 586 586 587 587 588 586 583 580 574 568 561 555 550 546 541 539 542 546 548 549 550 551 553 555 558 562 567 570 569 565 559 552 543 535 529 525 521 519 521 527 533 540 546 552 555 556 554 550 546 538 528 521 514 507 503 502 502 501 500 498 495 496 497 497 495 491 485 476 462 451 437 419 402 388 373 362 354 347 338 329 323 317 309 300 290 281 272 265 260 256 251 247 246 245 245 245 247 248 250 255 260 263 263 264 265 265 263 260 258 256 260 265 268 271 272 277 283 288 293 296 296 293 288 280 270 263 256 248 243 236 226 219 213 209 209 209 208 205 203 203 204 206 212 224 234 242 251 260 268 276 287 296 304 308 311 315 321 328 339 349 358 365 369 372 374 374 373 375 376 378 383 390 392 390 384 377 373 370 368 366 360 353 344 333 324 316 309 303 297 293 289 287 285 283 279 276 274 273 275 276 275 274 272 269 266 263 261 257 250 241 238 240 252 266 272 276 282 289 293 298 301 303 305 304 301 299 299 300 300 301 302 304 304 305 306 306 309 315 320 324 327 331 337 346 354 365 378 389 400 412 422 426 430 435 442 450 455 455 455 455 454 454 454 451 451 450 448 445 441 438 435 434 432 429 426 422 419 414 408 400 395 392 387 383 386 392 397 401 408 415 419 422 426 429 434 438 441 442 440 438 435 431 428 423 420 415 410 406 401 394 386 379 372 364 354 346 336 325 316 308 301 294 287 280 275 269 270 280 285 287 290 297 302 307 314 320 325 330 334 339 344 348 349 346 342 336 327 321 317 308 297 288 283 281 281 279 275 272 274 274 272 269 265 260 256 254 260 269 278 284 288 294 303 310 316 321 323 323 320 317 319 321 320 318 317 315 312 308 304 299 297 295 291 293 299 301 303 303 302 304 306 307 305 304 304 305 305 305 306 306 305 303 301 295 284 271 258 248 238 231 227 224 222 219 216 216 218 218 220 223 225 227 229 235 241 249 257 265 272
577 589 601 614 622 629 633 634 635 638 639 635 631 633 636 634 633 633 629 630 628 628 630 633 635 635 636 638 641 644 646 649 653 656 659 660 662 664 665 664 663 661 656 656 658 661 666 671 674 676 677 679 679 677 674 672 669 663 655 646 639 634 629 624 623 622 621 621 620 620 621 622 622 621 618 617 619 623 629 630 629 631 637 643 648 654 661 667 669 670 670 670 668 667 665 662 659 655 654 655 655 656 656 655 654 654 654 656 657 658 658 656 652 654 656 657 658 659 659 655 652 650 646 642 638 637 636 634 630 629 629 628 627 627 626 623 623 623 624 627 629 633 639 642 643 642 636 632 628 626 622 617 612 610 604 595 590 589 589 586 582 586 585 583 580 577 575 569 569 569 569 566 565 561 557 554 549 544 537 528 516 508 503 507 516 520 523 525 526 527 530 533 536 538 540 542 542 542 541 539 536 534 532 531 531 531 531 531 531 531 531 532 533 533 535 535 535 534 532 530 528 526 525 523 523 522 522 522 523 524 524 524 523 522 521 516 513 512 511 511 510 511 510 509 507 505 505 505 504 500 498 496 493 488 482 477 474 474 475 478 479 483 491 497 499 501 503 503 501 498 496 498 507 515 522 527 532 537 540 540 539 539 539 537 534 532 532 531 535 539 542 545 548 552 555 558 560 559 562 567 572 576 579 582 583 583 585 585 586 586 587 587 585 582 580 574 568 562 557 553 549 543 536 538 541 544 545 548 550 551 553 557 561 565 567 567 565 558 552 543 535 529 524 521 517 519 525 531 537 544 549 553 553 551 547 545 537 527 519 511 505 502 501 502 502 500 497 492 491 492 492 489 484 478 468 452 439 423 409 393 380 365 355 348 342 333 326 321 315 307 298 289 280 271 259 250 245 242 240 240 240 241 241 241 242 243 247 251 253 254 255 257 258 258 256 254 252 256 261 264 267 269 273 278 283 289 293 294 293 287 278 270 263 255 248 242 233 225 217 212 209 209 209 207 205 204 204 205 207 211 223 231 237 244 253 261 268 278 287 293 297 300 305 313 320 329 340 349 359 365 368 370 370 370 373 377 381 388 395 394 391 384 377 372 369 365 360 353 345 337 328 319 312 305 299 293 290 288 286 285 283 281 280 279 279 279 278 276 275 273 270 268 265 262 258 252 244 238 239 252 265 271 275 280 286 290 293 296 297 297 296 294 292 292 293 293 294 295 297 298 300 301 302 305 312 316 319 321 324 331 341 351 363 376 388 400 415 424 430 432 435 441 449 454 455 454 454 455 455 455 455 455 454 452 449 445 442 440 438 435 432 429 424 420 416 409 403 400 397 393 389 389 395 399 403 409 415 419 423 428 433 438 441 444 446 446 445 443 438 432 428 425 420 413 408 403 395 387 380 373 364 354 346 336 325 316 310 306 298 288 283 278 273 275 284 289 292 296 301 305 311 319 325 331 335 338 343 350 354 355 351 345 337 330 325 320 311 298 293 293 293 291 287 282 279 279 279 278 275 272 267 261 257 261 272 280 286 292 299 307 315 323 327 329 329 327 325 327 329 329 328 327 325 321 317 313 307 305 303 297 298 303 306 307 307 308 308 308 307 305 305 305 305 304 304 304 303 302 300 299 295 284 273 258 249 242 232 227 224 222 219 217 219 222 223 224 226 229 232 233 236 242 250 260 267 274
581 590 601 616 624 632 636 637 638 642 643 641 636 637 640 639 638 639 634 631 629 629 632 635 636 637 639 641 644 647 649 651 654 656 659 660 662 664 665 665 663 661 659 660 661 664 669 673 675 677 678 679 679 676 671 666 663 660 654 645 638 633 628 624 626 627 627 625 623 622 622 623 624 623 621 618 620 622 629 631 632 635 639 644 649 654 661 666 669 672 674 674 673 670 668 664 661 658 656 656 657 657 657 656 656 655 656 658 660 660 660 659 656 656 657 658 659 660 660 658 655 653 647 643 640 640 638 635 631 630 629 629 629 629 627 625 624 623 625 627 631 636 640 643 644 643 636 629 623 620 617 612 606 604 598 593 589 587 586 582 579 580 581 579 578 576 575 569 568 569 569 567 565 563 561 556 550 544 538 529 519 513 507 508 517 521 525 528 530 531 533 537 540 543 545 547 547 546 545 542 539 535 532 531 531 531 531 531 531 532 532 532 532 533 534 535 535 534 533 531 529 527 525 524 523 521 521 521 522 523 523 524 524 523 522 519 516 515 513 512 512 512 511 510 509 508 507 506 504 499 495 493 490 486 480 477 474 475 476 478 481 486 493 499 503 507 509 509 508 506 503 498 503 512 519 524 528 533 537 537 537 535 535 534 531 531 531 531 533 537 541 543 545 548 549 553 554 559 565 570 574 577 579 582 583 584 585 585 585 585 585 585 583 581 578 572 569 564 560 556 551 543 535 534 537 539 542 546 548 549 551 554 559 562 566 566 565 558 551 543 535 528 523 518 515 517 523 528 535 540 545 549 550 548 545 543 535 526 518 510 505 502 499 501 501 498 495 490 486 486 485 482 478 471 461 445 427 413 400 386 372 358 349 342 335 328 322 318 313 305 296 285 275 266 255 245 243 242 240 240 239 239 239 239 238 238 241 242 242 244 247 249 251 251 250 248 247 251 257 260 262 264 269 274 280 286 289 292 290 284 277 270 262 253 246 239 230 222 216 213 210 210 208 206 205 204 205 206 207 211 220 228 233 238 242 251 260 268 277 284 288 291 296 304 314 323 333 343 353 361 366 367 365 368 372 378 384 391 395 394 391 384 376 371 366 360 354 347 339 331 323 316 308 301 295 291 290 288 287 287 287 286 286 285 282 281 279 277 275 274 272 270 266 264 260 256 249 241 240 250 262 269 273 277 282 286 288 290 291 290 289 288 287 286 287 287 288 289 291 294 295 296 299 303 307 311 313 316 321 329 341 350 360 374 386 400 416 426 431 433 434 439 446 453 455 454 454 454 455 456 458 459 458 456 452 449 447 445 442 438 435 432 427 423 418 412 409 406 402 398 393 391 396 402 407 411 416 420 424 429 435 440 444 447 449 451 451 450 444 436 431 430 425 417 410 405 397 389 381 373 363 354 346 338 329 319 313 307 298 290 285 279 275 281 287 293 298 300 304 309 315 322 329 335 339 341 346 352 356 356 353 347 339 333 327 321 311 302 299 301 300 298 295 291 286 286 286 284 281 277 273 267 260 263 274 282 288 295 303 311 321 329 332 334 335 333 332 335 337 339 339 338 336 332 328 323 316 312 310 306 303 306 309 311 312 314 315 315 313 309 306 305 304 303 302 300 298 297 296 295 291 283 272 258 248 242 234 229 227 225 222 220 222 226 227 229 231 234 236 237 239 244 250 259 268 275
580 589 601 616 624 632 637 639 641 642 644 645 641 641 644 644 643 643 637 633 632 632 634 636 636 638 640 642 647 649 651 653 654 656 659 659 661 663 665 665 663 662 661 661 663 666 671 673 676 677 678 678 678 673 668 663 660 658 652 644 636 631 629 629 631 633 633 631 628 623 623 625 625 622 622 621 622 623 629 631 633 636 640 645 649 653 660 666 669 674 677 679 678 675 670 666 663 659 658 658 659 659 659 658 658 658 658 660 661 662 662 661 658 658 659 660 660 661 661 659 655 653 648 645 643 643 640 637 635 633 631 631 632 631 627 627 626 625 627 630 634 637 641 645 647 644 636 629 623 616 611 608 604 601 598 594 589 586 584 582 580 575 575 574 573 572 573 567 566 568 568 566 565 564 562 556 550 545 538 529 521 514 509 508 516 522 526 530 533 536 538 541 545 547 550 551 552 551 549 546 541 536 532 533 531 531 530 530 531 532 532 531 531 532 533 534 534 534 534 532 530 528 526 524 524 521 520 520 522 523 523 524 524 523 522 521 518 517 516 515 514 513 512 511 510 509 509 508 505 499 493 491 488 483 479 477 476 476 477 479 482 488 495 501 507 511 514 515 514 512 510 505 503 508 516 520 525 529 533 533 531 531 531 529 530 530 531 532 532 534 538 540 543 546 548 550 555 560 567 573 576 578 580 582 584 584 585 585 583 582 582 582 581 579 576 572 569 566 562 558 551 543 535 532 534 536 538 543 546 546 549 553 557 561 564 565 564 557 549 541 533 527 522 517 514 515 521 526 530 536 540 544 546 545 542 539 533 524 519 512 506 502 498 497 497 495 491 487 482 480 479 476 471 465 455 440 421 406 394 381 368 355 346 338 329 322 319 314 308 300 290 279 268 258 249 244 245 246 246 245 243 239 238 237 236 235 236 236 236 238 240 242 244 244 244 242 241 245 251 254 257 261 267 272 276 281 286 288 287 281 274 268 260 252 244 236 226 220 215 213 210 209 207 207 206 207 207 208 208 212 217 224 230 233 237 243 252 260 268 274 281 285 290 297 309 320 328 339 349 358 363 363 360 366 372 378 383 389 394 394 390 383 375 370 363 356 350 344 336 328 322 315 308 300 294 292 292 292 291 292 292 291 290 288 285 283 281 278 276 276 274 269 266 263 260 256 250 242 243 251 259 266 271 275 278 281 284 285 285 284 283 282 281 280 281 282 284 286 287 292 294 295 297 300 304 308 311 314 322 328 339 349 357 371 386 400 415 426 431 433 434 437 443 450 453 453 453 454 455 456 459 462 461 459 456 453 451 449 447 443 438 433 429 425 422 418 414 410 406 403 397 394 398 405 410 414 417 421 426 432 438 443 446 449 452 455 456 452 447 439 436 434 429 422 414 407 401 393 383 373 364 354 347 340 331 322 316 308 298 291 286 281 280 286 291 297 301 303 307 313 319 326 334 340 342 344 349 354 357 357 354 349 342 335 327 320 311 306 305 306 305 303 301 298 294 294 294 292 288 284 278 272 267 268 276 284 291 299 307 317 327 334 337 338 339 338 339 341 344 347 348 347 345 343 339 334 328 322 319 314 308 309 313 316 319 321 323 325 323 319 313 309 305 301 296 294 292 291 291 291 288 281 272 258 247 242 240 237 233 229 225 222 225 229 232 235 237 240 241 242 243 247 251 259 268 275
578 587 600 613 622 631 638 640 643 644 646 647 644 643 647 648 648 646 638 634 635 635 635 636 636 639 640 643 648 649 651 654 654 656 658 658 659 661 662 663 662 662 662 662 663 666 671 673 675 676 677 676 673 667 665 662 659 653 647 641 635 632 631 633 636 638 636 636 632 626 628 627 625 623 624 623 623 623 630 632 634 637 640 645 649 653 659 665 669 674 678 679 679 678 672 667 663 660 659 659 660 660 659 659 660 659 659 661 663 665 665 662 659 660 661 662 663 662 661 659 656 653 653 648 648 645 641 640 636 634 634 634 634 633 628 628 627 627 629 632 636 638 642 646 648 647 639 631 625 617 609 604 603 601 598 594 589 587 589 589 586 580 574 570 570 567 567 564 560 561 564 562 563 560 556 554 549 544 537 531 522 514 511 508 515 521 526 532 536 539 543 545 548 551 553 554 555 554 552 549 544 539 536 537 532 531 530 530 531 531 531 530 530 531 532 533 534 534 534 533 530 529 526 525 524 521 520 519 521 522 523 523 523 524 522 521 520 518 517 516 515 514 514 513 512 511 510 508 505 501 491 486 484 480 477 477 477 477 479 481 484 491 497 503 508 513 517 519 519 518 516 511 508 508 512 516 520 524 527 529 527 527 528 529 530 531 531 532 532 534 537 540 543 546 549 552 557 563 569 574 577 580 582 584 585 585 585 585 583 580 580 580 579 577 575 572 570 566 562 557 551 542 535 530 530 531 535 539 542 544 544 549 554 558 563 564 562 556 549 541 534 527 521 516 512 512 518 522 526 531 535 539 542 542 538 536 530 524 519 513 508 503 499 496 494 491 487 483 478 475 473 470 465 459 448 432 414 399 386 375 364 353 345 337 328 321 314 308 301 294 285 273 261 252 246 245 248 252 253 252 251 245 241 239 236 234 233 234 234 234 235 237 238 238 238 237 237 240 245 248 251 258 264 268 273 278 281 283 281 277 271 266 259 251 243 235 225 218 215 213 210 208 208 208 208 209 210 210 211 213 218 225 231 236 241 246 252 258 264 269 275 280 285 294 306 318 326 335 345 354 358 359 359 366 372 377 382 387 391 392 390 383 375 369 361 355 349 342 335 327 320 314 306 297 294 294 295 295 295 295 296 295 292 290 288 285 282 279 278 276 273 268 265 262 259 255 249 244 246 251 257 262 267 271 274 277 279 280 280 279 278 278 277 276 279 282 285 288 293 299 302 302 303 302 305 307 310 314 321 327 336 346 356 369 385 398 413 425 430 432 434 437 442 448 451 452 452 453 455 456 461 466 465 462 459 457 455 453 450 446 441 435 431 428 425 422 418 414 410 405 400 398 400 407 413 417 421 423 427 433 440 445 449 453 456 458 458 453 448 444 441 438 433 426 417 410 403 396 385 375 365 358 350 342 334 328 321 310 300 294 288 283 283 289 296 301 303 305 309 315 323 330 337 343 346 348 351 355 359 358 355 350 343 335 326 319 313 312 312 312 310 309 307 304 300 300 300 299 295 292 285 279 275 273 277 287 296 304 314 323 332 338 341 343 344 345 346 348 351 355 358 358 358 356 352 346 340 333 328 322 315 314 318 322 325 328 330 332 332 328 322 316 310 303 295 292 291 290 289 288 286 280 271 258 248 247 246 243 239 233 228 226 228 232 236 240 242 244 246 246 247 250 254 260 267 274
