ncols         874
nrows         33
xllcorner     -77.8
yllcorner     38.00003
cellsize      1.0E-5
NODATA_value  -9999
87 86 86 87 85 84 82 79 78 78 78 78 78 78 78 77 76 76 76 76 76 76 76 76 76 76 76 76 76 76 76 76 76 76 76 76 76 76 76 76 76 76 76 76 76 76 79 80 79 79 79 79 81 79 76 76 76 76 77 80 81 83 85 87 87 87 90 94 97 97 98 98 99 101 101 101 100 99 98 98 98 98 98 97 95 92 92 92 92 92 92 92 91 91 90 89 88 87 85 82 79 78 78 77 76 76 76 76 76 76 76 76 76 76 76 76 76 76 76 76 77 77 78 78 78 78 77 77 77 76 76 76 76 76 76 78 80 81 81 82 82 82 82 82 83 83 81 78 77 80 85 87 85 85 83 84 85 86 86 87 86 84 84 82 81 80 80 80 81 81 80 79 78 76 76 76 76 76 76 76 76 76 76 76 76 76 76 76 76 76 76 76 76 76 76 76 76 76 76 76 76 76 76 76 76 76 76 76 76 76 76 76 76 76 76 76 76 76 76 76 76 76 76 76 76 76 76 76 76 76 76 76 76 76 76 76 76 76 76 76 76 76 76 76 76 76 76 76 75 74 73 71 73 76 77 75 72 72 73 71 70 69 69 70 73 74 74 72 72 72 70 67 66 65 63 62 63 67 68 67 66 69 70 71 70 69 68 68 66 66 65 62 60 58 57 58 59 59 60 62 62 62 65 68 71 71 71 70 70 72 73 70 66 65 67 68 68 69 69 69 68 66 66 65 63 62 64 65 62 60 60 60 60 59 59 61 64 65 64 66 71 74 71 67 64 65 64 63 63 65 66 65 65 66 68 70 70 72 75 77 75 74 75 74 73 76 78 77 75 72 70 67 65 62 61 63 66 69 72 74 76 76 77 81 85 87 86 84 84 85 87 88 86 84 81 81 83 83 82 80 76 73 73 74 76 79 80 81 84 85 85 86 88 91 94 94 93 92 90 89 88 88 88 89 88 87 83 80 75 70 67 66 65 66 67 67 68 68 67 66 65 63 62 61 60 62 64 66 68 69 71 72 72 72 72 76 81 82 82 84 84 83 84 86 86 85 86 87 87 85 85 84 82 81 82 85 89 90 88 85 84 84 85 87 89 90 92 92 92 90 89 86 83 80 77 78 79 78 78 78 77 78 79 79 79 80 81 83 85 86 86 86 87 88 88 88 86 86 87 91 91 89 87 84 81 81 82 80 79 79 80 81 82 84 84 84 86 88 87 86 86 84 81 81 85 86 86 86 87 86 85 85 85 87 89 91 90 90 92 95 98 99 99 99 99 98 100 101 100 99 99 100 100 101 103 104 102 100 100 103 104 104 104 105 106 103 102 102 103 101 100 100 100 101 101 101 100 98 96 96 98 101 100 97 96 98 98 99 99 97 96 97 97 96 95 93 93 93 91 89 88 91 94 94 90 88 90 89 87 84 80 80 80 84 87 87 87 89 89 86 84 84 85 85 86 88 88 88 86 85 84 86 89 90 90 91 91 91 94 97 97 96 94 94 97 100 100 99 98 98 94 92 92 92 90 89 91 94 94 94 94 91 91 89 89 90 91 90 90 89 88 88 89 91 88 87 86 83 80 79 78 76 76 77 78 77 75 75 77 78 78 79 83 83 83 84 85 86 88 87 84 84 84 86 85 83 80 80 84 85 81 80 81 86 90 90 90 88 86 84 80 77 78 84 86 85 82 78 77 76 73 72 72 72 71 71 72 73 74 74 72 71 71 74 77 80 81 81 79 76 72 69 71 77 82 83 82 81 80 79 77 78 80 80 78 78 78 82 83 81 80 83 85 83 79 75 73 76 78 75 76 76 75 75 74 72 70 71 71 71 71 72 72 72 73 73 72 70 69 70 71 72 71 69 69 71 72 73 72 71 72 72 72 72 72 72 74 75 73 74 76 78 76 76 78 78 77 78 81 77 75 74 74 75 77 78 79 79 78 78 76 73 73 74 76 76 73 72 75 76 75 74 72 70
87 86 86 86 84 83 81 79 78 78 78 78 78 78 78 77 76 76 76 76 76 76 76 76 76 76 76 76 76 76 76 76 76 76 76 76 76 76 76 76 76 76 76 76 76 77 79 80 80 80 80 80 81 80 78 76 76 76 76 79 81 83 85 87 87 87 91 95 98 98 98 98 99 100 100 100 100 100 99 99 99 99 98 97 95 94 92 92 92 92 92 91 90 89 89 88 88 87 84 81 79 78 78 76 76 76 76 76 76 76 76 76 76 76 76 76 76 76 76 76 77 78 78 79 79 78 78 78 78 77 76 76 76 76 76 78 79 81 81 82 82 82 82 82 83 84 82 78 78 81 86 87 87 87 86 84 84 84 85 89 89 88 87 83 79 76 76 77 78 76 76 76 76 76 76 76 76 76 76 76 76 76 76 76 76 76 76 76 76 76 76 76 76 76 76 76 76 76 76 76 76 76 76 76 76 76 76 76 76 76 76 76 76 76 76 76 76 76 76 76 76 76 76 76 76 76 76 76 76 76 76 76 76 76 76 76 76 76 76 76 76 76 76 76 76 76 76 76 76 76 75 70 71 74 74 73 73 75 75 73 71 69 70 73 76 76 75 73 70 69 68 68 69 66 62 60 62 66 68 68 68 69 70 71 69 68 69 68 68 68 65 62 61 59 57 57 57 58 58 60 62 63 66 70 70 69 69 68 68 69 72 70 67 66 68 69 68 69 70 69 67 66 66 65 62 62 65 66 65 62 59 59 60 57 57 60 64 64 63 66 71 74 72 68 66 67 65 63 64 67 68 68 67 69 69 69 68 69 72 74 73 74 75 75 73 74 75 75 74 71 68 65 62 62 62 64 68 70 71 71 73 75 77 79 85 89 91 88 85 86 88 89 86 83 80 79 78 81 83 82 76 73 73 73 74 78 80 80 81 83 85 86 89 92 93 94 94 93 90 88 87 86 86 87 88 88 85 81 76 71 67 66 65 67 67 66 65 66 67 66 64 62 60 61 61 62 65 68 69 69 71 71 70 69 69 73 79 81 81 82 83 83 83 84 85 85 86 88 87 85 85 84 84 83 84 86 89 89 88 86 84 84 85 88 87 87 90 92 91 89 88 86 82 77 74 74 77 78 80 81 80 80 80 80 80 79 80 82 83 85 86 87 87 87 87 88 87 86 87 90 90 89 87 85 82 81 81 79 77 77 78 80 82 83 83 84 86 88 85 84 84 81 79 82 87 88 88 87 86 84 84 85 86 87 89 91 91 91 93 95 98 99 99 99 99 97 98 100 99 99 99 98 98 100 103 104 102 99 100 102 105 105 103 102 103 103 103 102 103 102 101 100 102 102 100 100 100 99 97 96 98 100 100 99 98 98 99 101 101 99 97 97 97 96 96 93 90 90 88 87 90 93 94 92 90 89 88 85 84 83 82 81 82 85 89 89 88 90 90 89 86 83 83 84 87 91 91 90 88 87 86 86 89 90 90 92 91 90 93 97 98 97 95 94 97 100 102 101 100 99 94 92 92 93 91 88 89 93 95 96 95 92 90 89 89 89 90 88 88 87 86 87 88 89 86 86 85 83 82 81 78 76 76 78 78 77 76 76 76 77 77 80 81 81 80 81 85 86 86 84 84 87 87 87 86 83 81 80 82 83 79 76 77 82 89 95 95 91 87 85 81 79 81 86 87 86 82 77 77 76 74 74 75 72 70 71 72 72 72 71 69 69 69 73 78 80 82 82 78 75 71 69 72 78 82 84 82 81 81 81 80 80 80 79 78 78 78 80 82 82 82 85 87 85 79 74 72 74 76 75 75 76 76 75 75 73 71 71 71 71 71 71 73 73 73 74 73 71 70 68 68 68 69 69 69 70 71 73 73 70 70 70 72 72 72 72 73 75 74 73 76 80 80 78 78 78 77 77 78 75 73 73 76 76 77 79 79 79 78 78 76 73 73 73 75 75 73 73 74 75 74 74 72 69
87 86 85 84 83 81 80 79 78 78 78 78 78 78 77 77 76 76 76 76 76 76 76 76 76 76 76 76 76 76 76 76 76 76 76 76 76 76 76 76 76 76 76 76 76 77 78 79 81 81 80 80 81 81 81 79 76 76 76 78 80 82 85 87 88 89 92 96 99 99 99 99 99 100 100 100 100 100 100 100 100 100 99 97 95 94 92 92 92 92 91 90 89 88 88 87 86 84 82 80 79 78 77 75 75 76 76 76 76 76 76 76 76 76 76 76 76 76 76 76 78 78 78 79 79 79 78 78 78 78 77 76 76 76 76 79 80 81 82 82 82 82 82 83 84 84 84 85 86 87 88 87 87 86 85 85 84 82 82 85 86 85 84 82 77 76 76 76 76 76 76 76 76 76 76 76 76 76 76 76 76 76 76 76 76 76 76 76 76 76 76 76 76 76 76 76 76 76 76 76 76 76 76 76 76 76 76 76 76 76 76 76 76 76 76 76 76 76 76 76 76 76 76 76 76 76 76 76 76 76 76 76 76 76 76 76 76 76 76 76 76 76 76 76 76 76 76 76 76 77 78 75 73 74 73 71 72 75 76 75 75 75 74 73 74 75 74 73 71 69 69 68 68 67 65 63 64 65 68 68 68 69 70 70 68 67 67 68 68 66 65 65 65 63 60 58 58 58 58 58 60 63 65 67 67 66 65 64 64 64 64 63 63 63 64 65 66 68 67 65 62 61 62 61 60 60 61 62 62 61 61 63 64 60 57 60 62 64 64 65 66 68 68 68 69 70 69 67 66 65 67 68 71 72 70 67 66 66 68 69 69 72 74 73 71 71 72 71 71 72 70 67 64 63 62 62 66 70 71 71 72 73 75 79 84 88 91 91 90 90 90 89 86 84 82 82 81 81 79 76 72 70 71 73 75 78 78 78 79 80 83 85 88 89 90 92 93 93 91 89 89 88 87 86 87 86 83 80 77 74 71 67 65 66 66 66 66 66 67 67 65 62 61 61 63 64 65 66 67 69 71 72 71 69 70 72 76 79 80 80 81 82 81 81 82 85 86 86 86 85 85 85 85 85 85 85 84 84 85 86 85 86 89 89 85 84 86 90 89 86 86 86 85 80 74 71 72 74 77 80 80 80 80 80 79 80 82 83 85 86 86 87 88 88 88 87 85 85 87 90 89 88 89 87 83 80 79 77 77 78 80 81 81 81 82 83 85 84 82 84 85 83 81 81 83 86 88 88 85 82 82 82 84 87 89 89 89 90 93 96 98 100 99 97 97 97 98 100 102 101 99 98 99 102 102 101 101 103 104 104 104 104 101 99 101 102 102 100 100 101 100 100 101 102 101 99 99 100 100 99 98 99 100 102 103 102 102 103 102 101 98 97 96 94 93 91 90 90 88 87 90 92 92 91 90 87 83 82 84 87 88 86 84 85 88 88 88 88 88 88 87 85 85 85 86 88 89 89 87 88 88 90 93 93 95 98 97 93 92 94 95 96 96 95 95 99 102 100 98 97 96 95 94 95 94 91 88 88 90 93 94 94 92 91 91 88 87 87 85 83 83 85 86 86 84 84 85 84 84 83 78 73 75 76 77 79 79 76 76 77 80 81 81 80 78 78 81 83 80 79 79 84 85 85 81 79 79 80 81 79 75 75 77 82 89 97 98 95 91 87 82 81 84 85 85 83 81 77 76 75 73 73 73 74 72 71 71 71 70 70 70 70 70 70 74 76 78 78 74 73 71 71 76 79 81 81 80 81 84 84 83 84 80 78 77 77 77 77 80 82 82 85 88 87 81 76 73 73 74 75 76 78 78 77 75 72 71 71 72 75 74 73 73 74 71 72 72 69 68 66 66 68 70 70 70 69 70 73 73 71 71 70 72 73 73 73 76 76 75 75 78 82 82 79 78 78 76 75 74 73 72 73 74 73 75 77 76 76 76 75 75 73 75 76 75 73 73 73 72 72 73 73 72 69
87 86 85 83 81 80 79 78 78 78 78 77 77 77 76 76 77 76 76 76 76 76 76 76 76 76 76 76 76 76 76 76 76 76 76 76 76 76 76 76 76 76 76 76 76 76 77 78 80 81 81 81 82 83 83 81 77 75 76 76 78 82 84 86 87 89 93 96 99 100 100 100 100 100 100 100 100 100 100 100 100 100 98 96 94 92 92 92 92 92 92 92 89 88 87 86 84 83 81 79 78 77 76 75 75 76 76 76 76 76 76 76 76 76 76 76 76 76 76 76 76 78 78 78 78 78 79 79 79 79 77 76 76 76 78 79 80 80 82 82 82 82 82 84 85 86 87 88 90 90 87 87 87 86 84 84 83 82 83 84 84 82 81 83 79 75 75 75 76 76 76 76 76 76 76 76 76 76 76 76 76 76 76 76 76 76 76 76 76 76 76 76 76 76 76 76 76 76 76 76 76 76 76 76 76 76 76 76 76 76 76 76 76 76 76 76 76 76 76 76 76 77 81 82 84 81 76 76 76 76 76 76 76 76 76 76 76 76 76 76 76 76 76 76 76 76 76 76 76 76 80 82 79 75 74 73 74 75 75 78 78 76 75 72 72 73 73 72 71 69 68 65 65 67 68 68 68 68 69 70 70 69 69 70 69 67 68 71 71 69 68 69 67 65 61 59 57 56 58 58 59 60 61 62 62 61 60 59 59 59 59 60 61 61 62 64 64 65 64 62 59 58 58 59 63 65 65 65 64 63 64 64 62 60 60 63 65 67 67 65 64 64 65 67 69 68 67 66 64 63 64 67 71 72 69 65 65 68 71 71 69 68 70 68 66 67 67 68 69 69 68 67 65 64 62 62 66 70 72 72 72 73 75 77 81 85 90 95 97 95 91 88 86 84 86 87 85 82 75 71 69 67 68 71 74 76 76 76 78 80 84 87 87 87 89 91 92 92 91 90 89 89 88 86 84 82 78 76 75 73 70 68 65 63 65 68 70 69 67 67 65 62 60 60 64 65 65 67 68 69 71 72 72 73 73 74 75 77 78 78 78 79 79 79 80 83 86 88 89 88 88 86 87 87 86 83 82 83 83 83 85 89 91 90 86 84 86 89 88 84 82 83 83 81 76 72 73 74 75 75 76 77 76 76 78 81 84 84 85 86 87 85 85 86 87 85 83 83 86 88 87 86 88 86 82 79 78 77 78 80 82 83 82 82 82 83 83 83 84 86 87 84 81 81 83 85 86 84 82 82 82 82 84 86 88 86 86 88 91 94 97 98 98 97 98 97 97 99 100 99 97 97 99 102 103 102 103 105 106 104 103 103 101 99 99 101 102 101 100 100 99 99 99 100 101 100 100 100 100 101 101 100 100 102 104 104 103 103 103 101 98 97 96 93 92 92 93 93 90 88 88 90 93 93 89 84 82 84 88 92 90 87 85 85 86 88 89 88 87 87 87 86 86 86 87 88 87 88 88 88 89 92 95 95 98 102 102 96 92 91 93 96 97 96 95 97 98 99 98 97 97 98 97 96 96 94 92 88 85 86 89 92 92 92 92 90 88 86 85 84 83 86 88 87 86 85 83 81 82 80 74 72 73 74 75 78 77 76 78 79 80 81 82 82 80 79 79 79 77 78 81 82 81 81 78 76 76 78 79 76 74 76 80 86 93 99 98 93 90 86 81 81 82 82 80 78 77 76 74 72 71 72 74 77 74 69 69 70 70 71 75 76 75 74 74 74 76 77 73 73 73 75 78 80 80 80 79 80 81 81 82 83 80 78 77 76 76 78 80 81 81 82 85 83 79 76 74 73 73 74 74 76 78 78 75 73 71 71 72 73 73 72 72 72 70 70 69 68 68 68 67 66 66 66 68 71 71 72 73 73 74 76 76 78 78 77 77 77 77 75 75 80 82 79 77 76 75 73 73 72 72 73 75 74 74 74 74 75 75 75 75 75 77 76 74 72 72 72 69 68 69 72 72 71
88 85 84 83 80 79 78 78 78 78 77 77 76 76 76 77 78 76 76 76 76 76 76 76 76 76 76 76 76 76 76 76 76 76 76 77 77 77 77 77 76 76 76 76 76 76 78 78 79 81 81 81 83 84 83 81 79 77 76 78 82 83 83 85 86 88 92 95 98 100 100 100 100 100 100 100 100 100 100 100 100 99 98 96 93 90 90 90 92 91 91 91 90 88 86 85 83 82 81 79 78 77 76 76 76 76 76 76 76 76 76 76 76 76 76 76 76 76 76 76 76 76 75 75 75 78 79 79 80 79 79 79 79 80 81 81 80 81 82 83 82 82 83 85 86 87 88 88 88 86 86 87 87 87 85 84 83 81 81 83 83 82 82 82 81 79 75 75 76 76 76 76 76 76 76 76 76 76 76 76 76 76 76 76 76 76 76 76 76 76 76 76 76 76 76 76 76 76 76 76 76 76 76 76 76 76 76 76 76 76 76 76 76 76 76 76 76 76 77 77 76 78 80 79 79 78 76 76 76 76 76 76 76 76 76 76 76 76 76 76 76 76 76 76 76 76 76 76 76 76 77 80 80 77 75 77 77 78 79 79 77 76 76 76 74 73 71 71 72 71 69 66 66 67 68 68 69 70 72 73 72 69 68 68 69 69 70 71 72 72 71 69 67 66 64 61 59 57 57 57 57 58 59 60 59 58 57 57 57 57 59 60 61 62 62 62 62 63 63 62 62 62 61 62 67 71 73 71 69 68 66 65 63 63 65 67 70 71 71 69 66 62 61 61 62 61 60 60 60 62 65 68 70 72 71 69 67 68 68 69 68 68 67 65 64 66 68 68 69 68 68 67 64 61 59 62 66 68 69 70 71 72 75 79 82 87 93 97 97 94 91 88 85 83 82 82 80 77 75 73 72 71 71 75 78 78 76 79 84 87 87 86 84 84 86 88 90 92 92 90 88 87 87 84 81 78 74 73 73 72 71 70 67 66 65 67 68 68 68 68 66 64 63 63 63 62 62 64 67 69 68 69 72 72 72 73 76 77 77 77 79 80 81 82 83 85 86 87 89 87 86 86 86 86 85 84 83 80 80 82 85 90 90 88 85 84 86 89 88 85 81 80 80 76 73 73 76 77 77 76 77 77 76 75 76 78 80 81 83 84 85 83 83 84 86 85 84 84 87 88 86 84 84 84 82 79 78 78 78 79 81 82 82 82 82 82 84 84 84 86 86 84 81 81 82 82 82 82 82 82 82 83 83 84 86 87 89 89 91 93 95 96 97 98 98 97 96 95 95 96 97 97 97 99 100 101 102 104 105 105 104 103 101 100 102 102 101 101 103 101 100 100 98 100 102 102 102 101 100 101 101 102 102 103 106 106 104 102 103 103 101 97 94 93 92 92 92 90 89 88 88 89 91 90 88 86 86 89 91 92 89 87 86 87 88 88 90 91 91 89 86 86 86 88 88 88 89 92 92 91 91 92 93 95 98 101 102 98 95 94 95 96 95 95 96 96 95 97 99 98 97 97 97 96 95 94 93 89 84 82 86 90 93 90 89 89 87 86 89 89 85 85 88 87 86 84 80 77 75 75 74 74 75 75 75 76 73 75 80 80 81 82 82 82 82 80 79 78 77 78 80 80 80 80 80 76 73 75 76 75 75 79 82 87 94 97 95 92 90 86 80 76 77 77 78 78 76 76 75 73 72 70 69 71 72 71 71 72 72 74 75 75 75 77 77 77 77 77 75 74 75 78 79 80 79 79 78 75 76 78 81 82 79 79 80 80 81 82 83 82 81 82 83 79 77 76 74 73 75 76 74 74 76 76 73 73 72 72 72 71 71 72 70 69 68 66 65 67 69 70 69 68 67 66 69 71 72 70 71 73 74 76 77 78 78 78 77 74 75 75 74 77 77 75 74 75 75 74 73 74 74 76 76 75 72 73 75 75 75 76 75 75 75 74 72 72 70 68 67 66 66 68 71 73
88 85 83 82 79 78 78 78 77 77 77 76 75 76 76 77 77 76 76 76 76 76 76 76 76 76 76 76 76 76 76 76 76 76 77 78 78 79 79 78 78 78 77 76 75 75 76 78 79 80 80 82 84 84 83 82 85 87 81 82 81 81 83 85 86 88 91 93 96 99 100 101 100 100 100 100 100 100 100 99 99 98 97 96 94 91 89 89 91 91 91 91 90 88 86 84 82 81 80 78 77 77 76 77 77 76 76 76 76 76 76 76 76 76 76 76 76 76 76 76 76 76 75 75 76 77 78 79 80 79 79 80 80 81 83 83 83 83 83 83 83 83 85 85 86 87 88 87 86 86 87 88 87 87 86 83 82 80 80 83 83 82 81 81 82 83 81 78 76 76 76 76 76 76 76 76 76 76 76 76 76 76 76 76 76 76 76 76 76 76 76 76 76 76 76 76 76 76 76 76 76 76 76 76 76 76 76 76 76 76 76 76 76 76 76 76 76 76 79 79 78 78 78 76 76 76 76 76 76 76 76 76 76 76 76 76 76 76 76 76 76 76 76 76 76 76 76 76 76 76 76 78 79 76 74 76 79 80 81 79 77 77 78 78 75 73 71 71 74 74 73 71 69 68 65 66 69 70 71 72 72 69 68 68 70 70 71 73 74 73 70 68 66 64 63 62 60 58 57 57 57 57 57 58 58 57 55 55 57 58 59 61 63 64 64 64 64 64 63 65 66 64 60 61 68 75 75 73 71 70 68 67 66 66 69 72 75 77 77 74 69 64 60 58 56 56 56 57 58 60 62 65 67 68 69 69 67 65 67 67 68 69 66 63 63 67 71 70 68 67 67 66 63 59 58 62 66 65 65 67 68 72 76 79 83 88 93 95 93 91 91 90 87 84 81 77 74 73 76 77 76 73 72 76 80 79 77 83 89 91 88 82 80 82 84 86 88 90 92 90 86 85 84 84 81 77 74 73 73 73 74 74 71 68 66 66 67 68 68 67 65 64 64 64 63 61 61 61 63 65 65 68 70 70 70 72 76 79 79 77 78 82 85 87 86 86 86 86 86 86 85 85 87 87 86 85 83 79 77 79 84 88 87 85 83 84 86 87 87 86 85 81 76 72 71 73 76 77 77 79 80 78 76 75 75 76 78 79 81 84 84 83 82 83 86 89 89 88 90 90 87 85 82 82 82 80 79 78 78 79 81 81 81 80 80 82 85 85 85 87 87 84 82 81 81 82 82 82 82 83 84 84 84 85 86 88 91 93 93 93 92 92 94 95 95 95 95 93 93 93 94 95 96 97 98 99 100 101 102 103 104 103 102 102 102 102 101 101 102 102 102 102 99 99 102 105 104 103 103 104 105 106 105 105 107 107 106 103 102 102 99 95 92 91 91 90 88 87 89 90 89 89 89 86 87 89 90 90 89 88 87 87 87 87 90 90 92 94 94 92 89 88 88 90 91 89 90 94 95 94 94 94 93 95 97 99 99 99 98 97 97 97 97 96 95 95 95 96 98 97 94 94 94 94 94 94 93 90 86 85 89 93 92 88 86 86 85 87 90 90 88 85 84 81 80 78 75 73 72 74 76 78 79 76 76 76 74 77 79 81 81 82 83 84 83 79 76 76 76 77 78 76 76 80 80 77 74 74 73 73 75 80 84 89 95 94 90 90 89 85 81 76 76 76 76 74 72 73 73 73 74 73 68 68 72 73 74 74 74 75 77 76 75 78 78 76 74 75 75 75 76 79 79 77 75 75 75 75 77 80 84 84 81 81 81 81 81 81 82 82 80 79 79 78 77 77 75 73 73 74 75 77 79 78 75 74 73 70 70 70 71 69 67 67 68 67 67 67 68 71 72 71 69 68 70 73 73 72 73 75 75 76 76 75 74 75 75 73 74 75 73 73 73 73 73 74 75 74 76 79 78 77 75 74 72 75 77 77 77 76 75 75 72 70 70 71 70 70 69 69 68 67 68 69
88 84 83 82 80 79 78 78 77 76 76 75 75 76 76 76 76 76 76 76 76 76 76 76 76 76 76 76 76 76 76 76 76 76 76 77 78 80 79 79 79 78 78 76 76 75 76 78 79 80 81 82 84 84 83 83 84 84 82 82 81 82 84 85 87 88 89 91 94 97 98 100 100 100 100 100 100 99 99 99 98 98 97 96 95 93 89 90 91 91 91 91 90 89 87 84 82 81 79 78 77 77 77 77 76 76 76 76 76 76 76 76 76 76 76 76 76 76 76 76 76 76 76 76 76 77 78 79 80 80 80 80 81 82 84 84 84 84 84 84 84 84 85 86 86 87 87 87 87 87 88 88 87 86 84 84 84 83 81 81 80 79 79 81 82 82 81 80 79 77 76 76 76 76 76 76 76 76 76 76 76 76 76 76 76 76 76 76 76 76 76 76 76 76 76 76 76 76 76 76 76 76 76 76 76 76 76 76 76 76 76 76 76 76 76 76 76 76 78 80 78 78 78 79 78 76 76 76 76 76 76 76 76 76 76 76 76 76 76 76 76 76 76 76 76 76 76 76 76 76 76 77 79 78 78 79 78 78 79 79 80 81 81 77 74 74 74 73 73 73 74 74 71 67 65 66 69 69 69 71 73 71 70 71 72 74 74 73 71 69 67 64 63 63 62 61 60 59 57 57 57 57 57 57 57 55 55 56 58 60 62 64 65 66 66 66 65 65 64 64 64 62 59 61 67 73 73 71 71 70 70 70 69 69 72 74 76 79 80 77 71 65 61 59 58 57 58 59 58 58 58 61 65 67 67 66 65 65 67 67 67 66 63 62 65 70 71 70 68 66 65 63 61 59 60 64 66 65 65 65 68 72 76 80 83 88 93 95 93 94 96 94 90 86 84 82 78 76 77 78 74 70 71 76 79 77 77 82 88 90 86 81 80 83 85 85 84 87 91 91 88 85 83 82 80 77 76 75 74 73 73 73 72 68 68 69 69 68 66 64 63 64 65 65 64 64 65 64 64 65 65 66 68 69 70 71 75 78 78 77 79 81 83 84 83 83 84 85 86 86 86 87 87 87 86 87 85 81 79 81 86 88 87 85 84 84 84 83 84 85 84 79 74 72 71 73 76 77 77 78 78 77 75 75 75 77 80 81 81 83 84 83 82 83 86 88 89 89 91 91 88 86 83 83 84 82 79 78 80 82 82 80 79 79 80 82 85 86 86 87 86 84 82 81 81 81 81 82 84 84 84 85 87 89 89 88 91 93 95 94 90 88 90 91 91 91 93 93 94 94 94 95 96 98 99 99 100 101 102 102 102 102 102 103 102 102 102 102 101 101 102 100 99 99 101 104 104 104 104 106 107 108 108 107 108 110 109 106 103 101 99 96 93 91 92 92 89 87 88 87 87 87 87 86 87 90 90 90 89 88 88 88 88 88 89 89 89 92 94 95 94 93 93 93 90 89 89 92 94 97 97 98 98 98 98 98 97 97 98 98 96 97 97 96 95 95 96 97 98 96 93 91 89 91 93 94 93 91 88 87 91 92 91 88 85 83 83 87 88 89 88 84 80 76 76 76 73 72 72 75 76 80 80 77 76 76 75 77 79 80 80 80 80 81 80 79 78 78 79 79 79 78 76 77 77 77 76 77 76 75 75 80 84 90 92 90 86 86 85 83 82 80 78 76 74 73 73 74 73 74 75 74 72 68 69 74 74 73 73 76 80 79 75 75 76 73 72 72 74 75 76 78 78 74 71 71 73 75 80 82 85 83 79 79 79 80 80 79 79 80 80 79 78 78 78 78 77 75 75 74 75 78 81 79 76 75 72 67 67 68 67 65 65 68 69 69 70 70 69 71 73 72 71 71 72 74 73 70 71 73 73 73 74 74 74 74 75 73 74 73 71 71 71 72 73 74 74 74 75 78 77 75 74 75 76 78 78 78 77 75 74 73 72 70 70 73 71 71 72 72 72 70 66 61
88 85 83 82 82 80 79 78 77 77 75 75 75 76 76 76 76 76 76 76 76 76 76 76 76 76 76 76 76 76 76 76 76 76 76 78 79 79 79 80 80 80 79 79 79 79 78 78 79 80 82 83 84 84 84 84 84 85 85 85 85 84 84 84 85 85 85 88 92 94 96 98 99 99 100 99 99 99 99 99 98 98 97 96 95 93 91 91 90 89 89 89 88 87 86 84 82 80 78 78 77 77 76 76 77 76 76 76 76 76 76 76 76 76 76 76 76 76 76 76 76 76 76 76 76 78 79 79 80 80 80 80 81 82 84 84 85 85 86 86 86 86 86 86 87 87 87 87 87 87 87 88 87 84 84 84 84 83 81 80 79 78 78 81 80 78 80 80 81 81 77 75 76 76 76 76 76 76 76 76 76 76 76 76 76 76 76 76 76 76 76 76 76 76 76 76 76 76 76 76 76 76 76 76 76 76 76 76 76 76 78 79 77 76 76 75 75 76 79 79 78 78 78 78 76 76 76 76 76 76 76 76 76 76 76 76 76 76 76 76 76 76 76 76 76 76 76 76 76 76 76 77 80 81 81 81 78 78 80 81 83 83 80 76 75 77 77 74 73 72 73 75 72 67 65 67 70 70 70 71 74 75 75 74 74 76 75 72 69 67 64 63 64 66 66 64 62 61 60 59 58 57 57 57 57 56 57 58 60 62 65 66 67 68 68 67 66 66 65 66 66 65 63 64 66 68 67 67 68 68 69 69 69 69 71 73 75 77 78 75 70 65 62 60 59 59 61 62 61 59 58 59 60 63 65 64 64 66 67 66 64 62 61 63 68 70 69 68 66 64 62 62 63 61 62 65 66 66 66 67 68 71 75 79 82 86 91 94 93 94 95 93 90 88 88 87 83 79 76 72 70 70 74 76 76 76 77 79 82 83 82 82 83 85 85 83 82 84 88 91 89 87 84 83 83 81 80 80 78 75 71 70 70 68 67 68 67 65 64 63 61 62 65 66 66 67 69 69 69 68 66 67 69 70 70 72 74 75 75 76 77 78 78 78 79 81 83 84 86 88 88 87 85 84 83 84 84 81 79 83 88 92 91 89 86 82 80 81 82 84 82 77 74 72 71 72 76 78 78 76 75 74 73 73 74 76 79 81 83 85 86 86 86 87 87 84 82 83 86 86 86 86 84 84 84 81 77 78 80 83 83 79 78 78 80 83 87 89 89 86 82 80 79 79 79 79 81 83 84 84 85 86 88 90 91 91 91 91 91 89 88 86 89 92 91 91 91 93 96 97 97 96 98 101 101 101 100 102 103 102 100 100 101 101 101 101 101 101 100 100 100 99 99 99 99 102 103 103 102 101 101 102 103 104 105 108 110 108 104 102 101 100 95 91 92 92 91 90 88 86 85 85 87 87 89 92 91 90 90 90 90 90 89 89 87 87 87 90 93 96 99 99 99 97 93 91 89 89 93 99 103 103 101 98 96 96 96 96 97 98 97 97 97 97 97 97 96 96 96 94 92 91 90 91 91 91 91 91 89 88 91 92 91 91 89 86 84 84 84 84 82 78 76 75 75 76 73 72 72 73 75 76 75 74 74 74 74 77 78 78 77 77 78 79 78 78 79 80 78 78 83 83 78 75 72 72 77 81 79 77 76 78 82 87 87 83 81 81 80 80 83 83 80 75 73 72 73 76 76 77 78 77 75 72 71 75 75 73 73 75 79 79 77 75 75 74 74 73 75 76 77 78 78 74 71 71 72 75 81 83 82 81 80 80 80 78 77 75 76 78 80 80 79 77 77 76 76 76 75 75 75 76 77 78 76 74 72 69 68 67 65 65 68 69 69 69 70 71 72 72 72 75 76 75 73 71 71 71 71 72 71 70 71 72 73 73 73 73 73 71 71 71 71 72 74 74 74 75 75 74 73 74 75 77 77 77 78 78 76 74 73 73 72 71 70 73 73 73 74 74 73 71 68 66
88 86 84 83 82 80 79 78 78 77 76 75 76 76 76 76 76 76 76 76 76 76 76 76 76 76 76 76 76 76 76 76 76 76 76 78 79 79 79 80 80 80 80 80 80 80 79 79 80 81 82 84 85 85 85 85 85 86 87 87 87 86 84 84 84 84 85 87 91 92 94 97 98 98 98 97 97 99 99 99 98 98 97 96 94 93 92 91 89 88 88 87 86 85 84 83 81 80 78 77 77 76 76 76 76 76 76 76 76 76 76 76 76 76 76 76 76 76 76 76 76 76 76 76 76 78 79 80 80 80 80 81 81 82 84 85 86 86 86 87 87 87 87 87 87 87 87 87 87 87 87 87 86 84 83 83 83 83 83 80 76 75 77 78 79 79 81 79 78 78 77 75 76 76 76 76 76 76 76 76 76 76 76 76 76 76 76 76 76 76 76 76 76 76 76 76 76 76 76 76 76 76 76 76 76 76 76 76 76 77 80 79 77 77 76 75 75 77 81 82 80 81 81 78 76 76 76 76 76 76 76 76 76 76 76 76 76 76 76 76 76 76 76 76 76 76 76 76 76 76 75 75 77 80 81 83 83 84 84 83 81 79 78 76 78 78 77 76 75 72 72 72 70 65 66 70 73 73 73 73 75 77 77 77 75 75 72 70 69 68 67 67 66 67 69 68 65 63 62 61 59 58 57 57 57 58 59 61 64 65 67 68 68 68 68 67 67 68 68 68 68 67 66 66 66 65 65 65 66 67 68 68 69 69 70 72 73 73 72 70 67 64 62 62 60 59 59 61 62 61 61 60 60 61 62 64 64 65 64 63 62 61 62 65 69 68 65 63 62 62 62 62 61 59 61 65 67 69 70 71 71 72 74 77 81 86 90 92 91 90 89 88 88 88 86 83 80 77 73 70 68 69 72 74 74 75 77 79 81 82 82 83 85 85 83 82 82 82 86 90 89 87 86 85 83 81 80 81 80 76 72 70 71 70 67 68 68 68 67 65 61 60 61 63 65 68 69 70 69 68 68 70 73 73 73 73 74 74 75 76 77 77 77 79 82 84 85 85 86 87 87 86 84 82 82 81 81 78 76 79 85 90 91 90 86 81 79 80 83 84 83 79 76 73 71 72 75 76 74 73 73 73 73 73 74 77 79 81 82 83 86 87 85 85 85 82 79 79 80 82 83 84 82 82 81 78 76 77 80 80 80 80 80 80 80 82 86 88 88 85 80 78 78 79 79 79 81 83 84 84 85 86 87 89 91 91 90 89 87 87 88 89 91 93 92 91 92 95 98 98 97 98 101 102 102 100 100 102 102 100 100 100 101 101 101 101 100 100 99 99 100 100 100 100 99 101 102 102 101 100 101 101 99 99 100 103 105 103 100 100 102 101 96 93 92 92 93 93 92 89 87 86 88 90 92 93 91 89 89 89 89 89 89 88 87 88 89 91 94 99 103 103 101 98 95 95 95 92 91 97 102 101 98 95 94 94 94 95 97 99 99 98 100 100 97 95 94 94 93 93 92 92 92 92 91 87 87 90 90 90 90 88 88 89 89 89 86 83 80 79 77 75 75 74 74 73 73 73 73 73 73 73 73 73 73 74 75 76 76 76 76 76 77 80 79 78 78 78 78 78 83 82 78 74 73 74 77 80 78 77 77 78 81 83 81 77 77 79 77 77 82 84 81 77 75 73 72 72 76 78 81 80 78 75 72 72 71 71 71 71 73 74 77 77 76 80 79 77 76 77 79 78 77 75 72 71 72 74 79 80 79 79 80 82 81 78 76 75 75 77 80 83 83 80 79 77 76 73 73 76 76 74 73 74 73 72 71 70 70 70 69 68 69 69 69 69 69 69 71 71 71 76 78 77 74 72 73 74 73 73 71 70 71 73 74 72 70 71 73 72 71 70 70 73 74 75 75 75 74 74 74 74 75 76 76 75 74 74 73 73 73 73 72 72 71 71 73 73 73 74 74 71 69 67
86 86 84 83 82 80 79 78 78 77 76 76 76 76 76 76 76 76 76 76 76 76 76 76 76 76 76 76 76 76 76 76 76 76 76 78 79 79 80 81 81 81 81 82 82 81 80 80 81 82 84 85 86 86 86 86 86 87 88 88 88 88 85 85 86 86 87 89 91 92 93 97 98 99 99 98 99 100 101 101 100 98 97 96 95 93 92 90 88 88 87 86 86 85 83 82 80 78 77 77 76 76 76 76 76 76 76 76 76 76 76 76 76 76 76 76 76 76 76 76 76 76 76 76 78 78 79 80 80 81 81 81 81 82 83 85 87 88 88 88 88 88 87 87 87 88 87 87 87 87 87 87 87 85 83 83 83 84 84 81 78 75 76 76 76 77 79 79 76 75 75 76 76 76 76 76 76 76 76 76 76 76 76 76 76 76 76 76 76 76 76 76 76 76 76 76 76 76 76 76 76 76 76 76 76 76 76 76 76 76 77 78 78 78 77 78 79 80 81 81 80 80 81 78 76 76 76 76 76 76 76 76 76 76 76 76 76 76 76 76 76 76 76 76 76 75 74 73 75 75 74 73 73 79 82 84 84 85 85 83 82 82 80 79 81 81 78 77 75 72 71 70 69 66 68 72 73 74 73 73 74 77 78 78 77 74 70 68 69 68 68 69 69 68 69 70 67 65 64 63 61 60 59 58 59 60 61 64 66 68 69 69 69 69 69 68 69 70 70 70 70 69 69 68 65 64 64 65 65 67 67 69 70 70 70 69 68 68 67 66 65 64 65 67 67 64 62 63 64 62 60 59 60 59 60 62 64 65 65 63 62 61 62 64 66 65 63 62 62 62 62 61 60 59 61 65 66 66 69 71 74 76 77 78 81 86 89 89 87 85 84 83 83 84 83 82 79 75 72 71 70 69 70 72 76 77 78 80 81 80 80 81 82 82 80 82 85 85 86 87 87 87 88 87 84 80 79 80 80 78 76 75 75 74 69 67 67 68 68 67 63 60 60 60 62 64 64 65 65 64 67 71 74 75 77 78 77 75 75 78 79 78 79 81 85 86 87 88 88 87 85 83 81 82 84 82 79 77 75 76 79 84 88 89 86 81 79 81 83 82 80 77 73 71 73 75 74 72 72 73 74 74 74 74 74 76 78 79 80 81 82 81 80 79 79 80 80 79 79 80 81 81 79 79 77 75 76 78 80 80 80 82 82 83 82 83 84 84 82 80 78 77 79 81 81 80 81 82 83 84 85 85 85 85 87 89 88 86 86 86 88 90 91 91 92 94 95 96 97 98 98 99 101 103 103 101 101 103 103 102 100 100 100 101 100 100 102 100 99 101 101 101 101 100 101 101 100 102 103 104 105 104 101 100 99 99 99 97 96 97 98 97 95 92 90 90 93 96 95 92 91 91 91 91 92 93 92 89 89 89 88 88 90 89 88 91 92 92 93 96 100 102 101 98 97 100 100 97 96 98 101 99 97 96 96 96 95 96 97 98 99 101 102 101 98 96 94 94 94 94 92 92 94 94 92 89 89 93 95 94 92 91 90 87 87 86 83 80 78 78 78 77 75 74 73 73 73 73 73 73 73 73 73 73 73 73 74 75 75 74 75 76 76 77 78 77 75 75 77 79 79 78 78 77 76 77 76 76 76 79 81 80 80 82 79 74 73 74 75 75 80 83 81 76 74 71 71 73 77 80 83 82 82 80 76 72 69 68 69 70 71 72 76 75 75 78 79 75 74 75 78 78 77 75 72 71 71 72 77 79 79 78 78 79 79 79 79 78 76 76 77 80 81 79 77 74 73 72 72 74 75 73 72 72 72 73 74 73 70 70 71 69 69 70 72 72 69 67 68 69 69 73 77 78 77 75 73 74 74 72 71 72 73 73 74 75 71 69 71 71 71 70 73 74 76 76 78 76 73 73 75 75 74 73 74 74 72 72 72 72 72 73 73 73 72 72 73 73 73 73 72 72 70 69
86 85 83 82 82 80 79 78 78 77 77 75 75 75 76 76 76 76 76 76 76 76 76 76 76 76 76 76 76 76 76 76 76 76 76 77 78 78 80 81 82 83 84 85 84 83 83 82 83 84 85 86 86 87 87 86 85 85 89 89 89 89 86 84 85 85 86 89 91 92 94 97 100 101 100 100 99 100 101 101 100 99 97 95 94 93 92 91 89 87 86 85 84 83 82 80 79 78 77 77 76 76 76 76 76 76 76 76 76 76 76 76 76 76 76 76 76 76 76 76 76 76 76 77 78 79 79 80 80 81 82 82 82 82 83 85 87 89 89 89 89 88 88 87 87 88 88 88 87 85 85 87 86 85 84 83 83 85 85 82 78 76 76 76 76 76 76 78 77 75 75 75 76 76 76 76 76 76 76 76 76 76 76 76 76 76 76 76 76 76 76 76 76 76 76 76 76 76 76 76 76 76 76 76 76 76 76 76 76 76 76 76 79 79 80 81 82 81 81 80 80 80 81 79 78 76 76 76 76 76 76 76 76 76 76 76 76 76 76 76 76 76 76 76 76 76 76 76 76 75 72 70 72 79 83 85 85 84 83 83 83 82 80 81 83 81 79 76 73 73 73 71 69 68 70 73 75 73 73 73 73 75 77 79 78 74 70 68 68 67 67 69 70 68 70 71 69 67 66 64 62 61 60 59 60 62 63 66 68 69 69 70 70 70 69 69 70 71 71 71 71 71 71 68 65 63 63 65 65 66 68 70 72 72 70 68 66 66 66 66 65 65 67 69 69 66 64 65 65 63 61 61 63 62 61 63 65 66 65 64 62 62 62 62 63 62 61 61 62 63 61 59 58 58 60 65 66 67 68 71 75 79 80 79 80 84 87 86 83 83 82 81 82 84 84 82 79 76 74 74 71 69 70 73 75 77 77 77 77 76 77 78 80 80 80 82 85 86 86 87 87 89 90 87 85 82 80 80 80 80 79 78 75 73 68 64 64 64 66 66 63 61 60 61 63 64 65 65 65 66 68 71 73 75 77 78 77 76 76 78 79 78 79 81 84 87 88 89 89 88 85 82 82 84 84 82 82 81 78 76 78 81 86 87 85 81 79 80 80 78 77 74 71 72 75 76 75 73 72 73 74 74 74 74 74 76 78 79 80 81 81 79 79 78 78 79 80 80 81 81 81 81 79 77 75 76 78 79 81 82 80 80 82 84 84 83 83 81 79 79 78 79 82 83 82 81 81 82 83 84 85 84 84 83 83 85 85 85 86 86 87 88 89 90 94 96 96 96 96 96 98 99 101 104 104 102 101 102 103 101 100 100 100 101 100 100 101 100 99 101 104 103 101 101 101 101 100 102 105 107 107 104 101 99 97 97 96 94 93 95 96 95 95 94 93 92 93 96 96 93 91 91 91 91 92 93 92 89 89 89 89 91 93 91 90 90 91 92 91 92 97 101 101 98 98 100 101 99 98 100 102 102 98 96 97 97 96 97 97 98 99 100 101 99 98 96 92 92 93 94 93 93 96 95 92 91 91 93 95 94 91 91 90 87 86 84 81 79 78 78 80 79 77 75 74 73 73 73 73 73 73 73 73 73 73 73 73 74 73 74 78 78 76 76 76 77 76 75 77 77 76 77 79 77 75 75 75 74 77 80 82 80 80 82 79 74 71 71 73 76 79 81 80 76 74 71 72 76 79 81 83 83 83 79 75 73 70 69 71 71 71 73 74 74 74 75 75 72 72 75 77 78 77 74 70 70 71 74 77 79 79 77 77 77 77 79 82 80 78 77 75 76 78 76 75 72 72 72 73 74 75 75 74 72 72 73 75 73 68 68 71 71 70 70 73 73 70 67 68 69 69 73 75 76 76 74 73 73 73 71 71 72 73 72 73 75 74 72 71 71 71 71 73 74 76 79 80 77 73 72 74 75 73 72 73 73 72 72 72 72 72 73 72 71 72 73 73 73 74 72 71 70 71 73
86 85 84 82 81 79 78 78 78 77 77 75 75 75 76 76 76 76 76 76 76 76 76 76 76 76 76 76 76 76 76 76 76 76 76 76 76 75 77 81 82 84 86 87 88 88 87 87 87 87 87 87 87 87 87 85 83 85 88 90 91 91 90 88 87 87 88 89 92 93 96 98 101 101 100 100 100 101 102 101 101 100 97 94 91 91 91 90 88 87 86 84 83 82 80 78 78 78 77 77 76 76 76 76 76 76 76 76 76 76 76 76 76 76 76 76 76 76 76 76 76 76 77 78 79 79 80 80 81 82 82 82 82 82 84 86 88 89 90 90 89 89 88 87 87 87 87 87 85 84 84 85 87 88 87 85 83 83 82 81 78 78 76 76 76 76 76 76 76 75 75 75 76 76 76 76 76 76 76 76 76 76 76 76 76 76 76 76 76 76 76 76 76 76 76 76 76 76 76 76 76 76 76 76 76 76 76 76 76 76 76 76 79 82 83 83 83 82 82 81 79 79 81 81 83 82 76 76 76 76 76 76 76 76 76 76 76 76 76 76 76 76 76 76 76 77 80 80 79 78 76 73 75 81 85 86 86 83 80 79 80 81 82 84 86 83 79 74 72 73 74 72 69 68 72 77 79 76 74 73 73 73 76 78 77 74 71 71 69 67 66 68 70 71 72 73 70 68 66 66 64 62 61 60 62 64 66 69 72 72 72 71 70 70 69 70 71 71 72 72 71 71 69 64 60 61 64 65 65 66 69 72 73 70 68 67 66 66 67 66 64 65 67 69 69 67 67 66 65 64 65 66 67 67 65 64 65 65 64 63 62 62 61 60 59 58 58 58 61 63 63 59 57 57 59 63 65 68 71 75 78 79 79 79 79 81 83 81 79 79 79 79 82 84 83 80 77 75 76 78 77 73 72 74 76 77 77 75 74 74 76 78 78 80 81 82 82 84 86 87 89 90 89 86 85 84 83 82 81 82 83 81 77 71 64 60 59 60 62 63 62 61 62 63 62 64 67 69 69 70 73 74 74 73 73 73 74 77 78 79 81 81 80 82 84 86 89 88 87 87 86 84 84 84 82 83 83 83 81 78 77 80 84 85 85 83 79 77 76 74 74 72 70 71 72 73 73 74 74 74 74 74 75 76 77 78 78 79 81 81 81 79 76 75 76 79 80 80 81 81 81 81 80 77 75 77 78 79 80 81 79 80 82 83 84 82 81 79 77 78 80 80 82 84 84 85 85 84 84 84 84 82 82 80 80 82 85 85 87 87 86 86 88 92 95 96 96 96 96 97 98 99 101 103 103 102 102 103 102 100 100 99 99 98 98 98 99 100 100 103 106 107 104 100 100 99 99 103 107 109 105 101 98 97 97 98 98 97 96 95 93 94 97 98 96 94 93 93 92 90 90 90 90 93 94 94 93 91 89 89 91 94 96 95 92 91 91 92 91 90 93 96 97 97 97 100 103 103 102 102 102 101 99 98 99 98 96 96 99 102 101 100 98 96 96 95 91 90 92 96 96 96 95 95 94 94 92 92 93 93 89 86 86 86 84 83 81 79 79 79 80 79 77 76 76 75 74 73 74 74 73 73 73 73 73 73 73 73 73 73 74 79 80 78 77 77 77 75 74 75 77 77 78 75 72 72 73 74 77 79 80 79 79 80 78 75 72 70 72 76 78 79 80 79 76 72 73 77 80 82 83 83 82 79 76 73 72 71 71 70 69 72 73 74 75 72 72 72 74 75 76 74 74 70 69 72 75 77 77 78 79 78 77 77 78 79 80 79 78 78 77 74 74 72 72 72 74 74 74 73 73 74 73 72 72 72 72 70 68 68 69 71 73 73 71 71 70 69 70 71 71 72 72 72 73 73 72 72 72 71 71 71 72 72 73 74 75 75 74 71 71 72 72 74 77 79 80 77 74 73 73 74 73 72 72 73 73 73 73 72 72 73 71 71 71 73 73 72 72 71 70 70 70 70
85 85 84 82 81 79 78 78 77 77 77 75 75 75 76 76 76 76 76 76 76 76 76 76 76 76 76 76 76 76 76 76 76 76 76 76 75 76 78 79 81 83 86 88 90 91 91 90 90 89 89 89 88 88 87 86 85 87 88 91 93 93 93 91 89 88 89 90 91 93 96 99 101 101 100 99 99 100 102 102 102 100 96 94 90 90 89 89 88 87 85 84 82 80 78 78 78 78 77 77 76 76 76 76 76 76 76 76 76 76 76 76 76 76 76 76 76 76 76 76 76 76 77 79 79 79 79 80 82 83 83 83 83 84 85 86 88 89 90 90 89 88 88 87 87 87 86 85 84 84 84 85 87 87 86 85 83 81 79 79 80 80 79 76 76 76 76 76 76 76 75 75 76 76 76 76 76 76 76 76 76 76 76 76 76 76 76 76 76 76 76 76 76 76 76 76 76 76 76 76 76 76 76 76 76 76 76 76 76 76 76 76 77 80 82 82 82 83 85 86 82 80 81 81 82 80 76 76 76 76 76 76 76 76 76 76 76 76 76 76 76 76 76 75 74 72 76 79 81 81 82 83 82 83 84 86 88 85 81 81 82 82 81 81 82 80 76 74 73 73 70 68 67 70 75 78 80 79 77 76 76 76 75 74 73 73 73 71 69 69 69 70 73 75 73 71 70 70 69 69 68 66 66 65 65 69 73 77 80 80 77 75 74 74 72 72 73 74 74 73 71 70 68 65 61 60 61 64 66 67 68 70 68 66 66 65 64 63 63 64 63 64 67 70 72 73 73 71 68 66 65 65 63 62 62 64 65 66 66 66 66 66 64 61 58 56 55 57 59 61 63 62 59 58 60 63 66 69 73 75 77 79 78 78 79 79 78 77 76 76 79 80 81 81 79 76 75 75 76 77 75 71 69 72 74 77 79 79 77 75 76 76 77 80 83 83 81 82 84 87 87 87 85 84 84 86 88 89 87 85 84 81 76 70 65 60 60 61 61 60 59 61 64 64 62 62 64 67 70 72 73 74 74 74 73 73 74 77 80 81 81 81 82 82 83 85 87 88 87 87 86 86 84 82 82 84 83 82 79 75 74 75 79 82 84 85 82 79 78 76 73 70 69 69 70 71 73 75 75 75 75 76 76 77 78 79 79 79 80 81 81 79 77 75 77 78 79 79 81 80 79 79 78 76 75 77 78 78 78 79 79 80 83 84 81 79 80 81 80 78 78 80 83 84 85 85 85 84 84 83 83 82 81 80 81 85 88 88 90 90 88 87 89 92 94 95 96 96 97 98 98 98 99 102 103 103 104 103 101 100 99 98 98 98 98 98 99 99 100 101 104 106 104 102 101 99 99 100 104 106 103 99 98 97 97 97 98 100 98 94 91 92 96 100 98 95 94 93 92 93 93 91 89 91 93 94 95 95 92 91 92 93 93 92 93 94 94 92 91 91 93 94 94 94 95 98 101 103 103 104 102 99 98 99 99 99 98 101 103 103 101 98 94 92 94 95 92 91 94 98 98 95 94 95 95 94 92 90 91 91 87 83 83 85 83 82 81 80 79 80 79 79 79 79 76 75 74 74 75 75 73 73 73 73 73 73 73 73 73 73 73 73 74 79 80 78 76 75 75 75 76 75 74 71 70 71 74 76 77 78 79 81 81 78 78 77 74 73 74 75 75 76 78 79 77 74 73 75 80 83 83 82 79 78 75 73 72 69 68 68 69 73 75 77 77 72 71 73 76 75 72 69 69 68 68 73 75 76 75 75 76 77 76 75 76 76 76 76 76 75 74 74 74 74 75 77 78 76 72 71 72 73 73 72 73 73 72 72 72 70 69 71 73 72 70 70 70 70 71 72 72 72 71 71 72 72 72 70 70 71 70 73 75 75 74 74 75 75 74 74 74 73 72 73 73 75 76 75 72 72 73 74 73 73 74 74 74 73 72 71 71 70 70 71 71 70 70 70 70 70 70 70 69 67
83 84 83 82 80 79 78 77 76 77 77 75 75 76 76 76 76 76 76 76 76 76 76 76 76 76 76 76 76 76 76 76 76 76 76 76 76 77 79 80 81 82 84 87 90 92 93 93 93 92 91 91 90 90 89 88 88 88 89 91 93 95 95 94 92 91 89 89 91 92 95 99 100 99 98 97 98 100 102 102 101 100 96 92 90 89 88 88 87 85 84 83 82 80 78 78 78 78 76 76 76 76 76 76 76 76 76 76 76 76 76 76 76 76 76 76 76 76 76 75 75 78 81 80 79 80 81 82 83 84 84 84 84 84 85 86 88 88 88 89 89 88 87 87 88 87 86 84 84 84 85 86 87 85 83 83 82 81 78 78 81 83 80 76 76 76 76 76 76 76 76 76 76 76 76 76 76 76 76 76 76 76 76 76 76 76 76 76 76 76 76 76 76 76 76 76 76 76 76 76 76 76 76 76 76 76 76 76 76 76 76 76 76 77 79 80 80 82 85 87 85 83 83 83 82 80 76 76 76 76 76 76 76 76 76 76 76 76 76 76 76 76 76 75 74 74 79 83 84 81 81 83 83 83 83 83 85 84 84 86 87 85 83 81 79 78 77 75 75 73 68 66 68 72 75 77 76 76 77 78 79 79 78 76 76 74 71 68 68 68 69 73 76 77 75 71 71 72 72 73 73 72 71 70 69 72 77 82 85 84 80 76 75 74 73 74 74 75 73 70 68 69 68 67 64 60 59 61 65 68 70 70 69 67 67 69 69 67 66 65 63 63 66 69 72 73 73 71 69 68 68 66 63 61 61 62 63 65 66 66 67 67 66 64 61 58 56 55 56 58 59 60 58 57 58 63 67 70 73 75 76 77 78 78 79 78 78 77 77 76 79 81 80 78 77 76 78 79 78 78 73 68 68 72 74 75 77 79 77 75 75 76 77 80 82 83 81 81 83 84 85 82 80 82 86 91 94 94 90 85 81 78 75 70 65 63 63 63 61 59 60 63 65 65 66 66 66 69 71 72 73 75 76 75 74 74 75 77 80 80 80 80 81 83 86 87 86 85 85 85 86 86 84 81 82 83 82 80 78 76 74 72 74 77 80 83 83 80 78 76 73 71 70 71 73 74 73 74 74 74 74 75 75 75 75 78 79 80 80 81 80 78 77 76 75 75 77 78 80 79 77 77 77 76 76 78 80 80 80 79 79 79 82 82 80 78 79 81 79 78 78 80 82 83 84 83 83 84 84 83 83 82 82 81 82 83 86 89 90 89 88 88 90 94 97 99 99 99 97 96 96 97 100 103 105 105 103 101 101 99 97 96 97 99 99 99 99 99 100 100 100 101 101 103 103 100 97 97 100 101 101 100 99 99 99 99 100 101 100 95 91 91 94 97 96 95 93 92 94 96 94 91 90 90 93 95 98 98 96 93 92 92 92 91 93 95 95 93 93 95 95 94 94 94 96 100 102 102 102 102 101 99 98 98 98 99 101 105 106 103 99 94 90 90 94 96 95 94 97 99 99 97 94 92 92 92 92 92 92 91 86 83 84 85 82 80 79 79 80 80 80 81 81 78 76 77 80 79 75 73 73 73 73 73 73 73 73 73 73 73 73 73 73 73 77 78 75 73 72 74 77 74 70 69 71 73 75 79 80 79 79 81 81 77 76 75 73 73 73 74 73 74 78 78 77 77 78 79 80 80 80 78 76 75 73 73 72 71 70 71 71 73 76 77 77 75 73 72 73 74 71 67 67 68 68 69 71 72 69 70 70 71 71 69 70 71 71 72 76 78 76 74 74 74 74 78 78 76 73 74 76 76 76 75 75 74 74 77 76 73 71 72 73 72 70 68 68 70 71 72 72 73 73 72 70 70 71 71 71 71 70 73 74 76 75 74 74 74 74 77 79 76 74 74 74 74 74 74 71 71 72 73 74 74 74 74 73 73 72 71 69 68 69 71 71 70 69 68 69 69 70 71 69 66
83 83 83 81 79 79 78 76 76 76 76 76 76 76 76 76 76 76 76 76 76 76 76 76 76 76 76 76 76 76 76 76 77 77 77 77 77 78 79 80 80 81 83 85 88 91 92 95 95 94 93 93 92 91 90 90 89 89 90 92 94 96 97 96 94 92 90 90 92 93 95 98 99 99 98 97 98 100 101 101 100 98 93 90 89 88 87 86 85 85 84 83 82 81 79 79 78 77 76 76 76 76 76 76 76 76 76 76 76 76 76 76 76 76 76 76 76 76 76 75 75 78 81 81 81 81 82 83 84 86 86 86 86 86 85 85 87 88 88 88 88 88 87 87 87 87 86 84 84 85 87 87 86 82 82 83 82 80 78 79 82 82 77 75 76 76 76 76 76 76 76 76 76 76 76 76 76 76 76 76 76 76 76 76 76 76 76 76 76 76 76 76 76 76 76 76 76 76 76 76 76 76 76 76 76 76 76 76 76 76 76 76 76 76 78 79 79 81 82 85 86 83 83 82 81 78 76 76 76 76 76 76 76 76 76 76 76 76 76 76 76 76 76 75 76 79 83 85 84 81 82 84 85 85 83 83 83 83 84 84 84 82 82 82 79 78 77 77 76 73 69 69 71 73 75 76 75 75 77 78 79 80 79 77 76 75 73 71 70 69 70 72 74 74 73 71 70 70 70 70 71 71 71 71 70 72 76 78 80 80 77 75 75 74 74 74 74 73 72 69 66 67 67 67 66 64 62 62 65 67 69 69 71 72 73 73 72 69 68 66 64 64 66 68 71 73 73 71 69 69 69 68 65 62 60 60 62 64 64 64 65 67 67 64 61 59 57 57 56 56 56 58 58 57 59 62 66 69 71 73 75 77 78 78 77 77 77 78 77 76 78 80 79 77 77 77 78 79 78 77 73 69 71 75 76 75 76 76 74 73 74 76 77 79 80 80 80 80 82 83 82 81 80 83 86 88 91 92 88 83 79 77 74 72 71 68 65 62 60 60 62 64 65 65 67 69 69 70 73 74 75 76 77 77 76 74 75 76 79 80 80 82 82 84 86 86 85 84 84 84 86 86 86 84 83 82 80 80 79 78 76 73 73 75 77 80 80 77 73 72 72 71 70 71 75 76 75 74 74 74 74 74 74 75 76 78 80 81 81 81 80 78 78 76 73 74 76 79 80 78 75 74 74 76 77 78 79 80 80 80 80 80 81 79 79 78 79 79 79 77 78 80 82 83 83 83 83 83 83 84 84 84 83 83 83 83 84 86 87 86 86 87 90 95 98 101 102 101 97 95 96 99 102 106 107 106 104 101 100 98 96 96 97 97 98 99 98 99 100 99 99 100 101 102 103 100 97 97 99 100 101 101 100 100 101 101 100 99 98 95 92 91 93 95 95 95 94 93 95 96 93 91 90 90 92 95 98 99 97 94 93 94 94 94 94 95 95 94 93 94 94 94 94 94 98 102 101 100 100 99 99 99 97 97 99 101 104 106 104 101 97 92 89 92 96 98 96 95 96 97 98 98 94 90 89 89 91 94 94 91 87 84 84 83 80 78 78 79 81 83 83 82 81 77 77 79 82 81 77 74 73 73 73 73 73 73 73 73 73 73 73 73 73 73 73 74 73 73 72 73 74 74 74 73 75 75 75 79 81 81 80 81 81 78 73 72 72 73 73 73 72 74 77 76 76 79 80 80 79 79 77 75 75 75 73 73 74 73 73 73 71 73 77 77 77 75 74 72 72 73 70 68 67 68 67 67 68 68 66 65 65 66 67 68 69 70 72 73 77 80 79 75 74 74 73 75 78 76 75 75 76 76 76 75 74 74 75 77 77 74 73 72 73 72 71 70 69 70 71 71 71 71 72 72 71 72 72 71 69 70 71 72 74 75 75 74 74 74 72 74 77 75 74 75 76 75 75 75 73 73 73 73 74 74 74 74 72 72 72 71 69 68 69 69 70 70 68 68 68 68 68 70 69 67
83 83 83 80 79 78 77 76 76 76 76 76 76 76 76 76 76 76 76 76 76 76 76 76 76 76 76 76 76 76 76 76 78 79 80 79 80 81 80 80 80 82 83 84 86 90 93 95 97 97 96 96 95 94 93 91 89 89 90 91 94 98 99 99 97 95 94 94 94 95 96 98 98 98 98 98 100 100 99 98 97 93 90 88 87 86 86 85 84 84 84 83 82 81 81 81 79 77 77 76 76 76 76 76 76 76 76 76 76 76 76 76 76 76 76 76 76 76 76 77 78 79 81 82 81 82 84 84 85 87 88 88 88 87 87 87 87 88 88 88 87 86 85 86 87 87 86 85 84 84 87 87 83 80 80 80 81 80 80 81 83 83 79 75 76 76 76 76 76 76 76 76 76 76 76 76 76 76 76 76 76 76 76 76 76 76 76 76 76 76 76 76 76 76 76 76 76 76 76 76 76 76 76 76 76 76 76 76 76 76 76 76 76 78 79 80 81 82 83 84 85 84 83 81 80 77 76 76 76 76 76 76 76 76 76 76 76 76 76 76 76 76 76 76 78 84 88 88 86 83 82 85 87 87 85 85 85 85 84 82 81 81 81 81 78 78 78 77 74 73 72 74 75 78 79 77 76 77 78 79 79 79 78 75 74 75 74 72 70 71 73 72 71 70 72 72 72 71 70 70 72 72 73 73 74 75 75 73 73 73 74 75 75 76 76 76 74 71 68 65 63 64 64 63 64 64 62 62 65 69 70 70 72 75 79 79 75 70 68 66 66 67 69 69 69 74 75 74 72 72 71 70 69 65 61 60 62 63 62 62 63 65 65 64 62 61 61 59 56 52 51 54 58 61 62 62 64 67 70 71 74 77 77 77 76 75 74 75 75 75 76 79 80 80 78 77 77 78 77 74 71 70 72 75 76 76 75 74 74 74 76 77 78 79 80 80 80 80 80 80 81 83 84 86 85 83 84 86 84 80 76 72 70 69 71 70 67 63 61 61 63 64 65 67 71 73 71 70 73 75 76 77 79 81 81 79 77 77 79 81 82 83 83 84 85 83 83 83 83 83 84 86 88 89 86 81 77 78 81 81 79 76 72 71 73 75 75 71 66 66 70 73 72 73 77 80 78 75 75 74 75 75 74 77 79 78 77 77 78 79 80 78 78 77 75 74 76 80 79 77 74 72 73 75 77 79 79 80 81 81 81 79 78 76 77 78 78 78 77 76 77 79 81 82 83 83 83 83 83 84 85 85 85 85 86 86 86 86 86 86 86 86 90 94 97 100 102 102 99 97 99 102 104 106 107 105 102 100 99 97 96 97 97 97 97 97 97 99 98 97 97 98 100 101 101 100 99 99 100 102 103 103 102 100 100 99 96 94 93 96 96 94 93 93 93 93 94 93 94 95 94 93 93 91 91 95 98 98 96 94 94 96 96 97 98 97 96 95 94 94 92 92 93 96 100 102 99 99 100 99 98 96 96 99 102 102 103 103 100 97 96 93 92 94 97 98 96 92 92 93 95 96 96 92 90 90 90 91 93 92 89 85 82 81 79 78 80 82 82 84 85 82 80 79 78 79 80 81 79 75 73 74 74 74 74 72 72 73 73 73 73 73 73 73 73 73 73 73 73 71 72 73 75 78 78 78 77 77 79 80 80 80 82 79 73 69 70 73 74 72 71 74 76 76 78 81 81 80 79 77 74 73 75 76 75 74 74 73 71 70 69 72 75 76 77 76 76 73 71 70 69 69 69 67 66 64 64 64 64 65 67 68 69 72 73 76 78 78 77 80 80 79 76 74 73 76 79 79 76 75 74 75 76 76 73 73 74 74 74 74 73 73 73 73 71 71 71 71 71 72 70 69 69 70 72 72 72 71 70 73 75 75 74 75 74 74 73 73 71 72 74 73 72 73 75 76 76 76 75 74 74 74 74 75 74 74 72 71 71 70 69 69 69 68 69 69 67 67 67 67 66 68 68 69
83 82 82 81 79 76 76 76 76 76 76 76 76 76 76 76 76 76 76 76 76 76 76 76 76 76 76 76 76 76 76 76 76 77 80 81 82 82 82 82 82 82 83 84 85 90 92 95 97 98 98 98 97 95 95 91 89 89 91 92 94 98 100 100 99 98 98 97 97 97 98 98 98 98 98 98 99 99 98 97 96 93 90 88 86 84 84 83 83 83 82 82 81 81 81 80 78 77 76 76 76 76 76 76 76 76 76 76 76 76 76 76 76 76 76 76 76 76 76 78 81 80 81 82 83 84 84 85 85 88 89 89 89 88 88 88 88 88 87 87 86 85 85 86 87 86 86 85 84 85 85 83 79 78 79 78 78 80 83 83 84 83 82 78 76 76 76 76 76 76 76 76 76 76 76 76 76 76 76 76 76 76 76 76 76 76 76 76 76 76 76 76 76 76 76 76 76 76 76 76 76 76 76 76 76 76 76 76 76 76 76 76 77 80 81 82 83 83 83 84 85 85 85 82 80 77 76 76 76 76 76 76 76 76 76 79 81 78 76 76 76 76 76 76 77 81 85 88 86 83 81 84 87 87 88 89 89 87 85 84 81 81 81 79 78 77 75 75 77 80 80 79 79 80 80 78 77 77 78 77 75 75 76 75 75 75 73 71 72 74 75 76 75 73 72 73 73 72 71 72 75 75 76 77 78 79 78 74 72 73 75 77 78 77 75 75 73 69 65 62 60 61 63 65 65 62 62 64 68 70 72 73 74 76 76 74 73 70 68 69 69 68 70 70 70 74 76 75 73 73 73 71 68 65 62 63 63 63 62 62 63 65 65 65 63 61 60 60 59 56 53 52 55 59 61 62 63 66 69 72 74 76 76 78 77 75 73 73 74 75 76 79 81 79 76 73 74 76 74 70 69 69 69 71 72 74 74 74 75 78 81 80 78 79 81 82 82 82 80 81 84 87 87 86 82 79 79 81 80 78 76 73 70 69 70 68 65 61 59 61 65 67 67 68 72 73 72 71 73 77 79 80 83 84 85 84 82 80 79 80 83 84 84 84 85 85 84 83 84 84 83 83 84 85 83 81 79 79 80 79 77 74 72 71 70 70 71 69 66 67 70 73 73 73 77 81 81 79 76 74 74 74 75 77 77 76 76 76 78 79 79 78 78 77 75 73 75 78 79 77 76 75 75 77 79 79 79 79 79 79 78 78 76 75 75 76 77 77 77 77 78 79 81 82 83 83 83 83 83 84 85 86 86 86 86 88 89 88 88 87 86 86 90 93 95 98 99 101 100 98 100 103 104 105 104 102 101 101 101 100 98 97 97 97 97 98 100 100 98 97 97 97 99 99 99 100 100 99 99 101 102 103 101 98 98 96 93 91 92 94 95 95 96 96 96 95 93 93 95 95 93 93 94 93 94 96 97 97 96 95 94 95 97 98 98 98 98 97 96 95 94 93 96 99 99 96 96 98 102 101 98 97 97 98 98 98 98 100 99 98 97 96 95 96 95 95 95 92 90 91 94 95 94 93 94 94 91 89 89 89 87 84 83 82 82 82 83 83 83 84 85 81 80 82 82 80 79 79 78 75 74 75 75 76 75 72 72 73 73 73 73 73 73 73 73 73 73 73 73 73 73 70 70 76 80 80 79 79 79 78 76 76 78 78 72 71 72 73 74 73 73 76 77 77 79 82 82 81 79 76 75 74 75 74 75 75 74 72 68 68 70 73 73 73 74 74 73 69 67 67 68 68 70 70 68 66 64 64 67 71 73 73 74 77 77 80 82 80 76 77 78 79 76 74 74 74 75 75 76 75 75 77 77 77 75 74 74 75 75 75 74 72 72 73 70 70 70 69 69 70 70 69 69 69 70 71 74 74 75 77 77 77 76 76 76 76 75 74 73 72 74 74 73 73 74 74 75 76 75 74 75 75 74 75 74 73 73 71 71 70 69 70 69 68 68 69 67 65 65 65 65 66 67 68
82 81 79 78 76 75 75 76 76 76 76 76 76 76 76 76 76 76 76 76 76 76 76 76 76 76 76 76 76 76 76 76 76 76 77 80 81 84 85 85 86 86 84 84 85 89 92 94 96 98 99 99 98 97 95 93 92 92 92 93 94 98 100 101 101 100 101 101 100 99 99 99 98 97 97 98 99 99 99 97 96 93 90 88 86 84 83 83 82 82 82 81 81 80 79 79 79 77 75 76 76 76 76 76 76 76 76 76 76 76 76 76 76 76 76 76 76 76 78 83 83 81 81 81 82 84 85 85 87 89 89 90 89 89 89 88 88 87 87 86 86 86 86 86 87 86 86 85 86 86 84 81 77 77 77 76 75 78 81 81 82 82 84 79 76 76 76 76 76 76 76 76 76 76 76 76 76 76 76 76 76 76 76 76 76 76 76 76 76 76 76 76 76 76 76 76 76 76 76 76 76 76 76 76 76 76 76 75 75 76 76 76 77 81 82 82 83 85 84 84 86 86 83 79 76 76 76 76 76 76 76 76 77 79 80 82 84 84 81 78 76 76 76 76 76 79 82 85 84 82 83 87 89 89 87 86 86 85 85 84 83 84 83 80 78 76 74 77 81 83 84 83 81 79 79 80 80 78 75 73 72 73 73 75 76 75 74 73 74 75 78 81 80 78 75 73 72 72 72 73 76 78 79 79 79 80 79 76 73 74 76 77 76 74 74 73 71 66 64 63 62 64 67 68 66 64 65 68 70 72 73 74 75 76 74 73 72 71 70 71 71 69 69 70 71 73 74 72 72 74 73 72 69 66 65 66 66 66 64 64 64 65 65 63 61 60 60 60 59 58 56 54 55 56 58 61 64 66 68 71 73 74 76 77 76 74 72 71 75 77 76 76 77 76 74 72 73 75 71 67 66 68 69 71 74 76 77 77 78 80 83 83 80 79 80 81 83 82 81 81 83 85 85 83 79 76 76 78 77 75 74 72 70 69 70 67 63 60 60 63 68 69 68 69 73 75 75 74 75 77 79 82 83 84 87 88 87 83 80 81 84 85 84 84 85 85 85 84 84 84 83 82 81 81 79 79 79 79 79 77 75 74 74 73 70 69 69 69 68 70 72 75 75 74 75 79 81 80 76 74 74 75 77 76 73 74 75 76 78 79 79 79 77 77 76 75 75 75 76 77 77 77 78 78 79 78 78 79 77 75 75 75 75 75 75 76 77 79 80 80 80 80 81 81 82 83 83 83 83 84 85 86 87 87 87 87 89 89 88 86 85 86 90 93 95 97 100 100 99 99 100 101 102 102 102 102 104 104 102 99 97 97 97 97 98 98 99 100 100 100 99 99 99 99 99 100 101 101 100 99 99 99 99 97 96 94 91 91 93 92 92 94 97 100 100 97 94 95 97 95 92 91 93 94 95 95 93 93 95 96 95 95 96 98 99 99 99 98 96 95 98 99 97 97 96 94 94 97 100 99 97 99 100 98 96 96 98 100 100 99 98 96 95 95 94 93 92 91 90 92 96 96 95 94 93 93 90 89 88 87 86 84 84 84 84 84 83 81 82 83 84 83 81 81 82 82 82 80 77 75 75 78 78 77 76 75 74 73 73 73 73 73 73 73 73 73 73 73 73 75 74 68 68 74 78 78 78 78 76 75 74 74 75 75 71 71 73 73 74 74 76 79 79 78 81 82 81 82 81 77 75 75 75 75 75 75 73 71 68 66 68 69 70 71 71 70 68 65 65 65 67 68 69 70 71 71 69 68 71 71 71 72 72 75 78 81 82 80 77 77 78 79 76 74 74 75 74 74 76 77 76 74 75 76 77 75 75 79 78 77 76 71 71 72 70 68 68 67 67 70 71 71 72 72 71 74 77 77 78 78 78 77 76 76 78 78 76 75 75 75 75 73 73 71 72 73 76 77 76 75 75 75 75 75 74 72 72 72 71 71 70 70 69 67 68 69 66 65 65 65 63 64 64 64
81 78 78 77 75 75 75 76 76 76 76 76 76 76 76 76 76 76 76 76 76 76 76 76 76 76 76 76 76 76 76 76 76 76 76 79 81 84 86 87 88 88 87 87 87 88 90 93 96 98 99 99 99 98 97 95 94 93 92 93 95 98 100 101 101 101 101 101 101 101 100 99 98 97 97 98 99 100 99 98 96 93 90 87 86 84 83 82 81 81 80 79 79 79 79 78 79 79 75 76 76 76 76 76 76 76 76 76 76 76 76 76 76 76 76 76 76 76 79 83 82 81 81 82 83 84 85 87 88 89 90 90 90 90 89 89 88 87 87 86 86 86 87 87 87 87 86 86 86 86 84 81 78 76 76 75 75 78 81 80 80 80 83 79 76 76 76 76 76 76 76 76 76 76 76 76 76 76 76 76 76 76 76 76 76 76 76 76 76 76 76 76 76 76 76 76 76 76 76 76 76 76 76 76 76 78 78 75 75 75 76 76 76 80 83 82 82 85 86 86 85 84 83 80 76 76 76 76 76 76 76 77 81 83 82 81 83 85 84 82 79 76 76 76 78 81 82 84 84 83 86 90 91 88 85 84 84 83 83 84 84 84 83 80 79 76 76 81 82 78 81 83 82 79 79 81 82 78 74 72 72 72 72 74 76 75 75 75 76 77 81 84 83 80 78 76 75 76 75 73 75 79 80 78 78 77 77 76 75 75 76 77 75 74 74 72 69 64 62 63 64 67 70 70 68 68 70 70 69 69 72 74 75 74 74 75 75 74 74 73 73 70 69 72 73 72 71 70 71 73 74 73 70 68 66 66 67 67 66 65 65 65 64 61 59 58 58 59 59 59 59 58 56 55 58 61 63 65 67 68 70 74 76 75 73 72 72 72 74 77 77 76 77 76 73 72 74 75 71 68 67 68 69 71 74 76 77 78 78 79 80 81 81 83 83 82 83 82 82 81 81 80 80 80 78 74 72 74 76 75 74 72 70 69 68 66 65 63 61 64 68 69 70 72 74 75 77 78 77 77 79 81 82 83 87 89 88 85 83 82 83 84 85 85 85 85 85 84 82 81 83 83 80 79 77 75 74 75 76 76 74 74 74 74 73 72 69 69 69 70 72 74 75 75 76 79 80 79 78 77 77 76 77 76 74 74 75 76 78 79 79 78 77 77 76 75 75 75 75 76 76 76 78 78 76 76 78 79 77 75 75 75 75 76 77 78 78 80 80 80 80 80 80 81 82 83 84 84 84 85 86 87 87 86 86 85 87 90 89 87 85 87 91 94 95 96 97 97 97 98 100 103 104 103 102 104 105 104 102 97 96 96 96 96 96 97 98 98 100 100 100 99 99 99 99 101 104 104 102 99 96 96 97 97 97 94 93 93 94 94 93 94 95 98 99 97 96 97 97 95 91 91 92 93 94 95 93 94 97 97 97 98 98 98 99 100 97 95 96 96 99 100 98 95 96 96 95 96 97 96 95 96 100 100 99 100 101 101 99 98 97 94 94 94 94 93 92 91 92 95 96 95 93 93 92 90 87 86 86 86 86 85 85 84 84 85 85 83 81 82 85 83 81 80 80 82 82 80 76 75 76 77 77 76 75 75 75 74 73 73 73 73 73 73 73 73 73 73 73 73 72 70 71 76 78 77 76 75 74 73 73 75 75 73 70 70 71 72 72 72 76 78 79 80 82 82 79 80 81 80 78 77 76 76 76 75 73 72 69 67 67 67 67 70 69 66 65 65 67 68 70 71 70 70 73 74 74 72 72 71 70 70 70 72 75 78 78 77 77 78 81 82 78 74 75 76 75 75 76 77 76 74 74 75 76 76 75 77 76 75 75 73 72 72 71 69 69 69 68 71 71 71 73 73 73 74 75 76 77 76 77 77 75 74 75 76 74 74 75 77 75 72 71 70 70 71 75 76 74 72 71 71 73 72 73 73 72 73 72 72 70 70 67 67 66 67 67 67 68 67 64 62 63 65
77 76 76 76 76 76 76 76 76 76 76 76 76 76 76 76 76 76 76 76 76 76 76 76 76 76 76 76 76 76 76 76 76 76 76 79 81 83 85 88 90 90 90 90 90 90 91 93 95 97 98 100 100 99 99 97 96 94 93 95 97 99 100 102 102 102 102 102 102 101 100 99 98 98 98 99 99 97 96 95 94 93 90 88 86 84 82 81 80 79 78 78 77 77 78 79 76 76 75 76 76 76 76 76 76 76 76 76 76 76 76 76 76 76 76 76 76 76 76 79 82 82 82 82 83 85 87 89 90 90 90 90 90 90 90 89 88 87 87 87 87 87 87 87 87 87 87 87 87 86 83 80 78 77 77 75 76 79 82 82 79 77 76 76 76 76 76 76 76 76 76 76 76 76 76 76 76 76 76 76 76 76 76 76 76 76 76 76 76 76 76 76 76 76 76 76 76 76 76 76 76 76 76 76 76 77 78 77 75 74 75 75 75 80 84 84 82 83 85 86 86 85 83 81 76 76 76 76 76 76 76 77 81 84 84 82 83 83 82 82 81 81 80 80 83 84 84 85 85 86 88 90 90 87 85 85 86 86 84 82 81 81 81 80 79 77 79 83 82 82 82 82 80 77 77 79 79 78 75 74 74 73 74 75 76 75 75 77 79 80 81 83 82 79 78 77 77 78 79 77 78 81 82 80 79 78 76 76 77 77 76 76 75 74 73 70 67 62 60 63 68 71 71 70 68 69 71 72 71 70 71 73 73 73 73 74 74 74 74 75 77 74 71 73 74 73 71 70 72 74 74 73 72 71 69 67 67 66 65 65 66 67 66 62 56 54 56 58 58 58 58 59 58 59 59 60 61 64 64 64 67 72 76 75 72 71 71 72 73 75 74 74 74 74 74 75 76 75 71 69 69 67 68 70 72 74 75 77 79 79 79 80 83 86 86 84 83 83 83 81 78 75 75 76 75 74 72 73 75 75 74 71 70 68 65 65 67 67 66 67 70 73 75 75 74 75 78 80 79 78 79 80 81 83 87 90 89 87 85 83 82 83 84 85 85 83 83 82 81 81 83 83 82 82 81 76 73 74 75 74 72 70 70 70 72 73 70 67 68 69 71 74 77 77 76 77 77 78 80 80 79 77 75 73 73 75 75 76 76 77 77 76 76 77 76 77 77 76 74 72 72 73 76 75 73 74 76 77 76 75 77 76 75 76 79 80 78 79 80 80 80 80 80 81 82 83 84 85 85 86 86 87 87 86 86 85 87 90 90 90 88 89 92 92 92 92 94 96 97 101 103 104 103 100 99 101 103 102 101 98 96 95 94 94 96 97 96 96 97 98 99 97 98 99 100 102 105 105 103 100 98 97 98 98 99 98 97 96 94 94 94 93 93 94 94 95 95 96 95 93 92 93 93 92 93 95 95 96 98 98 99 100 99 98 98 96 96 96 98 98 97 98 97 96 98 96 95 96 96 96 96 98 100 100 101 102 100 98 98 98 96 93 92 92 94 94 93 93 96 96 94 93 93 93 92 92 88 85 85 85 86 86 85 84 84 85 85 85 82 82 84 84 83 82 83 83 80 77 76 75 77 76 76 76 74 73 73 74 73 73 72 72 73 73 73 73 73 73 74 75 71 70 73 78 80 79 75 72 72 72 74 75 74 71 70 70 70 70 71 73 77 78 76 78 79 79 79 80 81 80 80 78 77 76 75 74 73 72 71 70 68 67 67 67 67 66 66 67 70 70 71 71 70 70 74 74 74 73 73 73 72 69 69 73 75 76 75 75 76 76 80 80 75 74 75 77 78 78 76 76 76 75 72 72 74 75 76 75 73 73 73 73 72 72 72 73 73 72 72 71 72 72 73 74 77 77 75 75 73 73 75 74 73 72 72 76 75 74 77 78 77 73 72 71 70 71 73 75 74 71 70 70 71 72 73 73 73 72 72 72 71 72 70 68 66 65 66 66 66 64 63 61 63 65
76 76 76 76 76 76 76 76 76 76 76 76 76 76 76 76 76 76 76 76 76 76 76 76 76 76 76 76 76 76 76 76 76 76 79 79 81 82 85 87 89 91 93 93 93 92 93 94 95 96 96 98 100 100 100 99 97 96 95 97 98 100 101 102 102 103 103 103 103 102 100 99 99 99 99 99 99 96 92 91 91 90 88 87 86 84 83 82 81 81 81 75 75 76 76 76 76 76 76 76 76 76 76 76 76 76 76 76 76 76 76 76 76 76 76 76 76 76 76 77 81 82 83 83 83 85 87 89 90 91 91 91 91 90 89 88 88 87 87 87 87 87 87 87 87 87 86 86 86 86 84 80 78 77 76 76 76 76 76 76 76 76 76 76 76 76 76 76 76 76 76 76 76 76 76 76 76 76 76 76 76 76 76 76 76 76 76 76 76 76 76 76 76 76 76 76 76 76 76 76 76 76 76 76 76 76 79 81 78 75 74 75 76 81 85 86 83 82 82 84 86 86 85 82 76 76 76 76 76 76 76 76 76 80 83 84 84 83 82 83 85 85 84 83 86 87 87 87 88 90 90 88 87 86 87 87 84 84 85 84 83 81 81 80 77 75 78 83 83 80 77 76 76 78 80 79 78 78 79 79 76 74 76 76 76 76 75 77 80 83 84 82 79 76 76 77 77 79 81 81 82 83 83 83 82 81 79 77 76 76 76 76 74 72 71 68 65 61 61 67 72 72 72 71 70 72 75 76 74 73 72 70 70 71 72 71 70 71 73 75 77 77 73 72 74 76 76 74 74 74 73 73 73 71 70 69 68 66 64 62 62 65 66 65 62 59 57 56 56 56 56 58 59 62 63 61 60 62 64 66 68 70 73 75 74 72 70 69 69 71 71 71 71 72 72 72 74 74 73 70 68 68 68 69 70 72 75 79 82 82 82 82 84 85 84 83 83 82 81 79 77 74 72 70 69 70 71 73 73 72 71 69 68 68 66 66 68 70 71 71 72 75 76 76 77 77 78 78 80 81 80 79 82 85 88 89 89 88 86 85 85 85 87 88 88 86 83 80 77 77 79 80 80 80 81 80 78 77 76 75 74 72 69 66 67 68 67 66 68 70 71 72 75 76 77 77 75 75 78 78 76 74 73 73 74 75 76 76 77 77 76 75 75 76 76 78 78 76 74 73 74 74 75 73 73 74 74 74 74 74 75 76 75 76 78 79 79 81 82 82 82 81 82 83 83 84 85 85 86 86 86 87 88 89 89 89 90 91 91 91 90 89 90 91 90 91 95 97 99 102 102 102 100 97 96 98 101 100 99 99 97 95 95 95 97 97 97 98 99 99 99 98 98 99 98 99 100 100 100 100 99 99 98 99 101 100 98 97 94 94 95 95 96 94 94 95 96 96 94 92 92 92 91 91 94 96 96 97 98 98 97 97 97 97 96 96 97 98 98 96 94 96 99 100 98 95 95 96 96 97 99 99 99 98 98 99 99 98 98 98 96 95 94 93 93 94 93 94 96 95 91 91 91 92 92 93 91 87 86 87 89 87 84 83 84 85 86 86 85 84 83 82 82 83 85 85 80 77 78 79 78 77 77 76 75 75 75 75 74 74 74 73 73 73 73 73 73 73 74 75 69 68 70 76 77 75 74 71 70 70 74 77 76 72 71 70 71 71 72 75 78 77 75 75 76 78 80 81 81 81 80 76 74 74 73 72 71 71 71 72 70 67 66 66 67 69 69 69 69 70 69 68 68 70 74 75 74 74 74 74 72 70 70 72 74 75 75 75 74 74 76 77 75 75 76 77 80 80 78 77 77 75 73 73 75 77 77 77 77 74 73 73 72 72 73 73 74 75 75 72 72 71 70 71 74 74 73 71 71 73 74 73 73 72 74 76 76 78 78 78 75 74 73 72 71 71 72 73 74 73 71 71 72 72 71 72 73 72 72 72 73 71 72 71 68 66 66 65 64 64 65 62 62 63
76 76 76 76 76 76 76 76 76 76 76 76 76 76 76 76 76 76 76 76 76 76 76 76 76 76 76 76 76 77 78 77 78 78 79 80 81 82 84 85 87 89 92 94 95 95 94 94 95 96 96 97 99 101 101 100 99 97 97 98 99 100 103 104 104 105 105 105 105 103 101 99 98 98 98 99 98 95 90 88 88 87 87 86 85 84 83 82 81 80 78 75 75 76 76 76 76 76 76 76 76 76 76 76 76 76 76 76 76 76 76 76 76 76 76 76 76 76 76 77 81 82 82 83 83 85 87 88 89 91 90 90 90 90 89 88 88 88 88 88 87 86 85 85 85 85 85 85 85 84 83 79 76 76 76 76 76 76 76 76 76 76 76 76 76 76 76 76 76 76 76 76 76 76 76 76 76 76 76 76 76 76 76 76 76 76 76 76 76 76 76 76 76 76 76 76 76 76 76 76 76 76 76 76 76 76 77 81 82 78 75 76 79 81 83 85 84 82 83 85 86 86 83 81 77 76 76 76 76 76 76 76 76 79 82 83 83 82 82 84 87 87 88 89 89 89 87 87 89 91 90 87 86 86 89 89 86 84 84 85 85 82 79 78 75 74 76 78 76 75 75 75 77 79 81 82 81 81 81 81 79 77 76 76 76 77 78 79 81 83 85 82 79 78 78 79 81 83 84 82 81 82 84 83 81 80 79 77 76 77 78 76 74 70 68 67 64 62 64 69 73 74 73 73 72 73 75 76 74 73 72 71 71 73 73 72 70 72 74 75 75 76 75 73 74 76 76 75 75 74 74 74 73 71 70 69 69 67 65 63 63 63 63 62 61 60 60 57 55 55 56 57 59 62 64 62 60 60 64 67 68 69 69 71 73 72 69 67 67 69 70 70 70 69 68 68 70 71 70 68 67 69 72 73 73 73 74 78 82 83 83 85 86 84 83 83 83 82 81 79 77 74 71 68 67 67 67 67 67 68 68 67 66 65 65 67 70 71 73 73 73 76 78 79 80 81 80 80 82 83 82 80 82 85 86 88 90 88 87 88 89 89 89 89 87 85 83 80 77 76 76 77 77 77 80 82 81 79 78 78 77 75 71 68 67 68 68 67 69 70 69 69 72 75 76 75 73 72 74 76 74 72 72 74 77 77 76 76 78 78 77 75 74 74 74 76 76 74 73 73 73 74 73 73 73 74 74 74 74 74 75 76 76 77 79 78 78 79 80 80 81 81 83 84 85 85 86 86 86 86 87 88 89 91 92 92 91 90 89 89 89 90 93 94 94 96 98 100 100 101 101 99 97 96 96 97 98 97 97 97 95 94 95 96 97 98 98 99 99 100 99 99 99 98 97 97 97 97 97 97 98 99 99 99 99 97 97 97 96 95 96 96 97 97 96 98 99 97 94 94 95 93 92 94 98 98 96 96 96 95 94 93 93 94 95 96 97 97 95 94 94 95 98 99 96 94 94 96 97 99 102 102 101 99 98 98 99 98 97 97 96 94 92 91 91 92 92 93 93 91 89 89 89 89 89 89 90 90 88 87 88 87 85 85 85 85 88 88 85 84 83 82 83 84 85 82 79 79 80 79 78 78 76 76 76 76 76 75 76 76 76 74 73 73 73 73 73 73 74 73 68 68 68 72 73 72 72 73 71 70 74 77 76 72 71 72 74 74 74 77 78 76 76 77 77 78 78 79 79 79 78 75 74 73 72 72 72 71 71 71 69 66 66 67 67 68 69 68 68 69 69 70 71 73 76 77 76 74 73 72 72 73 75 75 74 74 74 72 70 71 72 73 73 77 79 79 80 80 80 80 77 76 75 76 76 77 79 79 80 76 73 73 73 74 74 73 73 76 76 73 72 71 68 68 70 72 72 70 70 72 73 73 73 74 75 76 78 79 79 76 73 73 74 73 70 70 71 72 73 72 72 72 72 72 71 71 71 71 71 71 73 72 72 71 69 67 67 67 65 65 68 64 63 61
76 76 76 76 76 76 76 76 76 76 76 76 76 76 76 76 76 76 76 76 76 76 76 76 76 76 76 76 76 77 78 79 79 79 80 81 81 82 83 85 85 87 91 93 96 97 96 96 97 97 97 98 99 101 102 102 100 99 98 99 100 102 103 104 105 106 108 108 106 104 102 100 99 98 99 99 97 94 90 86 84 84 84 84 83 81 81 81 80 78 77 75 76 76 76 76 76 76 76 76 76 76 76 76 76 76 76 76 76 76 76 76 76 76 76 76 76 76 77 82 82 83 84 85 86 86 87 89 90 90 89 89 90 90 89 87 87 88 88 88 87 86 85 85 85 84 83 81 80 79 77 76 76 76 76 76 76 76 76 76 76 76 76 76 76 76 76 76 76 76 76 76 76 76 76 76 76 76 76 76 76 76 76 76 76 76 76 76 76 76 76 76 76 76 76 76 76 76 76 76 76 76 76 76 76 76 77 81 84 81 79 80 81 81 82 82 83 84 85 87 89 85 81 81 81 78 76 76 76 76 76 76 79 82 83 83 83 84 84 85 88 91 92 94 93 89 83 84 87 89 89 88 87 88 89 88 86 83 83 82 80 78 78 78 75 76 78 77 75 77 78 79 80 80 80 82 82 81 80 80 80 77 76 75 75 78 80 80 81 82 86 85 81 80 81 83 86 87 85 85 83 82 83 83 82 81 80 81 80 77 75 73 70 68 67 66 64 66 69 72 77 79 78 77 75 73 75 77 77 74 72 72 74 76 77 76 75 76 76 73 71 72 75 75 75 75 73 73 76 77 76 75 72 71 72 72 69 66 64 63 64 64 63 61 60 62 64 61 58 58 61 61 59 59 60 60 61 60 61 63 65 65 67 69 71 71 67 65 66 70 71 71 69 67 66 67 68 68 67 64 63 68 75 77 76 74 74 77 79 81 82 85 86 84 82 82 83 83 82 79 77 76 75 71 68 67 66 66 66 67 65 63 62 60 62 66 66 67 69 71 74 78 83 85 87 86 85 85 86 87 86 84 84 86 86 87 88 88 88 88 90 90 88 86 84 82 80 79 78 78 77 77 77 75 76 78 78 77 77 77 75 73 73 72 70 69 69 69 70 71 70 68 69 71 72 73 72 72 74 78 77 75 73 74 76 76 76 78 78 79 78 76 73 72 72 72 73 73 73 73 73 73 74 74 73 73 75 76 77 76 74 73 74 75 75 75 75 77 79 80 81 82 82 82 83 84 85 84 84 86 88 88 88 90 92 92 90 88 88 88 90 93 97 98 99 101 103 104 103 102 102 101 99 95 94 95 97 97 96 95 95 95 97 98 99 99 97 96 96 97 98 100 100 99 99 99 98 97 97 97 98 99 99 99 98 95 96 98 98 97 97 96 94 95 97 98 98 97 96 95 98 98 98 98 98 96 96 98 97 96 95 94 94 95 98 98 96 96 95 94 94 95 94 94 95 95 95 95 98 102 102 101 100 99 99 96 96 96 94 94 94 93 91 90 91 90 87 88 89 87 87 87 87 88 89 89 90 90 88 88 89 89 88 88 88 88 88 87 85 84 87 87 86 87 85 82 81 81 81 78 77 77 77 78 78 78 77 76 76 77 76 73 73 73 73 73 73 73 73 72 67 66 67 68 69 71 73 74 74 73 73 74 74 72 72 74 75 76 78 80 80 79 81 81 80 79 76 76 77 76 76 74 74 73 72 73 74 74 72 71 67 64 64 65 66 67 66 65 66 67 69 70 71 73 76 77 76 75 76 76 76 79 79 76 74 74 73 70 66 66 68 69 69 73 77 79 82 83 83 80 78 77 77 77 79 79 79 79 80 78 75 74 74 72 72 74 75 75 74 73 74 74 71 70 74 76 75 73 72 73 72 72 72 74 74 74 75 77 76 75 73 73 74 73 70 71 73 73 72 72 72 72 71 71 72 72 71 71 71 71 72 71 71 71 68 64 65 67 65 64 66 65 65 65
76 76 76 76 76 76 76 76 76 76 76 76 76 76 76 76 76 76 76 76 76 76 76 76 76 76 76 76 76 76 77 79 80 80 81 82 82 83 84 85 86 87 91 93 96 97 97 97 97 98 98 98 98 100 102 102 101 100 99 100 101 102 103 104 105 106 108 108 106 105 103 102 100 99 99 98 96 94 90 86 84 84 83 83 82 80 80 79 78 76 76 76 76 76 76 76 76 76 76 76 76 76 76 76 76 76 76 76 76 76 76 76 76 76 76 76 76 76 79 82 83 83 85 86 87 87 88 89 90 90 89 89 90 89 88 87 87 88 88 88 87 86 85 85 85 84 83 82 82 78 76 76 76 76 76 76 76 76 76 76 76 76 76 76 76 76 76 76 76 76 76 76 76 76 76 76 76 76 76 76 76 76 76 76 76 76 76 76 76 76 76 76 76 76 76 76 76 76 76 76 76 76 76 76 76 76 76 79 82 81 80 81 82 82 82 82 83 84 85 86 88 86 82 81 81 78 76 76 76 76 77 81 84 83 83 83 84 86 87 88 89 91 92 93 91 87 84 84 86 89 89 90 90 88 88 86 84 82 80 80 79 79 79 79 78 79 80 78 77 79 80 80 81 81 81 82 81 80 77 77 78 77 76 74 74 77 80 81 80 82 87 87 82 81 83 85 87 87 86 86 86 84 84 84 82 80 80 82 80 77 75 73 71 69 67 66 65 66 67 70 75 78 77 75 74 74 74 76 76 74 72 73 75 78 80 77 75 76 75 71 69 70 74 76 77 77 75 74 75 76 75 73 70 69 71 72 70 68 66 66 67 65 64 64 62 63 64 63 60 59 61 60 58 58 60 60 61 60 59 60 62 64 67 69 71 69 66 64 64 67 70 71 70 69 68 69 69 69 66 64 65 71 77 78 75 74 74 75 77 79 80 82 83 81 80 80 82 82 82 81 79 77 75 72 69 67 67 65 65 66 65 63 60 58 60 63 63 65 68 71 75 80 85 88 89 89 88 87 89 89 88 87 86 86 87 87 88 88 88 88 89 90 89 87 84 82 81 81 80 78 75 76 77 75 75 77 78 77 77 75 73 73 73 73 70 69 69 68 69 70 70 68 68 70 72 73 73 73 74 76 77 76 75 74 75 75 76 77 78 79 78 76 74 72 71 71 72 73 73 74 74 73 75 75 74 73 75 77 78 77 75 74 74 74 73 73 74 77 79 80 80 81 81 82 82 83 83 83 85 87 88 87 87 89 90 91 90 89 89 90 92 95 97 98 98 99 101 102 102 101 100 98 94 91 91 93 96 97 96 95 96 98 98 100 101 100 97 96 96 98 98 99 100 99 99 99 99 98 97 97 97 97 98 98 96 94 96 99 99 98 99 98 95 95 96 97 98 96 95 96 99 99 98 98 96 95 96 98 97 96 95 95 94 95 96 97 95 95 96 96 95 95 95 95 95 96 96 98 100 102 101 101 100 100 100 100 99 97 95 94 93 93 92 91 91 89 87 85 85 86 87 87 86 88 89 89 90 88 87 88 89 89 88 88 87 87 88 88 86 85 87 87 86 86 85 83 82 82 82 80 77 77 78 80 80 79 77 76 76 77 76 72 72 73 73 73 73 73 73 71 67 66 66 66 67 70 71 72 72 72 72 74 74 74 73 74 75 77 79 82 81 80 81 82 79 78 77 76 76 76 76 75 74 72 72 72 72 74 74 73 70 67 66 65 66 66 65 63 64 66 67 68 69 71 73 76 76 75 78 80 80 81 81 79 75 75 75 72 68 67 69 69 67 69 74 77 79 81 81 79 78 78 78 79 80 80 79 78 78 78 76 75 74 72 73 76 76 74 73 73 75 75 73 72 75 76 75 74 73 73 73 72 73 75 74 73 73 75 76 75 74 73 73 73 72 71 72 72 71 71 71 72 70 70 71 72 72 70 70 71 72 71 71 71 69 66 65 66 65 64 63 65 65 66
76 76 76 76 76 76 76 76 76 76 76 76 75 75 75 75 76 76 75 75 75 76 76 76 76 76 76 76 76 76 77 79 80 80 81 83 84 85 86 87 88 90 92 94 96 97 98 98 98 98 97 97 98 99 100 101 102 102 101 101 101 102 103 104 105 106 108 107 106 105 104 103 101 100 98 96 94 92 88 85 83 82 82 83 82 82 81 77 76 76 76 76 76 76 76 76 76 76 76 76 76 76 76 76 76 76 76 76 76 76 76 76 76 76 76 76 76 78 82 83 83 84 86 88 89 89 89 89 90 89 88 88 88 88 87 87 87 88 88 88 88 87 86 85 85 84 84 83 81 80 77 76 76 74 74 74 76 76 76 76 76 76 76 76 76 76 76 76 76 76 76 76 76 76 76 76 76 76 76 76 76 76 76 76 76 76 76 76 76 76 76 76 76 76 76 76 76 76 76 76 76 76 76 76 76 76 76 76 78 82 83 83 83 83 83 83 83 84 85 85 85 84 81 81 81 78 76 76 76 78 83 88 88 85 84 84 85 88 89 89 89 89 89 88 86 85 85 86 87 90 91 91 91 89 86 83 81 79 78 78 81 82 82 80 82 83 81 80 81 81 81 81 83 84 83 82 80 79 76 75 76 78 78 77 77 78 81 82 80 82 87 86 82 81 82 83 84 84 84 85 85 83 82 82 80 79 80 80 79 78 76 74 74 74 71 68 65 62 63 66 71 74 74 74 75 76 76 76 77 78 78 77 76 77 78 76 76 74 71 68 67 71 75 77 78 78 77 75 74 73 72 70 69 69 70 72 73 72 70 68 67 65 64 63 63 64 65 64 61 59 58 58 56 56 58 60 60 60 59 59 59 62 66 68 68 67 66 65 64 64 67 69 68 67 67 68 70 69 67 67 69 73 75 73 72 75 78 79 77 77 79 81 80 78 77 78 80 80 82 83 80 78 77 75 73 71 69 66 63 62 61 60 58 57 59 61 65 70 73 74 76 82 86 87 89 89 89 88 88 89 89 88 88 88 88 89 89 89 90 90 90 90 90 89 87 85 84 82 79 76 73 73 75 76 77 77 78 77 75 73 70 71 72 70 68 67 66 66 67 65 66 68 72 75 78 77 77 77 75 74 74 74 74 75 75 75 76 76 77 78 77 76 77 76 74 74 76 76 76 75 74 72 72 73 74 74 74 74 75 76 76 75 74 74 75 76 78 78 79 79 79 79 81 82 82 83 83 85 87 88 88 87 86 87 88 90 90 90 90 90 92 94 94 95 96 96 97 98 100 99 97 95 90 87 88 91 95 98 97 96 96 97 98 100 102 101 99 98 97 98 98 98 99 99 99 98 99 99 99 98 97 97 97 97 96 95 97 98 97 97 100 101 99 98 97 97 97 97 96 98 100 99 97 97 96 95 96 96 95 95 95 95 95 95 94 94 94 94 96 96 95 93 93 96 97 97 99 100 100 100 99 100 101 102 102 102 99 96 96 96 94 93 94 93 90 88 87 85 85 88 88 87 86 87 90 91 91 88 87 88 89 89 89 89 88 87 89 88 87 86 87 88 87 84 83 82 83 83 83 82 79 77 78 79 79 78 77 77 77 77 73 72 72 73 73 73 73 74 75 71 66 66 66 66 67 67 67 68 68 69 70 74 75 74 74 74 74 75 78 80 81 81 81 81 81 80 80 79 78 79 77 76 74 72 72 73 73 76 76 76 73 71 68 65 62 62 62 62 63 64 65 67 69 70 71 74 75 76 81 82 81 81 81 80 77 75 75 75 72 70 70 71 71 70 74 75 76 77 78 79 79 77 77 78 80 80 79 77 77 76 75 76 75 74 75 76 75 73 73 73 75 76 75 74 74 76 76 75 73 72 72 72 75 75 74 74 74 74 76 78 77 76 75 74 72 70 68 69 67 68 71 72 69 69 70 71 72 72 72 71 71 71 70 69 69 67 66 65 65 63 62 63 65 67
76 76 76 76 76 76 76 76 76 76 77 77 77 77 77 77 77 76 75 75 75 76 76 76 76 76 76 76 76 76 76 76 79 81 81 82 84 86 87 89 90 91 93 94 96 97 98 98 98 98 97 97 98 99 100 102 103 103 102 102 102 102 103 104 105 105 106 106 106 105 104 103 101 100 98 95 93 91 88 85 81 81 82 83 83 83 82 77 75 76 76 76 76 76 76 76 76 76 76 76 76 76 76 76 76 76 76 76 76 76 76 76 76 76 77 77 78 80 82 83 83 86 88 90 90 90 90 89 88 88 87 87 87 88 87 87 87 87 88 88 88 87 86 85 85 84 83 83 83 83 81 79 78 78 78 77 77 76 76 76 76 76 76 76 76 76 76 76 76 76 76 76 76 76 76 76 76 76 76 76 76 76 76 76 76 76 76 76 76 76 76 76 76 76 76 76 76 76 76 76 76 76 76 76 76 76 76 76 76 79 82 83 84 85 85 84 85 86 88 87 84 82 80 81 83 83 79 75 75 79 84 87 88 87 86 85 85 86 87 88 87 88 89 89 87 86 86 86 86 89 91 89 88 87 85 82 80 79 80 81 84 84 81 79 81 83 82 82 81 82 81 82 83 84 83 82 79 76 75 76 78 80 79 78 78 79 80 81 81 83 86 85 84 83 83 83 84 84 86 86 85 83 81 80 79 79 79 80 80 81 80 77 75 74 74 72 68 64 64 67 71 73 74 75 76 76 76 76 76 78 78 78 76 77 78 76 76 75 73 70 70 73 77 78 77 76 75 74 73 73 72 71 72 74 74 73 73 74 72 69 67 65 64 63 64 64 63 62 61 61 61 61 60 58 58 57 57 58 59 59 59 60 62 64 64 65 65 65 63 62 63 65 67 67 67 69 68 66 66 67 69 72 73 71 71 74 78 79 77 77 78 77 76 75 75 77 79 80 82 81 78 77 77 76 75 75 73 68 63 60 59 58 58 58 60 61 65 71 75 75 77 80 83 84 85 88 89 88 87 87 88 89 90 91 91 90 91 91 93 92 90 90 90 89 88 87 85 82 79 77 74 71 71 72 74 75 76 75 73 70 68 68 68 66 66 66 66 67 68 67 66 69 73 77 79 78 77 78 78 76 75 74 74 74 74 74 74 75 77 78 77 77 79 78 76 75 77 77 76 74 71 71 69 69 71 73 72 72 74 76 77 77 77 76 76 78 79 79 79 79 79 79 81 82 82 82 85 88 88 88 89 88 88 90 91 91 91 91 92 92 91 90 91 95 96 96 96 96 96 97 97 96 93 88 86 89 94 97 96 94 95 96 98 100 100 100 100 99 98 97 96 97 98 99 98 96 96 98 99 99 99 99 99 97 96 98 98 97 97 97 98 100 100 99 96 96 97 97 97 98 100 99 97 97 96 96 96 96 96 97 95 95 95 96 96 95 94 94 95 94 94 93 96 98 98 98 99 100 100 99 99 100 101 101 102 101 97 94 94 95 92 92 93 93 93 91 88 87 87 88 89 89 89 88 89 89 90 90 92 92 91 90 88 86 87 88 89 88 87 87 89 91 89 85 84 83 83 83 83 83 80 77 78 79 78 78 78 77 76 74 73 73 73 73 72 72 75 75 71 67 66 66 67 67 66 66 66 67 66 68 72 74 73 73 73 74 73 73 74 75 77 80 81 81 80 80 81 82 80 79 77 76 76 74 73 74 74 74 74 75 73 70 69 66 62 61 61 63 66 66 67 70 72 72 72 74 76 80 84 83 79 77 78 80 79 75 73 74 76 74 73 75 75 75 78 78 75 75 77 78 76 75 75 76 76 77 77 76 75 75 75 77 75 74 76 75 73 73 73 73 74 74 74 74 73 73 74 74 73 72 72 75 75 75 75 75 75 76 79 79 78 75 75 75 74 71 68 68 68 68 70 71 70 69 70 71 72 72 72 71 71 71 71 70 69 67 64 64 63 63 62 62 64 67
76 76 76 76 76 76 76 76 77 78 79 79 79 79 79 79 79 78 77 76 75 76 76 76 76 76 76 76 76 76 76 76 78 80 80 82 83 85 87 89 90 92 93 95 96 98 99 99 100 100 100 99 99 99 100 102 102 102 103 103 103 102 102 102 103 103 104 104 104 104 103 101 100 99 97 95 92 90 87 84 81 81 83 83 82 81 79 78 77 76 76 76 76 76 76 76 76 76 76 76 75 75 75 75 76 76 76 76 76 76 76 76 76 77 80 80 80 82 83 83 84 86 88 89 89 88 89 89 88 88 87 87 87 87 86 86 86 86 87 87 86 86 86 85 85 85 84 84 84 84 82 81 81 81 81 81 81 80 77 76 76 76 76 76 76 76 76 76 76 76 76 76 76 76 76 76 76 76 76 76 76 76 76 76 76 76 76 76 76 76 76 76 76 76 76 76 76 76 76 76 76 76 76 76 76 76 76 76 76 77 81 82 82 84 85 85 85 87 87 86 84 82 82 84 84 85 84 78 77 82 85 85 85 86 86 86 86 86 86 87 87 87 88 89 89 90 90 88 86 88 89 88 85 85 86 86 83 83 83 83 82 80 79 78 79 81 82 84 84 82 82 83 83 84 83 81 76 74 77 79 81 81 79 78 78 78 80 82 83 84 85 86 85 83 84 83 83 85 86 85 83 83 82 80 80 81 80 79 79 81 81 76 74 75 75 72 69 66 67 70 72 73 74 74 73 73 75 75 75 75 76 78 77 76 77 78 78 78 77 74 73 76 78 78 75 74 74 74 73 73 72 71 72 74 74 72 71 71 71 69 67 67 67 65 64 63 62 61 62 64 67 67 64 60 57 57 57 56 56 57 56 56 59 62 62 64 65 64 63 62 63 64 64 65 67 68 68 66 66 66 68 73 75 73 74 74 74 75 75 77 76 74 74 73 73 76 78 79 79 77 76 76 76 75 76 77 75 71 66 62 59 57 58 61 62 62 62 66 70 73 76 77 78 79 81 86 89 88 87 88 90 90 90 90 90 90 91 91 91 91 90 90 89 87 86 85 83 81 78 77 76 74 71 72 73 74 75 73 71 69 67 64 65 66 66 66 66 68 71 72 72 72 72 73 75 73 73 75 76 76 76 76 75 74 75 75 75 77 79 79 79 77 77 75 75 74 74 74 73 70 69 70 70 69 69 70 72 74 74 75 76 79 79 77 77 79 80 80 79 79 79 79 80 81 82 82 83 84 85 86 86 88 91 94 94 92 92 92 94 94 93 91 92 95 97 96 95 94 94 94 95 96 95 91 88 88 92 94 94 94 96 97 99 100 99 99 100 100 99 97 96 97 98 98 98 98 96 98 99 99 99 100 101 100 97 96 96 97 98 98 97 97 98 97 96 96 97 97 96 96 98 99 98 97 97 97 96 97 97 97 96 95 95 95 96 94 94 95 94 94 96 97 98 98 98 100 99 99 99 99 100 99 98 99 100 97 95 93 93 92 91 92 92 92 94 94 92 89 89 89 90 90 89 89 89 89 90 91 92 91 90 89 88 86 87 89 89 89 89 89 89 90 90 87 85 85 85 84 83 82 81 79 79 79 78 78 77 76 73 73 73 73 73 72 69 69 72 72 69 66 65 67 69 69 67 67 69 69 68 68 73 74 71 71 73 74 75 75 75 75 76 78 79 78 76 75 78 80 78 77 78 78 77 76 75 74 73 71 71 71 71 68 68 66 62 61 62 64 65 67 68 71 74 75 75 75 78 83 86 85 81 78 79 81 77 73 73 76 79 78 77 79 79 80 80 77 76 76 77 77 77 77 79 79 77 76 76 75 74 74 76 76 74 74 74 74 73 73 73 73 73 71 71 73 74 74 72 72 75 76 76 75 75 75 75 75 75 75 77 77 74 72 73 74 76 74 71 71 70 68 68 70 70 70 70 71 71 70 70 71 71 70 68 68 68 67 65 64 62 62 62 62 64 66
76 76 76 76 76 76 76 77 79 79 80 80 80 80 80 80 79 79 79 78 76 76 76 76 76 76 76 76 76 76 76 76 78 79 79 81 83 84 86 88 89 92 94 95 97 98 100 101 101 101 101 101 101 101 102 102 101 101 102 101 102 102 102 102 102 102 104 104 103 102 101 100 98 97 96 94 90 88 86 82 81 81 82 81 81 80 79 80 80 76 76 76 76 76 76 76 76 76 76 76 75 75 75 75 76 76 76 76 76 76 76 76 76 77 81 81 80 81 83 83 84 86 87 88 88 88 89 89 88 88 87 87 87 86 85 85 85 85 87 87 86 86 86 86 86 85 85 83 82 81 79 79 81 80 80 81 81 80 77 76 76 76 76 76 76 76 76 76 76 76 76 76 76 76 76 76 76 76 76 76 76 76 76 76 76 76 76 76 76 76 76 76 76 76 76 76 76 76 76 76 76 76 76 76 76 76 76 76 76 78 81 82 82 83 85 85 85 85 85 85 85 83 83 84 85 86 85 79 79 84 87 87 85 86 87 86 86 86 87 89 89 86 85 86 89 91 92 89 87 88 88 85 85 86 87 87 84 83 82 80 79 79 79 80 81 83 83 83 83 82 83 83 84 84 83 79 76 75 78 81 81 81 81 81 78 79 82 83 84 84 85 86 85 84 84 83 83 83 84 84 83 83 82 81 81 82 81 79 79 81 80 76 75 76 75 71 68 66 67 68 70 72 72 72 72 72 73 74 75 75 75 77 78 77 77 78 80 81 80 77 76 78 80 79 76 73 73 74 74 73 72 73 73 73 72 70 69 69 69 70 70 69 68 66 64 64 62 62 65 68 69 68 65 62 58 57 57 56 54 52 51 52 57 60 61 64 66 65 64 63 64 64 64 66 68 69 67 66 66 66 68 72 73 73 74 74 74 74 74 76 76 75 74 74 73 74 76 77 76 74 74 74 75 75 76 76 74 71 67 62 59 57 58 62 64 63 63 65 68 71 74 75 76 77 81 86 88 87 87 88 91 91 89 89 89 90 90 91 91 91 91 91 90 88 86 85 83 81 78 77 77 75 73 71 71 72 74 72 70 68 66 63 63 65 67 67 67 68 71 73 74 74 73 73 73 72 72 74 75 75 76 76 75 75 76 76 77 79 81 81 80 78 75 74 74 73 72 72 72 69 68 70 70 70 70 70 72 74 75 75 76 78 78 77 77 78 79 79 79 80 79 80 80 81 81 82 82 83 84 85 86 87 92 95 95 93 92 93 94 93 93 93 94 95 95 95 95 93 93 94 95 96 95 91 89 89 90 92 93 94 97 98 99 100 99 98 98 99 99 98 97 97 98 99 99 99 99 98 98 98 100 100 101 100 98 96 96 97 98 98 97 97 98 97 97 98 97 97 96 96 98 98 98 98 98 97 97 97 97 97 97 97 96 95 96 95 94 93 93 95 98 98 98 98 99 100 99 99 99 100 99 98 96 96 97 94 94 93 93 93 93 93 93 93 93 94 92 91 93 92 91 90 89 90 90 90 90 91 90 88 88 89 88 87 88 90 90 90 91 90 87 87 87 86 85 85 87 85 83 82 81 80 79 79 78 78 76 74 73 73 73 73 75 73 71 72 74 73 71 66 65 68 71 71 67 67 68 69 68 68 71 70 69 69 73 75 77 77 77 77 77 77 76 75 74 74 77 79 77 77 78 79 78 77 76 75 75 72 71 71 70 68 66 65 64 63 63 63 64 67 69 71 74 75 75 76 78 83 85 84 80 79 81 81 77 76 76 79 81 82 80 79 82 82 79 77 77 78 78 77 78 80 82 82 79 76 76 75 73 74 76 75 74 73 73 73 74 73 73 73 73 70 71 73 74 74 72 73 77 77 77 76 74 74 74 75 75 75 76 76 74 72 73 74 75 75 73 72 72 69 68 69 70 70 71 70 70 70 71 71 70 68 68 67 67 67 65 64 61 61 61 62 63 66
76 76 76 76 76 76 77 79 80 80 80 80 80 80 80 80 80 80 79 79 76 75 76 76 76 76 76 76 76 76 76 76 76 78 80 81 82 83 85 87 88 91 94 95 97 98 99 100 101 102 102 102 102 102 102 102 103 103 103 103 103 103 103 103 104 104 104 104 103 102 101 99 97 96 94 91 88 86 82 81 81 81 81 81 81 80 80 80 79 77 76 76 76 76 76 76 76 76 76 76 77 78 76 75 76 76 76 76 76 76 76 76 76 78 80 81 81 81 83 84 85 86 87 87 88 88 88 88 87 87 87 87 86 85 84 84 85 85 86 86 85 85 85 85 85 85 84 83 80 78 78 78 81 80 79 79 80 80 79 76 76 76 76 76 76 76 76 76 76 76 76 76 76 76 76 76 76 76 76 76 76 76 76 76 76 76 76 76 76 76 76 76 76 76 76 76 76 76 76 76 76 76 76 76 75 75 75 76 76 77 80 83 83 83 84 84 84 84 84 84 85 85 84 85 86 87 85 81 83 86 88 88 88 88 88 88 86 87 87 88 88 85 84 87 90 91 90 89 88 87 88 86 85 86 86 85 83 81 80 77 77 79 81 83 83 83 82 80 81 83 85 84 82 82 82 81 78 75 76 79 81 81 82 82 80 81 83 84 85 86 86 85 85 86 85 84 84 84 82 82 83 82 81 80 80 79 79 79 79 80 80 78 76 75 72 70 68 66 66 67 68 70 70 70 71 72 72 74 75 75 75 77 77 77 77 78 79 79 79 79 79 79 78 77 75 74 75 76 76 75 75 75 75 73 72 70 69 68 69 70 69 68 67 67 66 64 62 63 65 67 68 65 63 61 59 58 57 57 53 47 45 49 54 57 61 65 66 66 66 65 64 63 63 64 66 66 65 65 65 66 68 70 71 72 74 76 76 75 76 76 77 78 78 77 76 74 74 73 72 72 71 71 72 73 74 72 70 67 64 61 58 57 58 61 63 65 67 68 69 70 71 73 75 77 81 84 85 85 86 87 88 89 89 89 89 89 89 90 91 91 91 91 90 89 87 84 83 82 81 80 78 75 72 71 71 71 71 71 70 68 66 63 63 64 65 66 67 68 70 73 74 74 74 73 73 73 74 75 75 75 75 76 76 76 76 77 78 78 78 78 78 77 75 75 77 76 73 72 71 70 71 72 72 72 72 72 73 74 74 76 77 78 78 77 78 79 79 78 78 79 79 80 81 80 80 82 84 85 85 85 87 89 92 94 93 92 92 93 94 93 91 93 96 95 93 93 93 93 93 94 95 95 93 91 90 88 88 90 91 94 97 99 99 97 97 97 98 99 100 100 98 98 98 100 100 100 99 99 98 98 98 99 99 99 99 97 96 96 98 98 98 100 100 99 98 99 99 99 99 98 99 100 99 99 99 98 97 95 95 96 98 98 97 96 96 95 95 94 95 98 98 96 95 95 97 98 99 99 99 99 97 96 96 96 95 94 94 94 94 94 94 94 95 94 91 89 89 93 95 93 90 90 91 91 91 91 91 91 91 89 89 90 90 90 91 92 91 90 92 90 86 84 84 85 84 84 85 83 83 82 81 80 80 79 78 78 76 73 73 73 73 73 74 75 75 76 76 73 70 69 69 71 73 73 69 68 69 69 68 67 67 68 68 70 73 75 77 78 79 79 77 74 73 73 73 74 78 79 79 78 77 77 77 77 76 77 77 75 74 73 71 69 67 65 64 65 65 64 67 69 69 70 73 74 74 75 77 80 81 81 79 79 82 82 78 77 77 80 82 82 78 78 80 81 79 77 77 77 77 80 80 82 82 80 78 77 76 75 74 74 76 76 76 76 75 75 75 74 74 74 73 72 72 73 72 72 73 74 76 77 77 77 77 76 75 76 76 76 75 75 73 71 73 74 74 74 71 70 70 69 69 70 70 72 72 69 69 69 70 69 67 66 66 67 67 67 65 64 61 60 60 61 63 64
76 76 76 76 77 77 79 80 80 80 80 80 80 80 80 80 80 80 80 79 76 75 76 76 76 76 76 76 76 76 76 76 76 77 78 79 82 83 84 85 87 89 91 93 94 95 97 99 100 101 102 103 104 104 102 102 104 104 104 101 101 103 104 106 106 105 105 105 104 103 102 100 98 96 92 89 86 83 81 81 82 82 81 81 81 81 81 80 78 77 76 76 76 76 76 76 76 76 77 80 80 79 76 76 76 76 76 76 76 76 76 76 78 80 80 81 81 83 84 84 85 86 87 87 88 88 88 87 86 86 85 85 85 85 84 84 84 84 84 84 84 84 84 84 83 83 83 83 80 78 78 78 79 80 80 80 79 79 78 76 76 76 76 76 76 76 76 76 76 76 76 76 76 76 76 76 76 76 76 76 76 76 76 76 76 76 76 76 76 76 76 76 76 76 76 76 76 76 76 76 76 76 76 76 75 74 74 74 75 78 82 84 83 82 81 81 83 83 83 83 83 84 84 84 86 86 85 84 86 88 89 89 89 88 88 89 89 89 89 90 91 89 87 86 88 88 88 87 87 87 88 87 85 84 83 82 80 80 80 79 80 81 82 85 86 84 82 80 81 83 85 83 82 82 82 82 79 75 74 77 80 80 80 80 80 80 82 84 85 85 85 85 85 86 87 86 87 87 85 84 83 81 80 80 79 79 78 77 75 74 74 74 74 73 72 71 70 68 66 66 68 68 68 68 70 72 72 72 74 75 75 76 76 76 77 77 77 77 77 79 79 77 77 76 75 75 75 77 78 78 78 78 77 75 73 71 69 68 68 68 67 66 66 66 66 65 64 64 65 65 64 62 61 61 60 58 56 54 52 50 49 51 53 54 58 62 64 65 66 65 64 62 61 61 62 63 64 64 65 67 70 71 72 73 75 76 77 77 77 77 76 76 77 77 76 76 74 73 72 72 71 70 70 71 72 70 66 64 62 59 58 58 60 61 63 65 67 69 70 71 71 73 75 77 80 81 81 83 84 84 86 88 89 89 89 88 88 89 89 90 90 89 89 87 86 84 83 83 82 80 78 76 73 70 69 67 67 68 69 66 64 63 63 64 65 66 66 67 68 71 74 74 75 77 77 76 76 78 77 76 75 76 77 77 77 77 78 78 77 77 77 77 77 76 77 76 73 73 73 73 73 73 72 72 73 73 74 74 74 75 76 76 77 79 78 78 77 77 79 79 80 82 82 81 83 84 85 85 86 86 87 89 91 93 93 93 93 94 94 92 90 91 94 94 93 92 91 92 93 93 93 94 94 91 89 88 88 89 89 91 95 97 97 96 96 99 100 100 101 102 102 101 100 100 100 100 100 99 98 96 96 96 98 99 99 98 97 96 97 97 97 98 99 99 99 99 100 101 102 102 101 101 101 101 99 98 97 95 95 96 97 98 97 98 98 97 96 95 96 97 97 96 95 96 98 99 99 98 97 97 95 94 94 96 96 97 97 95 93 91 91 92 93 94 91 90 91 93 93 92 91 92 93 92 90 90 92 94 94 91 90 91 93 94 95 95 92 91 91 90 87 85 84 85 85 84 82 82 82 81 81 80 79 78 77 77 74 73 73 73 73 73 74 76 76 76 74 73 71 70 71 72 73 70 69 70 72 72 70 69 69 68 69 70 70 73 75 77 78 78 76 73 72 72 73 77 80 78 76 76 75 75 75 75 78 78 75 73 72 71 71 72 72 70 67 67 68 70 70 70 70 70 70 72 73 73 75 77 76 76 77 81 86 86 80 76 76 78 80 78 74 74 78 80 80 79 78 77 79 81 81 81 81 79 77 76 76 76 75 75 76 77 77 77 76 76 75 74 74 74 73 74 75 75 73 73 75 75 76 76 77 78 78 77 76 76 78 78 76 75 75 74 75 75 74 74 71 68 68 68 69 70 71 71 70 67 67 68 70 69 66 65 66 67 67 67 66 64 60 60 60 61 63 65
76 76 77 77 78 78 79 80 81 81 81 81 81 81 81 80 80 80 80 79 76 76 76 76 76 76 76 76 76 76 76 76 76 77 78 79 81 83 84 85 86 87 89 91 91 93 94 96 98 100 101 103 104 104 104 104 103 103 102 101 102 103 103 106 106 105 105 105 105 104 103 101 98 96 92 88 85 82 82 83 84 83 82 81 81 81 81 80 78 77 76 76 76 76 76 76 76 77 80 80 80 77 76 76 76 76 76 77 78 78 78 79 80 80 81 81 82 84 84 85 85 86 87 87 88 87 87 87 86 86 85 85 84 84 84 84 84 84 84 84 84 84 83 82 82 81 80 80 80 80 80 79 80 81 81 81 79 77 76 76 76 76 76 76 76 76 76 76 76 76 76 76 76 76 76 76 76 76 76 76 76 76 76 76 76 76 76 76 76 76 76 76 76 76 76 76 76 76 76 76 76 76 76 76 76 76 75 75 76 80 82 82 81 82 81 81 82 82 82 83 83 84 84 84 86 85 83 83 85 87 89 89 89 89 88 90 92 90 90 91 91 89 88 88 88 88 88 87 86 85 85 86 86 84 83 82 81 81 82 82 81 80 80 83 85 83 80 80 81 82 82 83 82 82 81 79 76 74 76 78 79 80 80 80 80 80 81 83 84 85 85 85 85 86 87 87 87 86 85 84 83 81 80 80 79 78 77 76 74 72 71 71 71 71 70 70 69 68 66 63 64 66 66 67 70 71 71 71 74 75 75 74 74 76 76 76 77 77 77 79 79 77 77 76 75 73 73 75 78 80 80 80 79 77 74 72 70 67 66 66 65 65 65 65 65 67 67 66 65 62 60 59 58 59 58 57 56 54 53 52 52 53 53 53 56 61 64 64 63 62 60 59 59 61 60 60 61 65 67 69 71 73 74 74 73 74 76 77 77 76 75 74 73 75 77 77 74 72 72 72 71 70 70 70 70 67 64 63 61 58 57 57 58 60 62 64 66 68 70 72 72 74 75 77 80 80 80 81 82 83 85 87 88 89 88 88 88 88 88 88 88 88 86 84 84 83 83 83 81 80 78 75 71 68 66 65 66 66 65 64 63 63 64 64 65 66 66 67 69 72 74 75 75 75 75 75 75 76 77 76 76 76 77 78 79 78 80 80 78 77 76 76 77 77 75 74 73 74 76 77 75 73 72 72 74 75 76 77 77 76 76 76 78 79 79 78 77 77 78 79 80 82 82 81 82 83 84 85 87 88 89 89 89 91 92 92 91 91 92 91 90 91 92 92 91 91 91 91 92 92 92 92 93 91 89 91 92 92 90 90 93 96 96 96 96 98 99 100 101 103 104 104 102 101 100 100 100 100 99 98 96 95 95 97 98 100 100 98 97 95 95 95 97 98 99 98 99 101 103 103 101 100 100 101 99 97 97 95 95 95 96 98 99 98 97 97 97 95 94 94 96 96 98 98 98 99 99 97 95 95 95 94 95 96 96 99 98 94 92 89 89 90 93 94 94 93 93 94 93 92 92 92 94 94 92 91 94 94 92 90 90 92 93 95 95 94 92 91 90 90 88 87 87 86 85 84 83 82 82 81 81 79 78 77 77 77 75 74 75 75 75 75 75 75 75 74 74 73 72 71 72 73 73 71 70 73 73 73 73 73 71 70 70 71 71 72 73 74 75 76 75 73 72 72 75 79 80 76 73 73 73 73 74 74 76 77 75 72 72 71 72 74 74 72 69 69 71 72 72 70 70 70 70 71 72 72 72 73 73 73 75 80 85 86 82 78 77 79 80 78 74 75 79 80 80 79 80 80 80 81 81 81 81 79 77 76 76 76 76 76 76 76 76 75 75 75 74 74 75 75 74 74 75 75 75 75 75 75 75 76 77 77 78 77 77 77 78 78 78 77 79 79 77 76 76 75 74 69 68 68 69 70 70 69 67 67 67 67 69 68 65 64 66 67 66 65 65 64 61 60 60 61 62 62
76 76 77 79 80 79 79 80 80 80 81 81 81 81 81 81 81 80 80 78 76 76 76 76 76 76 76 76 76 77 78 78 77 77 79 80 81 83 84 85 86 87 88 89 90 92 93 95 97 99 101 102 104 104 105 105 105 103 102 103 104 103 103 106 105 105 105 106 105 104 103 101 98 96 92 88 85 84 85 85 85 84 83 82 81 81 80 79 77 76 76 76 76 76 76 76 78 79 81 81 80 76 76 76 76 77 77 78 80 80 80 80 80 81 81 81 82 84 85 85 85 86 87 87 88 87 87 86 86 86 85 85 84 84 84 84 84 84 84 84 84 84 83 82 81 80 79 78 81 81 81 81 80 80 81 80 78 76 76 76 76 76 76 76 76 76 76 76 76 76 76 76 76 76 76 76 76 76 76 76 76 76 76 76 76 76 76 76 76 76 76 76 76 76 76 76 76 76 76 76 76 76 76 76 76 77 78 78 79 80 81 81 81 81 81 81 83 83 82 83 84 84 84 85 86 85 82 82 85 87 88 89 90 89 89 90 92 92 90 91 90 88 88 89 89 88 87 87 86 86 85 86 85 84 82 81 81 82 83 83 81 79 79 82 84 83 81 82 82 82 82 82 82 81 80 77 74 74 78 80 80 81 82 82 82 81 81 82 83 85 86 86 86 86 86 86 85 85 85 85 83 81 80 80 79 78 76 75 74 73 71 71 71 69 69 69 68 68 66 63 64 65 65 67 69 71 72 73 74 75 74 74 74 76 75 75 76 76 77 78 78 77 77 76 75 73 72 73 77 79 81 80 79 76 74 72 71 68 66 66 65 64 63 63 65 68 69 67 64 61 58 57 57 57 57 57 57 55 54 53 52 52 51 51 54 59 63 62 62 61 59 58 59 59 59 59 62 65 66 68 70 72 74 74 73 73 75 74 74 76 75 74 74 75 76 75 73 71 71 72 71 70 70 69 69 67 64 62 60 58 57 57 58 59 61 63 64 66 69 70 71 71 72 75 80 81 80 81 82 83 85 87 88 88 88 88 88 89 89 88 87 87 85 84 83 81 80 80 80 79 77 74 71 68 66 64 64 64 62 62 63 64 64 64 65 65 67 68 70 72 74 74 75 75 74 74 75 76 78 78 77 77 77 77 79 80 82 81 78 76 75 75 77 77 75 73 73 75 76 76 74 73 74 74 75 75 76 77 77 77 76 77 78 80 79 79 79 78 79 80 82 84 83 82 82 83 83 85 87 90 90 89 89 89 89 90 89 89 90 91 91 91 92 90 89 89 90 91 92 92 91 91 91 90 91 94 94 93 91 92 93 94 95 96 97 98 98 100 101 103 105 104 103 102 101 100 100 100 101 100 98 95 95 97 100 103 102 99 97 96 95 96 97 97 98 99 99 100 101 101 99 99 99 100 98 97 97 96 95 95 95 98 99 97 96 96 97 95 94 94 96 97 97 98 97 97 97 96 95 94 94 94 95 96 96 98 98 94 92 90 90 93 94 95 94 93 93 95 94 93 93 93 94 94 94 93 95 95 92 90 90 93 93 94 94 94 93 91 89 89 88 88 88 85 84 84 84 82 81 81 81 79 78 77 77 78 76 75 77 77 76 75 75 75 75 74 74 73 73 73 73 73 73 72 71 73 73 73 74 74 72 71 71 72 72 72 72 72 73 74 74 72 71 71 74 78 79 75 73 73 72 72 73 74 75 76 74 73 74 73 72 73 73 71 70 70 71 72 71 70 70 71 72 72 72 71 71 71 72 73 75 78 81 83 82 80 79 80 80 78 76 76 79 80 80 80 82 83 82 80 80 81 81 79 77 76 76 75 75 75 75 75 75 75 75 74 74 74 75 75 75 75 75 75 76 76 76 75 76 76 77 77 78 78 77 78 78 78 78 78 80 81 79 78 78 77 75 71 69 70 71 71 70 67 66 65 65 67 69 68 66 64 65 66 65 63 63 63 61 60 60 61 61 62
78 80 80 80 80 79 79 80 80 80 81 81 81 81 81 81 81 80 79 77 76 76 76 76 76 76 76 76 77 78 78 79 79 80 81 81 82 84 85 86 86 87 87 87 89 91 93 95 96 98 100 103 104 104 105 106 106 106 105 105 105 105 105 106 106 106 105 105 105 104 103 101 98 94 92 89 88 88 88 88 88 88 84 82 81 81 80 79 79 78 76 76 76 76 78 79 79 80 81 81 79 75 75 76 76 76 79 81 81 81 81 81 81 81 82 83 84 85 86 86 86 86 87 87 88 87 87 86 86 86 85 85 84 84 84 84 84 84 84 84 84 83 82 81 80 78 78 79 82 81 80 79 79 79 80 77 76 76 76 76 76 76 76 76 76 76 76 76 76 76 76 76 76 76 76 76 76 76 76 76 76 76 76 76 76 76 76 76 76 76 76 76 76 76 76 76 76 76 76 76 76 76 76 75 75 78 82 80 79 79 80 81 80 80 80 81 82 82 81 81 83 84 85 85 86 85 83 82 85 88 88 89 90 90 91 91 92 92 91 89 87 86 87 88 87 87 88 88 87 86 86 85 84 84 83 82 81 83 84 83 80 79 80 82 82 82 82 82 82 82 82 82 82 81 80 77 75 75 80 82 81 81 81 83 83 83 83 83 84 85 85 86 86 86 86 85 85 85 85 84 82 80 79 78 78 77 75 74 75 76 74 72 70 68 67 67 67 67 67 66 66 65 65 67 69 71 73 74 74 75 74 74 74 74 74 75 76 76 76 76 77 78 77 76 76 75 73 73 75 77 77 78 76 74 73 72 72 69 67 67 66 64 63 63 64 65 64 63 63 62 61 59 58 57 56 56 56 55 55 55 54 50 48 49 53 56 58 60 62 62 60 59 59 56 55 59 62 64 66 68 70 72 72 73 74 73 71 70 73 75 74 73 73 75 74 72 70 70 69 68 67 66 68 69 69 66 62 59 58 58 60 61 61 59 61 62 63 65 66 67 68 69 71 74 79 80 79 81 84 85 86 87 88 88 88 89 90 90 90 89 87 86 85 83 80 77 76 76 77 76 74 72 70 69 68 65 62 62 62 62 63 64 63 63 64 66 69 70 70 71 72 73 75 75 74 74 74 76 77 78 78 77 78 78 79 80 81 81 79 77 75 74 74 75 73 72 73 76 75 73 73 73 74 75 75 76 76 76 76 76 77 78 78 80 80 80 80 81 81 83 85 85 85 84 84 84 85 85 87 88 88 88 88 87 87 87 88 88 88 90 93 92 90 88 87 88 90 91 91 90 90 90 89 89 90 93 93 91 91 93 94 95 97 98 98 98 99 102 102 103 104 103 103 102 102 101 101 101 102 102 101 98 97 98 101 102 101 100 99 99 97 96 98 98 98 99 100 99 99 99 99 99 99 96 96 96 97 96 96 96 96 97 97 96 96 95 95 95 95 95 95 95 95 94 94 94 95 95 93 93 93 94 94 95 95 95 97 94 93 92 93 94 95 95 94 93 94 95 94 94 94 95 95 96 96 95 95 95 93 92 92 94 94 94 94 94 93 91 89 89 89 88 87 86 85 85 84 83 82 81 81 79 79 79 77 77 76 76 77 78 77 76 77 77 77 76 77 75 74 74 75 75 74 71 71 72 73 74 76 77 75 72 72 70 70 72 72 72 73 73 72 72 71 71 73 76 75 73 73 73 71 71 71 74 74 74 75 76 76 75 72 71 70 68 69 71 71 72 71 70 71 72 72 72 72 72 72 72 73 74 76 77 77 78 79 80 79 80 79 78 78 78 78 79 81 81 82 82 81 79 79 79 77 77 77 77 77 75 75 75 74 74 75 75 75 75 74 74 75 75 75 77 77 76 74 74 76 77 77 77 78 78 78 78 78 78 77 77 78 78 80 82 81 80 80 80 79 75 72 72 74 75 72 68 65 64 64 67 68 68 66 65 65 64 62 61 62 63 62 61 60 60 61 63
