ncols         850
nrows         30
xllcorner     -71.7220222222
yllcorner     41.76665
cellsize      1.0E-5
NODATA_value  -9999
143 142 144 148 151 154 155 153 152 151 150 148 148 147 146 145 144 142 142 140 135 133 134 134 134 134 134 134 134 134 134 134 134 134 140 151 154 152 152 152 152 156 156 156 153 153 153 155 158 159 159 161 161 160 160 163 163 162 165 166 166 165 165 167 168 165 163 163 163 162 159 160 161 161 159 160 161 159 159 156 154 154 156 156 156 156 157 156 155 155 155 156 158 162 161 160 160 160 160 162 163 162 158 159 161 161 159 158 156 154 153 151 148 147 148 150 149 147 143 143 142 142 144 142 142 143 145 146 148 150 153 157 159 162 165 166 165 165 164 164 163 161 160 159 158 158 155 152 149 149 146 145 143 141 140 141 141 140 139 135 131 132 133 131 128 128 125 123 121 120 121 120 117 115 115 119 124 125 121 117 116 117 120 122 121 117 113 108 106 106 106 105 105 107 109 112 115 118 119 121 124 123 123 126 126 127 133 135 133 131 129 129 130 130 129 128 129 129 128 130 132 132 129 128 127 124 122 118 117 119 120 120 119 119 124 126 127 130 132 134 136 138 139 139 137 137 134 134 134 131 129 127 124 122 121 119 118 117 117 119 120 120 119 120 120 120 119 119 120 117 115 116 116 118 119 120 119 117 117 118 118 118 117 115 113 112 112 113 113 114 114 114 116 117 117 116 115 116 117 117 119 122 123 126 123 121 124 120 119 121 122 125 131 135 137 138 136 133 129 128 130 132 130 124 123 122 120 123 129 134 139 143 147 150 152 154 153 153 151 150 149 148 148 148 147 147 148 148 145 142 140 135 132 135 136 136 137 135 132 130 134 135 137 134 132 134 135 135 132 129 128 128 127 127 130 132 133 135 137 140 143 145 148 148 151 150 148 147 147 149 150 151 152 150 147 146 144 144 145 146 148 150 149 146 143 141 138 137 137 133 134 133 131 125 127 130 130 130 128 129 131 129 122 113 110 109 105 99 95 94 92 89 85 84 84 83 83 83 83 83 83 82 82 84 89 90 86 81 78 79 83 84 85 85 87 87 87 89 90 92 94 97 99 99 99 101 101 103 105 109 114 118 117 116 119 120 121 121 121 122 123 122 121 122 123 122 121 124 127 127 128 130 131 130 129 129 126 126 127 127 127 127 125 124 124 124 126 127 128 130 129 128 125 122 120 122 125 124 125 124 119 114 114 114 114 118 121 121 119 118 118 116 118 118 117 116 116 115 117 118 117 114 112 111 111 111 111 113 113 113 116 119 119 119 117 115 115 117 116 116 117 116 113 113 114 117 120 120 122 123 117 115 114 108 106 104 103 103 103 103 103 103 103 103 103 103 103 103 103 103 103 103 103 103 103 103 103 103 103 103 103 103 103 103 103 103 103 104 105 104 104 103 101 100 98 98 98 96 94 92 91 90 90 90 90 90 89 89 89 90 90 91 92 92 90 90 93 94 95 94 94 94 94 94 96 96 96 96 97 98 101 102 100 101 103 104 104 103 101 98 93 87 84 84 86 89 90 91 91 90 88 87 84 84 86 86 85 82 79 78 80 80 83 84 86 87 89 91 91 92 91 90 89 87 85 84 82 80 80 77 76 73 73 72 70 70 69 69 67 66 65 64 62 58 55 53 52 51 50 49 48 47 46 43 42 41 42 39 35 35 34 33 34 36 38 40 40 39 38 37 35 34 31 27 23 22 22 22 22 22 23 24 30 39 47 49 48 46 45 45 46 47 51 52 54 54 53 52 52 52 53 56 56 56 56 56 59 58 58 58 59 57 57 55 50 48 49 48 47 47 45 45 45 45 44 42 41 41 41 42 45 48 50 52 53 58 59 60 62 62 63 63 63 66 71 77 77 80 82 86 88 88 89 88 87 88 89 89 88 86 84 83 81 79 78 77 78 79 78 78 77 77 76 75 73 73 75 76 77 77
144 141 141 142 147 152 155 153 149 149 148 147 146 146 145 145 144 143 144 142 137 133 134 134 134 134 134 134 134 134 134 134 134 134 142 152 154 151 150 150 151 155 155 153 152 152 151 154 156 158 159 162 164 162 161 162 160 159 162 164 166 167 167 167 167 165 164 163 164 162 161 163 162 161 159 159 160 160 159 155 154 154 154 155 155 154 156 154 154 155 157 158 159 163 163 160 159 159 159 161 165 165 161 159 160 160 160 160 156 155 155 154 151 147 147 148 146 145 143 143 142 142 144 143 142 143 145 146 150 153 155 157 161 162 163 164 164 163 162 162 162 161 160 157 155 156 154 152 150 148 146 145 141 140 140 140 139 139 138 133 130 130 130 130 129 129 127 125 121 118 118 117 115 114 115 120 124 123 120 117 117 117 119 120 120 117 114 109 107 107 107 107 107 110 113 116 118 120 122 123 124 125 126 127 127 129 133 136 135 132 130 132 133 133 132 130 128 128 131 131 132 132 130 128 128 125 123 121 119 120 121 120 119 120 123 124 126 129 131 132 134 137 139 140 137 135 133 132 133 131 129 127 126 124 124 121 117 116 116 119 119 119 119 119 120 120 119 118 118 117 117 116 115 116 117 117 115 116 119 119 116 116 116 116 114 111 112 113 113 115 114 114 115 117 116 114 114 117 120 120 121 123 124 126 125 122 124 121 119 121 124 128 133 135 135 135 133 130 130 130 132 133 131 126 124 123 120 123 129 133 137 141 145 149 150 151 151 150 151 153 150 148 149 151 148 147 149 146 142 142 142 139 135 134 133 131 132 131 130 131 136 137 139 136 135 134 135 135 134 131 130 129 127 127 128 130 132 136 140 143 145 146 146 147 149 149 149 150 149 151 151 152 154 152 147 147 147 147 150 149 148 149 149 148 145 141 137 137 139 135 135 133 130 127 128 130 131 130 127 126 127 126 120 112 111 110 107 102 96 94 92 89 86 85 85 84 83 83 83 83 83 83 82 83 85 85 82 79 78 79 80 82 84 85 87 87 88 90 91 92 93 96 98 99 100 101 102 103 106 110 114 116 116 117 120 119 119 121 122 122 123 122 122 123 122 119 121 124 127 127 129 131 132 131 130 129 126 126 127 128 129 128 126 125 126 126 128 129 130 131 130 129 124 121 120 122 123 122 124 125 120 115 115 114 114 118 121 122 121 118 116 116 117 118 116 115 116 114 113 115 115 112 109 110 112 111 112 116 116 116 117 118 118 116 114 113 116 118 117 116 116 116 116 115 115 117 120 121 122 122 117 113 110 106 103 103 103 103 103 103 103 103 103 103 103 103 103 103 103 103 103 103 103 103 103 103 103 103 103 103 103 103 103 103 103 103 103 103 104 103 103 103 101 100 98 98 98 96 94 92 92 90 90 90 90 90 89 89 89 90 90 90 91 92 91 91 92 95 95 94 94 94 94 94 94 95 96 96 96 98 103 104 102 102 102 103 103 103 101 97 93 88 86 84 85 89 90 92 93 91 89 87 83 82 83 83 83 80 78 79 80 81 83 84 87 88 89 91 91 92 92 91 91 89 87 86 83 80 79 77 75 73 73 72 71 70 70 69 68 67 67 65 64 61 58 56 55 52 51 49 47 46 45 43 40 38 39 38 35 34 34 37 40 42 43 44 44 43 42 41 39 38 36 32 28 24 22 22 22 22 23 23 28 36 45 49 49 49 47 46 46 47 51 52 54 54 53 52 52 51 51 54 56 56 57 57 60 60 59 60 61 60 58 56 51 48 50 49 46 46 46 46 46 45 45 43 40 40 42 43 45 47 49 51 53 57 59 60 61 61 62 62 62 65 72 78 78 79 80 83 86 87 86 86 85 85 86 86 87 86 84 84 79 75 75 74 76 77 76 74 74 74 73 72 70 70 73 75 77 77
145 141 138 138 142 149 154 152 148 148 147 147 145 143 143 144 143 142 142 141 137 134 134 134 134 134 134 134 134 134 134 134 134 136 145 153 154 151 150 151 152 152 152 150 150 150 150 152 154 156 158 163 166 164 161 160 158 157 158 161 164 166 168 167 166 164 164 164 164 164 164 165 163 161 159 159 160 160 159 155 155 155 152 152 152 152 154 155 155 156 160 159 158 161 163 161 159 160 160 163 168 168 164 162 161 161 160 160 158 156 156 155 153 149 147 147 145 144 144 143 142 141 142 144 144 143 144 146 153 156 156 157 161 163 162 162 163 162 162 162 163 161 160 157 154 154 154 151 150 147 146 145 142 140 140 138 137 138 137 133 131 130 128 127 126 126 125 124 121 119 118 117 115 115 117 120 121 119 118 116 114 115 117 117 119 117 115 110 107 107 107 109 109 113 118 122 122 121 123 125 125 128 130 130 130 130 130 133 135 132 131 134 135 135 135 133 131 131 133 132 133 132 130 128 126 123 123 122 120 120 120 121 121 121 122 123 126 129 130 132 134 135 137 139 137 135 133 132 132 130 129 128 128 126 124 121 118 117 118 119 119 120 121 120 119 119 119 119 117 117 119 119 116 116 115 114 113 114 118 118 114 113 113 115 115 112 111 111 114 117 115 113 113 117 117 116 117 122 126 124 122 123 124 126 125 122 123 122 121 122 126 128 131 132 133 132 130 129 131 132 132 130 128 127 125 123 122 124 128 132 136 140 143 146 148 149 149 149 152 154 151 150 150 153 151 149 147 144 142 143 144 141 138 136 133 129 129 129 129 132 134 134 137 136 137 134 133 134 133 131 131 131 129 130 130 130 131 136 141 144 146 146 145 145 149 151 152 152 151 152 152 152 154 151 147 147 149 150 154 152 148 147 148 149 147 143 139 140 140 136 134 131 129 128 129 129 131 130 127 124 123 124 121 116 113 110 107 102 96 95 92 89 88 87 87 87 85 84 83 83 83 83 84 83 83 82 81 80 80 80 79 80 82 83 85 87 87 88 90 91 93 95 97 99 101 102 104 105 107 111 112 113 112 115 119 119 119 120 122 122 122 121 121 121 119 117 121 126 127 127 131 133 133 130 129 127 126 126 128 131 131 130 129 127 128 128 129 129 131 131 129 126 122 122 122 124 124 122 122 123 120 119 119 118 115 118 119 121 121 117 116 117 116 115 114 114 114 113 111 112 112 111 109 111 112 110 113 117 117 118 119 117 116 114 112 112 116 118 117 116 115 116 118 118 118 119 122 123 122 120 117 112 109 106 101 102 103 103 103 103 103 103 103 103 103 103 103 103 103 103 103 103 103 103 103 103 103 103 103 103 103 103 103 103 103 103 103 103 103 103 103 102 101 100 99 99 98 96 94 92 92 91 90 90 90 90 89 89 89 90 90 90 90 91 91 91 92 94 95 94 94 94 94 94 94 95 95 95 96 98 102 104 104 103 103 103 103 102 99 96 93 90 87 85 86 89 90 92 94 91 89 86 82 81 81 81 81 78 78 79 81 81 83 84 86 88 89 91 91 93 93 93 91 91 89 87 84 81 79 77 75 73 73 72 72 72 71 70 69 68 68 66 65 64 61 59 58 55 52 50 48 45 44 42 41 38 37 36 36 37 38 41 44 45 47 48 48 47 46 45 43 42 40 37 33 29 23 22 22 22 22 23 26 33 42 48 49 51 50 48 47 47 51 52 54 54 53 51 51 51 51 51 54 56 56 56 59 59 59 59 61 62 58 56 52 50 50 50 47 45 45 46 46 46 46 44 41 40 42 44 45 46 48 49 52 55 58 60 61 61 61 61 62 65 73 79 80 80 80 82 86 87 87 87 85 84 84 85 85 85 84 83 79 74 72 72 74 74 73 72 71 71 71 70 68 68 70 74 75 77
145 142 139 138 140 146 150 150 149 149 147 146 143 141 141 142 141 141 142 141 136 134 134 134 134 134 134 134 134 134 134 134 134 137 146 152 152 151 153 153 153 149 148 147 148 149 150 152 154 157 158 162 167 165 162 158 157 157 157 159 161 163 166 166 166 165 164 164 165 164 165 166 164 161 159 159 160 160 159 157 157 157 152 151 151 151 153 153 155 158 160 158 158 158 159 159 158 159 161 164 169 169 164 163 160 160 160 160 159 156 155 154 153 150 148 147 145 144 144 144 142 141 142 145 147 144 144 147 155 157 155 155 160 162 161 161 162 163 161 161 163 163 162 159 155 154 154 152 150 147 145 145 143 142 141 138 137 138 135 132 132 131 128 125 124 123 123 122 120 119 120 119 116 116 118 118 118 117 116 113 111 114 117 118 120 118 115 111 107 107 107 109 111 116 122 126 125 123 125 128 128 131 132 133 134 134 131 131 133 134 134 137 138 137 137 136 134 134 134 135 135 132 130 128 125 124 124 124 122 121 122 123 123 122 121 122 125 128 129 132 133 133 133 135 135 134 134 133 131 130 129 128 128 126 123 120 119 119 119 118 118 119 120 120 118 117 117 119 118 119 120 120 118 117 114 112 113 114 116 116 114 111 110 114 116 113 111 112 114 117 116 114 113 116 116 116 119 125 128 127 126 126 125 126 125 122 123 125 127 126 125 126 127 129 129 128 128 129 133 133 132 129 128 128 125 122 122 123 126 130 135 139 141 143 147 147 148 150 153 152 151 150 151 153 153 150 143 143 145 145 144 141 140 140 137 132 130 129 130 131 129 129 132 134 136 132 130 130 131 131 130 130 134 135 133 132 132 135 140 144 144 146 146 146 151 153 155 154 151 152 153 152 152 150 148 148 150 151 155 154 151 149 150 153 150 145 142 142 140 137 133 130 130 131 130 130 130 129 128 124 122 125 125 121 116 111 107 102 96 94 93 89 88 87 87 88 86 84 82 82 82 83 84 83 83 82 82 81 81 81 79 79 81 82 85 87 88 87 89 91 94 95 95 97 99 101 104 107 109 111 113 112 111 113 117 120 120 120 120 122 121 120 120 119 118 117 123 129 130 129 132 133 133 128 126 125 127 129 130 133 133 132 131 129 129 130 130 129 128 128 126 124 122 122 125 127 127 122 119 120 121 122 124 123 119 118 118 119 120 116 115 116 113 111 113 114 115 114 111 111 112 113 112 112 111 109 113 116 117 117 119 116 114 113 113 114 116 115 115 115 115 116 117 118 117 118 121 123 122 117 116 112 111 110 104 103 103 103 103 103 103 103 103 103 103 103 103 103 103 103 103 103 103 103 103 103 103 103 103 103 103 103 103 103 103 103 103 103 103 103 103 102 100 100 99 99 98 96 95 93 92 91 90 90 89 89 89 89 89 90 90 91 91 91 91 91 91 92 94 94 94 93 93 93 94 94 95 95 96 97 101 105 105 104 103 102 102 99 97 96 94 91 88 85 86 89 90 91 92 91 88 85 82 80 80 79 79 78 79 81 81 82 83 84 86 87 88 90 91 93 93 93 92 92 91 88 85 83 80 78 76 74 74 74 75 75 73 71 69 68 68 67 67 66 64 62 61 58 55 52 50 47 44 44 43 40 36 36 39 41 42 43 46 47 49 50 51 52 50 48 46 45 44 41 38 34 28 22 22 22 22 22 24 29 39 46 49 51 53 51 48 48 51 52 54 54 53 51 50 51 50 51 52 54 55 55 57 58 58 58 60 62 59 56 54 52 50 49 47 45 45 45 45 45 45 44 41 40 42 46 46 46 46 48 50 52 55 59 60 60 60 60 62 66 74 80 81 81 81 83 86 88 89 89 87 84 84 85 84 84 83 80 78 75 72 72 72 72 71 71 70 70 69 69 68 68 70 73 76 77
144 142 139 139 139 142 145 147 148 148 146 143 141 141 140 141 140 140 140 138 136 134 134 134 134 134 134 134 134 134 134 134 136 139 144 150 150 151 154 154 152 148 147 145 147 149 150 151 153 156 158 160 164 165 161 157 158 158 158 158 159 162 164 164 165 167 167 166 165 164 164 165 162 161 161 160 160 159 158 157 158 157 153 154 154 153 152 151 152 156 156 156 157 157 155 156 156 158 160 162 166 166 164 164 160 159 160 160 158 156 155 153 153 150 148 148 146 145 145 144 142 142 142 145 148 147 145 148 153 155 152 152 156 159 160 161 161 162 161 161 162 162 162 160 156 154 154 154 153 150 146 146 144 142 141 139 139 138 133 131 132 132 128 125 122 121 122 122 120 119 120 120 116 116 117 116 116 115 113 111 110 114 117 119 120 117 114 110 108 107 107 112 114 118 122 126 126 126 128 131 132 132 131 134 136 135 133 131 133 136 138 139 140 139 139 138 137 137 136 136 136 132 130 129 128 126 127 127 123 122 123 124 125 125 124 122 126 127 127 129 130 130 131 133 134 134 134 133 130 129 128 127 127 126 124 122 118 118 119 117 118 119 119 120 118 116 116 118 120 119 118 119 119 117 113 112 114 116 116 115 114 112 112 114 115 113 113 114 115 118 117 117 117 116 115 114 119 124 127 127 128 128 128 129 127 126 126 129 131 128 125 125 126 126 125 126 127 130 133 133 133 131 127 126 124 122 122 123 124 127 132 137 139 141 144 144 146 151 154 153 152 152 153 154 154 150 143 143 145 145 143 141 140 141 140 136 133 130 129 129 126 125 126 129 131 129 127 127 129 132 130 130 136 138 136 134 134 134 137 141 142 146 148 148 151 153 156 156 154 154 154 153 150 150 150 150 150 150 153 156 155 151 153 157 154 149 145 143 140 138 135 134 132 132 131 132 131 129 129 125 123 127 130 125 119 112 106 102 95 92 93 90 87 87 87 86 86 86 84 81 81 82 82 82 82 82 83 81 80 79 80 80 80 82 85 88 89 88 90 93 94 93 92 95 98 100 103 106 109 110 113 113 112 113 115 119 119 119 119 122 121 119 119 120 121 121 125 130 131 131 131 131 131 127 123 123 128 131 132 133 132 132 133 132 131 133 133 130 126 123 122 123 124 126 127 128 128 122 117 118 121 122 125 125 122 119 118 118 118 116 114 114 110 110 113 115 116 115 112 112 114 115 114 112 111 112 115 116 117 117 118 114 112 112 114 115 115 113 114 115 115 117 116 115 114 116 119 121 120 116 115 112 113 115 111 105 103 103 103 103 103 103 103 103 103 103 103 103 103 103 103 103 103 103 103 103 103 103 103 103 103 103 103 103 103 103 103 103 103 103 103 102 101 101 99 99 98 96 95 93 93 91 90 90 89 89 89 89 90 90 90 91 91 90 90 90 91 91 92 93 94 93 93 92 92 93 94 94 96 96 100 104 104 104 104 102 100 97 96 96 95 93 89 87 87 88 90 90 91 90 88 84 81 80 79 78 78 78 80 82 83 84 84 84 85 86 88 90 91 92 93 94 93 93 92 90 87 84 82 80 78 77 77 78 79 78 75 72 70 69 69 69 69 67 66 64 63 60 57 54 52 49 46 45 44 40 37 37 42 45 45 45 46 48 50 53 55 57 55 53 49 48 47 45 43 39 32 25 22 22 22 22 23 26 34 42 48 50 53 53 50 49 51 52 54 54 54 52 50 50 50 51 51 52 52 53 55 56 56 57 59 60 60 57 56 54 50 47 46 45 45 45 45 45 45 44 41 41 44 48 49 47 47 48 49 51 54 57 59 60 60 60 62 67 75 81 82 83 83 85 88 89 89 89 88 86 86 86 84 83 81 78 76 74 72 72 71 70 70 70 70 69 69 69 68 68 70 74 78 80
144 142 138 137 137 139 141 145 147 147 144 141 139 140 139 139 139 139 138 136 135 134 134 134 134 134 134 134 134 134 134 135 141 142 144 149 147 148 152 153 151 148 146 145 146 150 150 149 150 154 157 159 161 163 161 157 158 158 158 157 157 161 162 162 165 168 168 168 163 162 161 163 162 162 164 162 161 159 157 157 157 155 155 156 156 155 152 150 151 154 154 156 157 157 154 155 157 158 159 161 163 163 163 162 160 158 159 159 157 159 156 154 153 150 148 148 147 147 146 145 144 142 142 144 147 146 144 146 150 151 150 150 153 157 160 162 162 163 162 161 161 162 162 160 155 153 154 154 154 151 148 148 144 142 142 140 138 136 132 131 132 132 129 126 122 121 123 123 121 119 119 119 116 116 115 115 115 113 112 113 112 114 115 117 118 117 113 109 109 108 110 115 117 120 122 126 127 128 129 132 133 132 131 134 136 135 133 132 134 138 140 140 142 141 140 140 140 140 138 137 137 133 134 132 130 129 129 128 124 122 122 122 124 127 127 124 126 127 125 126 127 127 129 131 133 133 133 132 130 128 128 126 126 125 125 122 118 117 118 117 118 119 119 119 118 116 116 118 120 117 115 115 116 115 115 113 115 116 115 115 114 115 117 115 114 114 116 116 116 117 118 118 119 117 115 116 121 126 125 125 127 128 130 133 133 130 129 131 132 129 127 126 126 126 123 124 127 129 129 131 134 132 126 124 125 124 124 124 123 125 129 134 137 139 141 142 144 148 151 154 154 154 157 156 155 150 145 145 144 144 143 141 139 138 139 138 135 131 129 129 127 125 122 124 127 127 127 127 129 130 130 130 133 135 134 134 135 136 138 139 141 144 147 149 150 151 154 158 158 156 155 154 150 149 150 150 150 150 154 157 156 153 154 157 157 152 148 145 142 141 138 137 135 133 132 132 131 129 130 128 125 127 131 127 120 112 106 102 95 92 90 88 86 86 87 86 89 91 89 84 81 81 81 81 81 81 83 82 79 77 79 79 79 81 84 87 89 90 92 94 93 91 92 95 97 99 101 103 107 108 112 113 113 113 115 118 118 119 120 121 121 119 119 124 125 124 124 128 131 131 130 130 129 127 125 124 127 131 133 132 130 132 134 136 135 136 136 132 126 121 121 126 127 129 128 127 124 119 116 117 120 122 124 124 123 120 118 118 118 117 115 115 113 112 113 114 114 114 112 113 114 115 114 112 112 114 117 118 118 116 116 112 112 112 113 114 113 113 114 115 116 118 117 116 116 118 120 120 119 118 115 113 114 115 112 104 103 103 103 103 103 103 103 103 103 103 103 103 103 103 103 103 103 103 103 103 103 103 103 103 103 103 103 103 103 103 103 103 103 103 103 102 101 101 99 99 98 97 96 93 92 91 90 90 89 89 89 89 90 90 90 90 90 90 90 90 90 90 91 91 93 93 92 91 92 93 93 94 96 97 100 103 104 104 104 101 99 96 96 96 96 95 91 87 87 87 88 88 88 89 87 82 80 80 79 78 78 79 81 83 85 86 85 84 85 85 87 89 90 92 92 94 94 94 93 92 89 86 83 82 80 80 81 83 83 81 76 73 70 70 70 69 69 67 67 66 65 62 59 56 54 51 48 45 42 38 37 39 44 49 50 48 47 48 50 55 58 61 61 59 55 53 50 47 45 43 36 29 24 22 22 22 22 24 29 37 44 48 50 51 51 50 50 51 53 54 54 52 50 50 50 50 50 50 51 51 53 54 55 56 58 60 60 57 56 54 51 47 45 45 45 45 45 45 45 43 42 42 44 47 50 49 49 50 50 52 54 57 58 59 59 59 63 69 76 82 83 84 84 85 89 89 88 89 88 88 89 86 84 81 79 77 75 74 72 72 71 70 70 70 70 69 69 69 68 68 71 76 80 83
142 141 136 135 136 137 139 141 143 144 141 139 137 138 139 137 136 136 136 134 134 134 134 134 134 134 134 134 134 134 134 138 144 145 144 147 145 146 149 151 150 146 145 145 148 151 152 148 148 152 156 158 159 161 161 157 156 156 156 155 157 159 161 162 164 166 167 166 164 162 160 162 163 163 165 163 160 159 158 158 157 155 154 155 155 154 151 150 153 154 152 154 155 156 156 156 157 159 159 161 162 162 162 160 159 158 159 159 159 161 158 154 153 150 149 149 147 147 146 146 146 144 142 143 145 145 144 145 148 149 149 149 151 156 159 161 161 163 163 162 162 162 162 158 155 152 153 152 152 150 148 147 143 142 142 140 138 135 134 131 131 132 130 127 123 123 126 126 123 119 119 119 117 117 116 115 114 113 113 113 113 113 112 114 116 115 110 107 108 110 114 118 120 124 124 127 129 129 129 131 133 133 135 136 137 134 133 134 137 140 141 142 144 143 142 141 142 142 140 140 140 136 137 134 133 132 131 130 127 124 123 123 124 125 126 124 126 127 126 127 126 124 125 126 129 132 133 131 130 128 127 125 124 123 124 123 121 119 119 116 116 118 117 117 118 118 118 118 119 116 113 112 113 115 117 116 116 116 115 116 117 117 118 116 115 117 119 118 115 114 117 117 117 118 118 122 127 129 125 124 127 127 129 134 135 132 132 133 132 129 129 128 126 125 124 124 125 126 127 130 132 133 130 127 128 128 128 128 125 126 127 130 135 137 139 141 143 144 146 150 153 156 158 157 154 150 145 146 146 143 141 140 137 136 138 139 135 130 129 130 131 128 123 124 127 128 129 130 130 129 130 130 131 132 132 134 136 139 139 138 141 143 146 149 150 151 154 159 160 158 158 155 151 148 147 150 152 152 155 156 156 155 155 155 157 153 149 147 144 145 142 138 137 135 134 132 130 130 131 129 124 124 128 127 121 112 106 101 96 92 88 87 88 89 91 89 92 95 92 87 83 82 82 81 80 80 82 81 79 78 80 79 79 80 83 86 87 89 92 93 90 90 94 96 97 99 100 101 105 108 111 113 113 114 115 118 118 118 121 121 120 119 121 126 127 123 122 125 129 130 129 130 128 128 129 127 127 130 133 134 131 134 137 137 136 135 134 133 129 125 125 128 128 130 129 124 120 117 117 118 119 123 124 123 122 119 118 118 119 119 118 118 117 116 114 115 114 114 113 115 115 114 115 114 114 115 117 119 118 115 113 111 111 112 113 114 113 114 114 115 116 119 119 118 118 119 122 120 120 120 116 113 110 111 109 103 103 103 103 103 103 103 103 103 103 103 103 103 103 103 103 103 103 103 103 103 103 103 103 103 103 103 103 103 103 103 103 103 103 103 103 102 101 101 100 100 100 98 96 94 92 91 90 90 89 89 89 89 90 89 89 90 90 89 89 89 90 90 91 91 91 91 91 91 91 92 93 93 96 97 100 102 103 104 104 101 99 96 95 96 96 96 92 87 86 86 86 84 84 87 85 81 80 80 79 79 79 80 81 84 86 88 86 85 85 86 86 89 90 92 92 93 94 94 94 93 91 88 85 83 82 83 84 86 84 80 76 72 70 70 70 69 69 67 67 67 66 64 61 58 55 52 49 44 40 38 38 40 45 50 52 50 47 48 50 55 59 63 64 64 61 59 54 51 48 45 40 32 25 24 23 23 22 22 25 32 39 45 48 49 49 49 50 50 52 53 54 52 51 50 50 50 50 50 51 51 51 52 53 55 58 60 59 57 54 52 51 48 45 45 45 44 44 44 43 43 42 42 43 45 48 50 50 52 52 52 54 58 59 59 59 59 63 71 76 83 84 86 85 86 88 88 87 87 87 90 90 86 84 80 78 76 75 73 72 72 71 70 70 70 70 69 69 69 68 68 71 76 81 84
140 139 137 134 134 134 136 137 139 139 137 136 136 137 140 136 134 134 134 134 134 134 134 134 134 134 134 134 134 134 135 140 143 144 142 143 145 145 146 146 147 145 145 147 151 153 153 150 149 152 154 155 156 158 160 158 155 155 155 155 158 159 159 162 164 165 165 165 165 165 161 160 161 163 163 160 159 158 158 159 157 155 153 152 153 151 150 152 154 151 152 154 155 155 155 156 157 159 159 160 162 161 161 161 159 159 159 158 156 159 157 154 152 151 151 150 148 148 149 147 147 147 145 142 142 144 145 145 148 148 148 147 149 153 156 158 161 163 163 163 163 163 162 160 157 154 154 152 151 148 146 145 142 141 140 139 137 135 135 131 131 131 129 127 125 127 128 127 125 119 118 117 116 115 115 114 113 113 112 112 112 113 111 112 114 111 107 106 109 113 117 123 125 130 128 128 130 130 129 131 134 137 139 139 138 136 134 134 136 140 143 143 145 145 144 143 144 145 144 145 144 141 139 137 136 135 133 133 130 127 124 124 125 124 124 124 124 127 129 130 127 125 123 123 126 128 131 129 128 126 125 124 123 123 123 123 122 121 119 116 116 116 114 116 119 119 118 116 117 116 116 114 114 115 116 117 119 120 119 118 119 118 116 115 115 117 119 118 114 113 117 119 119 121 124 128 131 129 127 126 128 128 130 132 133 133 133 134 131 129 129 129 124 123 124 124 124 126 131 133 132 132 132 129 128 129 129 130 129 129 128 129 133 136 137 138 141 141 141 144 150 154 157 156 152 148 145 145 146 142 138 138 137 135 135 135 131 127 127 128 131 129 126 127 131 130 130 133 133 132 130 130 133 134 132 134 136 138 138 138 141 145 148 152 151 150 152 156 159 159 159 156 153 149 147 148 151 154 155 157 160 159 157 156 157 154 149 148 147 147 144 139 138 136 134 131 130 130 130 128 123 120 124 124 120 112 107 101 95 92 89 87 89 93 95 94 96 97 94 89 84 82 80 81 81 81 79 79 79 82 82 79 80 80 82 85 85 86 90 92 90 90 93 96 99 99 100 102 106 109 111 114 114 114 116 116 117 117 117 118 118 119 122 126 127 122 121 122 126 128 127 129 127 128 129 131 130 130 134 137 138 140 141 137 133 131 130 130 133 132 130 127 127 128 127 123 119 117 120 121 123 127 126 125 126 123 120 119 120 120 120 120 120 119 118 119 118 118 116 115 117 116 117 118 119 117 117 119 117 113 110 110 112 112 111 112 112 111 111 114 116 118 117 117 118 119 121 120 119 117 113 111 108 107 108 103 103 103 103 103 103 103 103 103 103 103 103 103 103 103 103 103 103 103 103 103 103 103 103 103 103 103 103 103 103 103 103 103 103 103 103 102 101 101 100 100 100 99 98 96 94 92 91 90 89 89 89 89 90 89 89 90 90 89 89 89 90 90 91 91 91 91 91 91 91 91 92 94 97 97 98 99 101 102 103 101 97 94 93 95 96 95 91 87 85 84 83 82 82 85 84 81 81 81 80 78 78 80 82 85 87 88 88 88 87 87 87 88 90 92 92 93 94 94 94 94 92 90 87 85 85 85 85 85 83 78 75 72 71 71 71 70 69 66 66 65 65 64 61 58 55 52 49 43 40 38 39 41 44 48 51 51 47 48 50 54 59 64 67 69 68 66 61 56 52 48 43 37 29 25 23 22 22 22 23 26 32 38 44 47 48 48 48 49 50 51 52 52 51 50 50 50 50 50 50 50 51 52 53 54 58 59 58 55 51 49 49 47 45 44 44 45 44 42 41 41 41 41 43 43 47 49 50 53 55 56 56 57 59 59 60 60 64 72 76 83 85 87 87 87 87 87 87 87 87 88 88 86 84 79 77 75 74 73 71 71 71 70 70 70 70 69 69 69 69 68 71 76 79 81
139 139 137 134 134 134 134 134 136 136 134 134 136 136 139 136 134 134 134 134 134 134 134 134 134 134 134 134 134 134 135 140 142 143 141 141 145 145 144 144 145 145 145 148 150 152 153 152 150 150 151 152 154 156 158 158 156 154 156 156 158 158 158 160 163 164 164 164 166 166 163 159 159 161 160 159 159 157 157 158 158 156 153 152 152 150 150 153 152 149 153 155 155 153 153 155 157 159 159 160 160 158 160 161 160 159 159 157 155 155 155 153 152 151 151 150 149 151 151 148 148 148 144 141 142 144 144 143 146 147 146 146 148 152 154 157 160 162 163 163 163 163 163 162 158 156 155 153 151 147 144 144 142 140 139 138 137 135 133 130 130 132 130 128 128 128 127 126 123 119 118 116 114 113 114 114 113 112 112 110 111 112 109 109 110 107 106 108 112 116 120 126 129 132 129 128 131 132 131 133 136 139 140 139 139 138 137 135 136 140 144 145 145 145 145 146 147 147 148 149 147 144 142 141 138 136 136 133 131 127 123 124 126 126 126 126 126 127 129 130 129 128 125 125 127 125 127 128 126 124 124 123 122 122 122 122 122 122 121 119 118 116 114 116 120 120 118 115 114 116 118 115 114 114 114 117 120 122 121 119 117 116 114 114 114 115 117 118 117 117 120 122 123 125 129 133 133 130 128 130 130 129 131 131 131 131 132 133 131 130 129 129 126 124 126 126 126 130 138 141 136 132 131 128 127 127 127 128 129 130 130 129 132 134 136 136 139 141 141 142 146 150 154 155 151 148 147 146 144 140 138 138 138 135 134 131 127 127 127 127 129 128 125 128 131 131 131 133 134 134 132 132 136 137 134 132 135 138 138 139 141 144 149 152 151 150 150 153 157 158 156 154 153 151 147 146 149 154 156 157 161 163 160 158 157 155 151 150 148 149 146 141 139 137 134 132 132 131 129 128 123 119 121 122 118 112 107 101 94 91 89 88 91 94 96 97 99 98 94 89 84 81 79 79 81 81 79 80 81 84 82 80 79 79 82 85 86 86 89 92 92 91 93 96 98 99 100 103 105 107 110 114 115 116 117 115 116 115 115 117 118 120 124 126 127 124 122 122 125 125 124 126 126 127 128 131 132 132 136 140 141 142 141 136 133 131 130 128 132 134 132 128 128 127 127 126 123 122 122 124 128 129 125 125 128 125 121 121 120 120 118 118 119 117 118 118 118 119 116 115 117 116 116 116 119 119 117 116 114 112 111 112 114 113 111 113 114 111 111 114 115 116 116 118 119 119 118 118 119 117 113 112 109 106 105 103 103 103 103 103 103 103 103 103 103 103 103 103 103 103 103 103 103 103 103 103 103 103 103 103 103 103 103 103 103 103 103 103 103 103 103 103 102 102 101 101 100 99 99 97 96 95 93 92 90 90 90 90 91 90 92 93 93 92 91 90 90 90 90 91 91 91 91 91 91 91 92 95 97 97 97 97 98 100 101 99 96 94 93 94 95 93 90 86 85 82 82 81 81 83 82 81 82 82 80 78 78 80 82 85 87 88 89 89 88 88 87 88 89 91 91 93 94 94 95 95 92 90 88 86 86 86 86 85 81 78 76 73 72 71 71 70 69 68 66 65 64 63 61 59 56 52 49 43 40 39 40 42 44 46 49 50 49 48 49 53 58 64 70 74 73 72 67 62 56 52 47 41 35 28 23 22 22 22 23 23 26 30 37 42 46 47 48 48 49 50 51 51 51 50 50 50 50 50 50 50 51 53 54 54 57 58 57 54 50 47 46 46 44 43 44 45 44 41 40 39 40 41 43 44 46 48 49 53 55 58 59 59 59 59 60 61 66 72 76 84 85 88 88 88 87 87 87 87 87 87 87 85 84 79 76 75 73 73 71 71 70 70 70 70 70 69 69 69 69 69 73 77 78 78
138 137 137 135 134 134 134 134 136 135 134 134 135 135 137 135 134 134 134 134 134 134 134 134 134 134 134 134 134 134 135 139 141 143 142 143 146 145 144 142 143 145 145 146 148 149 150 151 150 150 150 150 152 155 156 157 156 153 156 157 158 157 156 158 160 162 162 162 164 165 164 159 158 158 157 158 158 157 157 158 158 157 154 154 152 151 151 152 151 149 152 154 153 151 152 155 157 158 159 161 162 159 160 161 162 159 158 158 155 154 154 152 152 153 152 150 150 150 150 148 147 145 143 141 141 141 141 141 146 146 146 147 150 154 156 157 159 161 161 162 163 163 163 162 159 157 155 155 153 150 145 144 143 140 139 139 136 134 131 129 129 131 130 130 128 126 124 123 121 119 119 116 113 113 113 114 114 114 113 111 111 111 108 105 104 104 106 110 115 119 124 128 129 130 129 130 134 136 135 136 138 139 140 139 140 140 137 135 137 140 145 147 146 146 148 150 151 151 152 153 150 146 144 145 142 138 136 132 129 125 123 125 128 128 128 130 128 127 128 129 128 127 127 128 126 124 125 128 125 124 124 122 121 122 121 121 121 121 123 123 121 119 117 117 117 118 118 117 114 116 118 115 113 114 114 116 120 121 121 119 116 114 113 113 114 114 116 119 122 121 122 124 126 128 132 135 135 131 129 131 131 130 131 131 131 131 131 130 130 130 130 129 128 127 127 129 131 136 145 149 142 135 130 127 127 127 128 129 128 128 129 129 131 132 134 134 135 139 143 142 142 145 150 153 150 148 148 145 141 139 137 137 138 136 134 130 128 128 129 127 128 128 124 126 130 131 131 131 133 134 133 133 136 137 135 130 133 136 137 139 141 143 148 151 152 152 152 153 155 154 152 151 150 148 146 146 149 155 159 159 162 162 162 160 159 157 155 153 150 149 149 144 141 140 138 134 133 132 129 126 123 118 118 118 114 109 105 99 94 91 90 90 93 96 96 98 100 99 96 91 86 83 78 78 81 81 79 81 83 85 82 80 79 81 83 85 86 87 88 90 92 92 95 96 97 97 100 102 104 105 106 112 116 117 117 115 114 114 116 117 119 122 124 124 126 126 124 124 125 123 123 125 126 129 128 129 130 132 136 139 139 139 139 134 134 134 130 127 129 134 134 132 130 129 128 128 126 124 123 125 130 130 126 126 128 126 124 124 121 122 120 118 117 117 116 116 116 116 114 114 115 115 115 115 118 121 118 114 114 114 113 114 114 112 111 113 115 112 112 113 113 114 117 120 119 117 115 115 117 116 113 111 109 105 103 103 103 103 103 103 103 103 103 103 103 103 103 103 103 103 103 103 103 103 103 103 103 103 103 103 103 103 103 103 103 103 103 103 103 103 103 103 102 102 101 101 101 100 99 99 98 97 96 94 92 90 90 92 94 95 96 97 96 96 94 91 89 89 90 90 90 91 91 91 91 91 93 95 97 97 96 96 96 98 98 97 95 93 93 93 93 92 89 86 84 82 82 81 81 81 81 81 82 82 80 79 79 80 82 84 87 88 90 90 90 89 88 88 89 91 91 92 93 93 95 95 93 91 90 88 87 87 87 86 83 81 78 76 74 72 72 71 70 70 68 67 66 64 61 59 56 53 50 45 41 41 42 43 44 45 48 50 51 50 51 53 57 63 71 77 77 76 72 67 60 55 51 45 40 33 26 23 22 22 22 22 23 25 29 36 42 45 47 47 48 49 49 50 50 50 50 50 50 50 50 50 51 53 54 55 57 57 55 54 50 47 45 44 43 42 43 44 44 41 39 38 39 41 45 46 46 47 48 51 53 57 60 62 60 60 60 63 68 72 77 84 85 89 89 88 87 87 87 87 87 88 88 87 84 81 77 75 73 73 71 71 70 69 69 69 69 69 68 68 68 68 74 78 79 78
136 135 136 135 134 133 133 136 138 136 136 137 136 134 134 134 134 134 134 134 134 134 134 134 134 134 134 134 134 134 134 138 141 143 144 146 148 147 146 143 142 145 146 146 147 147 146 148 149 149 151 150 150 153 155 156 155 153 155 158 158 155 156 159 158 159 159 159 161 163 163 160 158 157 156 156 157 158 158 158 157 157 155 155 152 150 150 151 151 150 150 151 151 148 150 153 155 158 159 162 162 160 159 160 161 159 158 159 157 156 154 152 152 153 152 150 149 149 148 146 145 144 145 143 140 138 137 141 147 147 147 150 154 158 158 157 157 157 158 159 162 162 162 160 158 157 157 156 155 152 147 145 144 141 140 138 134 130 130 130 131 131 129 128 127 123 123 121 120 119 118 117 113 113 111 112 114 115 116 115 113 109 106 102 100 101 104 110 116 122 127 127 127 127 129 132 137 139 138 138 138 140 140 140 140 140 136 136 138 140 145 147 146 148 151 154 155 155 155 155 153 149 147 148 145 141 136 131 128 126 124 127 130 130 130 130 129 127 127 127 127 127 127 127 124 122 124 128 125 124 124 122 121 121 121 122 122 123 123 124 124 122 120 117 115 115 117 118 117 117 116 115 114 113 113 115 117 118 119 119 116 116 114 114 116 116 118 120 125 126 125 126 128 130 132 135 134 132 132 133 133 133 133 132 131 131 130 129 129 130 130 129 129 129 128 130 133 138 146 150 143 135 129 125 126 127 130 132 129 127 128 131 133 132 132 134 135 137 141 140 139 141 146 150 147 146 146 143 140 139 137 137 138 137 134 131 129 129 130 128 127 127 124 125 128 131 131 130 130 132 133 134 134 135 132 129 131 136 137 139 140 141 145 148 149 152 154 153 152 150 149 148 145 144 147 148 151 157 160 161 162 161 162 162 162 160 158 155 151 150 150 146 144 145 144 138 135 132 128 126 121 118 117 115 110 106 102 98 93 91 92 93 96 99 97 97 100 101 97 92 87 83 78 78 80 81 80 79 83 85 83 80 81 84 85 86 87 88 89 88 90 91 94 96 96 96 100 102 104 105 105 111 116 116 116 114 114 116 118 118 120 123 125 124 123 126 126 125 125 123 122 125 127 130 129 128 128 131 135 138 137 135 136 134 134 133 130 128 131 135 137 135 131 129 128 126 124 123 123 125 130 130 128 127 128 126 126 126 124 124 123 120 118 118 116 115 115 115 116 116 115 115 115 115 119 122 120 116 117 116 115 114 112 110 112 113 114 111 110 112 112 114 117 119 118 115 113 114 116 114 110 109 109 104 103 103 103 103 103 103 103 103 103 103 103 103 103 103 103 103 103 103 103 103 103 103 103 103 103 103 103 103 103 103 103 103 103 103 103 103 103 103 102 102 101 101 101 100 100 99 98 97 97 96 93 91 92 93 95 98 98 98 98 98 96 92 89 89 89 90 90 91 91 91 91 91 92 94 96 96 96 96 96 96 96 95 93 93 92 92 92 92 89 85 84 82 82 81 81 81 81 81 82 82 80 79 79 80 82 84 86 87 89 90 90 90 90 89 89 91 91 92 93 93 95 95 93 92 91 89 88 87 87 87 85 84 82 80 77 75 74 73 72 71 70 69 68 66 63 60 57 55 53 47 43 43 44 45 45 46 48 50 52 53 54 55 57 63 72 78 79 78 75 70 64 58 54 49 45 39 33 28 25 22 22 22 22 23 24 29 36 42 45 46 48 48 49 49 49 50 50 50 51 51 51 51 52 53 54 56 56 57 55 53 52 48 45 44 42 42 42 42 42 40 39 38 39 41 45 46 47 47 47 49 52 55 59 63 64 62 62 66 71 73 79 84 86 89 89 89 88 87 87 87 87 88 88 88 86 83 79 76 73 73 71 71 70 69 69 69 69 68 68 68 68 68 72 78 80 80
134 134 134 133 133 132 132 136 138 138 139 139 136 133 133 134 134 134 134 134 134 134 134 134 134 134 134 134 134 134 134 136 140 142 146 147 147 147 148 146 144 146 146 147 149 148 145 146 149 149 151 150 149 152 154 156 155 154 155 158 157 152 156 159 156 156 157 157 158 160 160 160 157 156 155 155 156 157 157 158 157 155 155 155 153 150 150 149 150 150 149 148 148 147 150 152 154 157 159 161 160 159 158 157 158 157 158 159 159 157 154 152 152 153 151 150 148 147 146 145 145 145 146 143 140 136 134 137 146 150 149 151 155 159 157 155 154 155 157 157 160 161 162 159 158 158 158 157 155 153 147 145 144 141 139 136 133 130 131 132 133 132 129 127 126 124 124 123 120 118 117 116 113 111 110 112 115 116 118 120 115 110 106 103 99 99 102 109 116 124 130 127 127 127 130 133 136 138 138 137 137 138 139 139 139 139 139 141 143 143 145 147 148 149 151 154 155 156 156 155 154 152 150 149 147 144 138 134 131 130 128 130 132 132 133 132 131 131 128 128 129 128 128 126 124 123 123 125 125 124 124 122 121 121 122 124 124 125 124 126 127 122 119 117 116 115 115 118 119 116 115 115 115 112 112 114 116 116 118 118 118 119 117 116 119 119 120 122 127 130 129 129 129 130 132 134 135 135 136 136 136 137 134 131 131 130 130 130 131 131 130 129 128 127 128 130 132 136 143 145 138 132 126 124 126 129 129 132 132 130 132 135 136 133 132 136 138 137 137 137 137 139 143 146 143 143 143 142 139 137 138 137 138 137 133 130 127 127 129 129 127 127 126 126 127 131 131 130 131 131 132 133 132 131 132 131 133 134 135 136 138 138 141 144 146 149 152 152 149 147 147 147 145 144 146 149 152 155 159 160 162 160 161 164 165 163 159 155 151 150 150 148 146 146 146 140 134 130 128 126 121 118 116 113 109 106 102 98 93 90 91 93 96 101 99 97 100 101 97 91 86 82 79 79 80 80 78 79 82 85 85 83 84 86 88 89 90 92 90 87 89 89 90 93 94 96 100 102 104 107 107 110 115 115 113 112 113 117 120 121 122 125 127 127 124 125 127 126 125 121 120 122 125 129 129 129 130 133 136 138 137 134 133 133 133 132 132 132 134 135 136 135 132 129 128 125 124 125 126 127 131 132 129 126 126 126 126 125 124 124 124 121 119 118 116 116 116 115 117 119 117 116 115 117 120 121 120 117 118 118 116 114 110 108 109 111 112 109 109 112 114 114 114 114 114 113 112 113 114 113 109 108 108 103 103 103 103 103 103 103 103 103 103 103 103 103 103 103 103 103 103 103 103 103 103 103 103 103 103 103 103 103 103 103 103 103 103 103 103 103 103 103 102 102 101 101 101 100 99 99 97 96 95 94 92 91 92 92 94 96 97 97 98 98 96 92 89 89 89 90 90 90 90 90 90 90 91 92 95 96 96 95 95 94 94 94 93 92 92 92 92 91 88 86 85 82 82 81 81 81 81 81 81 81 80 79 79 80 81 83 86 87 89 90 91 92 91 91 90 91 91 91 92 93 94 94 94 93 92 90 88 87 87 87 85 85 85 84 82 80 78 76 75 73 71 70 69 68 66 62 59 58 56 51 46 45 46 47 47 48 49 51 53 55 59 60 60 64 70 76 76 76 74 71 67 62 58 55 51 46 43 38 33 26 22 22 22 22 23 24 28 35 41 45 47 47 48 49 49 50 50 50 51 53 53 52 52 53 54 55 55 57 57 52 51 48 45 44 42 42 41 41 41 40 39 38 39 41 43 44 45 47 47 49 51 53 57 62 65 64 65 69 74 75 80 85 87 89 90 91 89 87 87 87 87 89 89 88 87 85 81 78 75 73 72 71 70 71 70 69 69 68 68 68 68 68 70 76 79 82
134 134 133 133 133 132 132 136 140 140 139 138 136 134 133 133 133 134 134 134 134 134 134 134 134 134 134 134 134 134 134 136 140 145 147 145 144 145 147 147 146 146 146 150 151 148 147 148 149 149 149 150 150 152 153 154 155 155 153 155 154 150 153 156 154 154 157 158 159 160 160 160 158 156 155 154 156 156 155 157 157 154 156 156 154 151 150 148 149 151 148 148 147 148 151 152 154 156 157 158 158 157 157 157 158 157 156 157 158 157 154 153 153 153 151 149 147 145 143 144 145 144 146 145 141 136 134 134 146 151 147 149 153 157 156 154 154 156 158 158 160 161 161 159 159 158 159 157 155 153 149 145 144 141 139 137 135 132 132 131 130 129 128 125 124 125 125 123 120 120 118 116 112 111 111 113 113 113 116 120 117 114 110 107 102 100 102 109 116 124 130 126 125 127 130 132 134 135 136 135 136 137 137 139 139 139 142 145 147 146 144 145 147 149 150 152 153 154 154 153 153 153 152 151 150 147 144 140 137 135 133 134 135 136 137 135 135 136 132 132 132 130 130 129 128 126 123 122 124 123 122 122 121 121 124 126 127 128 127 128 126 122 119 117 117 115 115 116 117 114 114 116 117 115 113 115 117 117 118 118 119 122 122 120 121 121 122 124 128 132 134 133 132 130 131 134 136 138 138 137 139 139 135 132 132 131 130 132 133 132 130 130 129 128 128 132 134 134 137 138 133 128 125 124 127 129 128 131 133 133 136 140 138 134 133 139 142 137 135 135 135 137 139 140 139 141 142 139 136 136 137 135 135 134 132 130 128 128 129 129 128 128 128 127 127 130 131 132 134 132 132 132 133 135 139 139 136 134 134 134 136 137 138 140 142 144 148 150 147 144 146 146 146 146 147 150 153 155 157 160 161 160 161 163 165 164 161 157 153 150 150 148 148 145 143 137 132 128 128 126 122 118 115 112 111 108 104 100 95 92 92 94 98 102 101 99 102 103 100 92 86 82 79 79 79 78 77 79 82 86 88 87 88 89 90 90 91 94 91 88 90 89 89 90 93 97 99 100 103 108 110 110 111 112 111 112 114 117 121 125 125 127 128 129 126 125 128 128 125 121 121 121 123 127 129 131 134 137 138 138 136 134 133 132 132 132 134 136 136 135 134 133 132 128 128 127 127 128 130 130 131 131 128 126 126 128 127 125 125 125 126 122 120 118 118 117 116 114 117 119 118 118 117 120 120 119 117 114 116 117 117 113 111 108 108 110 110 109 110 112 115 113 111 111 111 112 111 112 113 113 110 109 108 103 103 103 103 103 103 103 103 103 103 103 103 103 103 103 103 103 103 103 103 103 103 103 103 103 103 103 103 103 103 103 103 103 103 103 103 103 103 103 103 103 101 101 100 99 98 97 95 94 93 92 91 91 91 91 91 92 94 95 96 98 95 91 89 89 89 90 90 90 90 90 90 90 90 91 94 95 94 94 94 94 94 93 93 92 92 92 92 89 86 85 84 82 81 81 81 81 81 81 81 81 80 80 80 80 81 83 85 87 89 90 92 92 92 92 91 91 91 91 92 92 94 94 94 94 93 91 89 87 87 87 86 86 86 86 85 84 83 81 79 76 73 71 70 69 67 64 61 60 59 54 49 48 47 48 49 50 51 53 55 58 63 64 63 65 68 71 70 70 70 69 68 66 64 61 57 53 50 46 41 32 25 23 22 21 22 23 24 27 34 40 45 46 46 48 48 50 50 51 53 55 55 54 53 53 54 55 55 57 57 51 48 46 45 43 41 41 41 40 40 39 39 38 38 40 43 43 45 47 47 48 49 52 55 59 63 64 67 71 75 76 81 86 87 91 92 93 90 88 87 87 88 89 89 89 89 87 84 81 78 75 74 73 72 73 72 71 69 68 67 67 68 68 69 73 77 82
134 134 133 133 133 133 133 137 142 142 141 138 135 135 133 133 133 134 134 134 134 134 134 134 134 134 134 134 134 134 134 136 140 146 146 144 143 144 145 146 147 146 147 150 150 146 146 148 148 147 147 149 151 153 153 153 154 154 151 151 149 147 150 152 151 152 157 158 159 160 160 160 158 156 154 153 155 156 155 155 155 154 155 156 154 151 150 149 151 152 150 149 148 149 151 152 155 155 154 154 155 155 155 158 160 159 156 156 155 154 152 152 152 151 150 149 145 144 142 142 142 142 145 145 144 137 134 134 145 150 147 148 151 156 158 157 157 158 159 160 160 160 160 159 159 159 159 157 155 153 150 146 144 143 142 140 138 135 133 130 126 125 125 123 123 124 123 122 121 122 120 116 113 112 112 112 111 109 112 116 114 116 117 111 105 103 104 111 118 122 124 123 123 127 130 130 131 133 134 134 135 135 136 139 139 139 143 146 148 148 145 144 147 150 150 152 152 153 153 152 153 153 153 152 152 150 149 145 142 139 137 138 138 139 139 138 138 137 136 136 134 132 133 133 131 129 125 122 123 122 122 121 121 123 126 128 129 130 129 127 124 121 120 118 116 115 116 115 115 115 115 116 117 117 115 115 117 117 118 118 121 125 127 125 123 124 126 127 130 133 137 137 135 133 133 135 137 138 137 137 139 140 138 136 135 133 132 133 133 133 131 131 132 131 129 131 133 132 132 131 127 125 127 127 129 129 129 132 133 134 137 139 136 133 135 140 142 137 134 135 137 137 136 135 136 140 140 138 134 135 136 133 132 131 131 132 129 129 131 131 130 128 127 127 125 128 131 134 135 133 132 134 137 143 150 149 142 135 133 134 135 137 137 138 140 143 145 148 147 145 146 146 144 145 148 151 155 156 158 160 161 161 161 162 163 163 163 160 155 152 151 150 151 147 141 135 131 129 128 126 122 118 112 109 110 109 106 102 98 96 96 97 100 104 104 103 105 106 103 94 85 81 79 79 79 78 77 77 81 85 88 89 91 91 89 88 89 92 89 88 90 90 89 89 94 98 101 101 102 106 110 110 110 110 111 114 117 118 123 128 128 127 127 128 126 125 126 127 125 123 124 124 124 127 128 132 136 138 140 139 135 133 133 133 132 134 136 136 136 135 133 132 132 130 129 128 128 130 132 131 130 128 128 128 128 130 129 126 128 128 129 126 122 120 120 119 116 115 117 118 118 117 118 119 119 116 115 113 113 115 115 114 113 112 110 109 109 110 112 114 113 110 109 111 112 111 110 111 112 112 110 108 106 103 103 103 103 103 103 103 103 103 103 103 103 103 103 103 103 103 103 103 103 103 103 103 103 103 103 103 103 103 103 103 103 103 103 103 103 103 103 103 103 103 101 100 100 98 97 96 94 93 92 92 91 91 91 91 90 90 91 91 93 95 94 90 89 89 89 90 90 89 89 89 89 90 90 91 93 94 94 94 94 94 94 94 94 95 92 92 92 88 85 84 83 81 81 81 81 81 81 81 81 81 80 80 80 81 81 82 85 86 89 90 92 93 94 93 92 92 91 91 92 92 94 94 94 94 93 91 89 87 87 86 85 85 85 85 86 86 86 84 83 80 75 72 70 70 67 65 62 61 60 56 52 50 49 49 50 51 54 56 57 60 64 65 65 65 66 67 67 66 66 67 68 69 69 67 63 58 54 50 45 37 31 28 24 21 21 22 23 23 26 32 41 44 44 46 49 50 50 51 53 55 56 55 54 54 54 55 55 56 56 52 47 44 43 42 41 41 41 40 40 39 39 38 38 41 44 44 46 48 47 47 48 51 54 57 62 65 69 71 75 77 81 86 87 92 95 95 92 88 88 88 88 89 90 91 91 89 87 84 81 78 76 75 75 74 74 72 69 68 67 67 68 68 68 70 76 81
134 134 134 135 134 133 133 139 144 144 142 140 135 135 134 133 133 134 134 134 134 134 134 134 134 134 134 134 134 134 134 136 139 145 145 144 144 144 144 146 147 148 149 150 148 146 146 148 147 147 146 147 150 152 152 153 154 153 150 148 147 147 148 149 150 151 156 157 157 158 160 159 156 155 154 153 153 155 156 155 154 154 155 155 154 152 152 150 150 151 150 150 149 149 150 153 155 154 153 153 153 153 153 156 158 159 158 156 154 152 152 152 151 151 149 148 147 146 144 140 140 141 142 145 145 137 134 134 138 146 147 148 150 155 159 161 161 159 159 161 160 160 160 158 158 158 158 157 156 154 151 149 146 146 146 145 141 138 134 129 127 126 125 124 124 122 122 123 124 124 120 115 113 113 112 110 108 108 108 112 110 114 118 113 106 105 105 111 117 120 120 122 125 129 131 130 130 132 134 135 135 135 135 138 138 137 141 145 147 147 147 146 148 151 152 154 154 155 155 155 154 155 153 153 153 153 151 147 146 143 141 140 139 139 140 139 139 139 139 137 136 135 136 135 134 131 129 125 125 123 122 121 121 123 128 129 130 130 129 125 123 121 121 120 118 117 118 117 117 117 117 117 116 116 113 115 116 115 116 118 122 126 128 128 125 127 130 131 133 133 136 138 136 136 136 138 139 138 138 139 140 143 143 140 138 135 134 132 132 133 132 132 135 135 131 129 129 128 128 126 123 123 128 130 131 131 133 135 134 132 134 135 133 133 136 138 138 134 133 135 137 138 137 134 134 136 136 138 135 134 133 132 131 130 131 132 128 128 131 131 130 127 125 126 125 127 130 133 134 133 133 135 140 147 156 155 146 138 133 132 135 136 138 138 140 144 144 146 147 147 147 145 143 146 149 154 157 159 161 162 163 163 163 162 161 162 163 162 157 155 154 153 153 148 142 136 132 130 127 124 121 117 110 107 107 109 109 104 99 99 99 99 101 105 107 104 104 104 101 92 84 80 79 81 81 80 77 76 79 82 86 88 89 89 87 84 85 87 86 86 88 88 89 90 95 98 101 102 102 103 107 109 110 111 114 117 120 122 126 130 130 126 125 125 124 124 125 125 125 124 127 127 128 130 129 133 136 137 140 140 134 131 133 134 134 136 137 137 136 135 133 133 133 132 131 128 128 129 130 130 129 127 129 130 130 132 130 127 128 130 130 128 123 122 123 122 118 117 119 119 119 117 117 117 117 115 115 114 112 113 114 115 115 116 113 110 110 113 115 114 113 110 109 111 112 111 110 110 111 109 107 105 103 103 103 103 103 103 103 103 103 103 103 103 103 103 103 103 103 103 103 103 103 103 103 103 103 103 103 103 103 103 103 103 103 103 103 103 103 103 103 103 103 103 101 100 99 97 96 95 94 93 92 92 91 91 91 91 90 90 90 90 90 92 92 90 90 91 91 92 91 89 89 89 89 90 91 91 92 93 94 94 94 94 94 94 95 96 92 91 92 88 86 85 83 81 81 81 81 81 81 81 81 81 80 80 80 81 81 82 85 86 89 90 92 93 94 94 93 92 92 92 92 92 93 93 94 94 94 92 90 88 88 86 85 85 85 85 86 86 86 85 84 81 77 73 71 70 67 65 63 61 61 58 54 52 50 50 51 51 55 57 58 61 64 65 65 66 66 66 66 65 63 63 65 67 68 68 67 62 56 51 47 43 39 38 32 25 21 21 22 22 23 25 32 38 40 44 50 51 50 51 52 55 56 56 55 55 55 55 55 56 55 52 46 44 42 42 41 41 41 40 40 39 39 38 38 42 47 47 48 49 48 47 47 49 53 58 63 67 70 72 75 78 81 86 88 93 95 95 92 90 88 88 89 90 91 92 92 90 88 85 83 80 79 77 76 74 74 71 69 68 68 68 68 68 68 69 75 80
134 134 134 136 134 134 134 141 145 146 144 141 136 134 134 134 134 134 134 134 134 134 134 134 134 134 134 134 134 134 135 136 138 142 143 143 144 144 144 146 147 148 148 150 149 149 148 149 148 148 146 145 148 150 150 151 152 152 149 147 147 147 147 148 149 149 154 155 154 155 159 159 155 155 156 155 153 153 155 155 155 156 156 156 152 152 151 149 148 148 149 150 150 150 151 152 152 152 154 154 153 153 151 152 154 157 158 157 153 152 152 151 150 151 149 146 146 146 144 139 139 141 143 146 143 136 134 134 134 143 147 148 150 153 157 161 162 160 159 159 161 161 161 158 158 158 158 158 158 155 152 151 148 149 151 149 143 138 135 129 128 128 126 125 124 121 121 124 126 124 119 114 113 113 112 108 107 108 108 109 108 110 114 112 105 103 105 110 116 118 121 126 128 132 131 128 128 131 132 134 135 136 138 138 136 135 138 141 144 146 149 149 150 152 155 157 157 156 156 157 156 156 154 153 153 153 151 149 149 148 144 141 139 140 140 140 140 141 141 139 138 137 138 137 136 135 131 129 127 125 123 122 123 125 128 129 130 129 127 124 122 121 121 120 119 119 120 120 119 119 120 119 117 114 114 115 116 114 114 117 121 124 126 127 126 128 132 134 135 134 135 136 138 140 140 140 141 141 142 144 144 148 148 143 141 138 136 134 132 132 132 132 136 137 132 128 126 126 125 124 123 124 128 132 134 133 136 136 134 131 130 132 132 133 136 136 133 130 131 133 136 139 139 134 132 134 135 138 136 134 133 133 132 131 131 130 126 125 128 129 129 126 124 127 126 128 131 133 134 133 134 134 137 144 152 152 145 140 136 134 136 138 139 138 140 144 144 146 147 146 144 142 142 148 153 157 160 163 165 164 164 167 167 165 162 162 163 163 160 157 155 154 153 147 141 135 132 128 125 121 118 115 111 108 107 110 110 106 101 100 100 101 102 105 107 103 101 100 98 90 83 81 81 82 82 81 78 76 78 81 84 87 88 87 84 82 82 84 85 86 87 88 90 91 94 98 100 101 101 102 104 108 111 114 117 119 122 126 129 130 130 127 125 124 123 124 125 125 125 126 129 130 131 132 132 133 133 134 139 139 135 131 132 136 138 140 139 138 138 137 136 136 135 135 133 130 128 127 127 129 129 128 128 129 129 131 130 127 126 127 129 126 124 125 126 126 121 119 120 120 120 118 117 118 117 116 116 115 111 112 113 114 115 116 115 113 115 117 115 115 115 114 111 109 111 111 109 108 107 104 103 102 102 103 103 103 103 103 103 103 103 103 103 103 103 103 103 103 103 103 103 103 103 103 103 103 103 103 103 103 103 103 103 103 103 103 103 103 103 103 103 103 103 103 101 99 98 97 96 96 96 95 93 92 92 92 91 91 90 90 90 90 90 91 91 90 91 93 94 93 92 90 89 89 89 90 90 90 91 92 93 94 94 94 94 95 95 94 92 91 92 89 88 88 85 82 81 80 80 80 81 81 81 81 80 80 80 80 80 82 85 86 89 90 92 93 94 95 94 93 93 93 93 93 93 93 94 94 94 92 91 89 88 87 85 85 84 84 85 86 86 85 84 82 78 74 71 69 66 65 64 62 61 58 56 54 52 51 51 51 55 57 58 59 61 63 64 66 66 66 65 65 61 61 61 62 64 64 64 62 57 52 49 47 46 45 40 33 25 21 21 22 23 23 25 30 33 41 51 54 50 50 51 53 56 55 55 55 54 54 54 55 54 51 46 44 42 42 42 42 41 40 39 39 39 41 39 41 46 48 50 49 48 47 47 49 53 60 65 68 71 73 76 79 82 86 88 93 95 95 92 91 90 89 90 91 92 93 93 92 89 87 86 84 81 78 76 75 74 71 69 68 68 68 68 68 68 69 73 78
134 134 134 135 133 133 135 142 146 148 147 143 137 133 132 134 134 134 134 134 134 134 134 134 134 134 134 134 134 134 137 138 138 140 142 143 144 144 144 146 146 147 147 150 150 152 149 148 149 150 148 147 146 147 147 147 149 151 149 147 146 147 146 146 147 147 151 152 152 152 156 158 156 156 158 156 153 152 153 154 156 158 159 156 151 150 150 147 145 145 147 150 151 152 152 152 151 152 154 155 154 151 151 152 153 154 157 155 153 151 150 149 149 149 148 146 144 144 141 139 139 142 144 145 144 137 134 134 138 146 148 150 152 151 154 157 160 158 158 158 161 163 162 160 159 159 158 158 158 155 152 152 149 149 151 148 142 138 133 129 128 128 126 125 124 122 123 125 126 123 119 116 114 113 112 108 106 107 106 106 107 108 109 109 104 102 106 112 116 117 122 128 129 131 129 128 128 130 132 133 134 136 139 138 136 135 137 139 142 145 148 151 151 154 156 158 158 157 157 157 156 157 156 154 154 155 153 151 152 151 147 143 141 142 142 142 141 143 143 141 140 140 140 139 139 139 133 130 129 127 126 125 126 127 128 129 129 129 127 124 122 120 120 120 120 120 121 120 117 118 119 120 118 116 116 116 114 112 112 115 119 122 124 125 127 129 134 135 135 135 136 137 140 144 143 142 144 145 147 149 149 152 149 145 143 142 138 136 134 133 132 132 136 136 132 129 127 127 124 125 126 126 130 133 135 132 134 135 135 131 129 130 131 132 134 133 131 131 131 133 137 140 140 135 132 133 135 136 135 133 131 133 133 131 130 126 125 123 123 125 127 127 126 129 129 130 132 133 133 133 133 132 133 136 141 143 139 141 142 139 140 140 139 139 140 143 144 145 145 143 142 142 143 149 155 157 159 163 165 164 164 168 169 167 164 164 165 165 163 159 156 155 153 146 140 134 130 126 122 118 116 114 111 109 109 109 109 105 103 101 101 101 102 103 104 101 98 96 95 88 83 83 84 84 83 81 80 78 80 82 84 86 87 84 81 80 81 82 84 86 88 89 90 91 94 98 101 102 102 102 104 108 111 114 118 121 124 127 129 128 128 127 126 126 124 124 124 124 126 128 132 132 132 132 132 132 129 131 136 137 135 132 134 138 141 143 142 141 142 141 140 139 138 138 136 132 130 127 127 128 130 130 129 128 127 129 128 127 125 125 126 125 124 127 129 127 123 120 122 122 120 119 119 121 119 117 117 116 112 112 112 114 114 115 116 117 119 119 117 116 117 116 113 108 108 108 108 106 104 102 101 102 102 103 103 103 103 103 103 103 103 103 103 103 103 103 103 103 103 103 103 103 103 103 103 103 103 103 103 103 103 103 103 103 103 103 103 103 103 103 103 103 103 103 101 99 98 97 97 98 98 97 93 93 92 92 91 91 90 90 90 90 90 90 90 90 90 93 94 92 91 90 89 90 90 90 90 90 91 92 93 94 94 94 95 96 97 95 92 91 91 90 90 90 87 82 81 80 80 80 82 82 82 82 80 80 80 80 80 82 85 86 88 89 92 93 94 96 96 94 94 94 93 93 93 93 94 94 94 93 92 90 88 87 85 84 83 83 84 85 85 85 85 82 80 75 72 69 66 66 64 62 61 59 57 55 54 52 52 53 55 56 58 59 59 60 62 64 64 65 65 64 62 60 59 56 57 58 58 57 55 51 49 48 47 46 45 41 33 25 22 21 23 23 24 25 27 35 48 55 52 49 49 51 54 54 54 55 53 52 52 52 52 49 46 44 43 42 42 42 41 40 38 37 40 44 41 38 43 48 50 49 47 47 47 48 53 59 65 68 71 73 75 79 83 87 89 93 94 94 93 92 91 90 90 92 93 94 94 93 91 89 89 87 83 80 77 76 75 73 70 68 67 67 69 69 69 69 72 75
134 134 133 133 133 133 135 140 146 149 147 144 139 134 132 134 134 134 134 134 134 134 134 134 134 134 134 134 134 135 138 139 139 140 142 142 144 144 144 146 146 147 147 150 151 152 151 148 149 150 152 149 146 143 143 144 146 149 148 146 146 146 144 144 145 147 149 151 151 151 153 155 154 155 157 156 154 152 151 151 154 159 160 156 151 149 148 146 146 145 147 150 151 152 152 152 152 152 152 155 154 149 151 155 155 153 154 153 152 150 147 147 148 147 146 146 143 142 139 139 139 141 144 145 145 138 134 134 141 148 147 149 152 151 152 153 156 157 157 157 161 163 162 160 160 161 159 157 156 155 153 151 149 149 148 144 140 136 132 130 129 128 125 124 123 123 126 127 127 124 121 119 115 113 112 108 106 108 106 105 106 106 104 105 104 104 107 112 114 117 121 125 126 126 127 127 130 133 134 134 134 135 137 137 138 137 138 140 143 144 146 150 151 155 157 158 158 158 158 158 157 158 158 155 155 156 154 154 153 152 149 146 143 143 143 142 142 144 145 144 142 142 143 142 142 142 137 133 131 129 128 128 128 129 130 130 130 129 127 126 123 121 120 120 120 120 120 118 114 115 117 117 119 120 119 116 113 112 113 114 117 120 123 126 130 133 135 135 136 137 138 140 143 146 146 145 146 146 148 151 153 152 147 146 145 144 142 139 137 137 134 135 135 134 132 130 127 127 125 126 126 127 131 132 133 130 131 131 133 131 129 129 130 130 132 133 134 134 132 134 138 141 141 138 134 134 135 132 132 130 129 132 132 129 126 123 123 122 121 122 125 127 127 129 129 131 132 133 133 133 133 131 131 131 133 134 133 138 145 143 142 141 139 139 140 140 142 143 143 143 144 145 146 151 156 157 157 160 162 164 165 167 167 167 167 167 167 168 166 162 157 154 152 146 141 135 130 127 122 119 117 115 110 107 107 107 106 103 104 104 102 101 101 102 101 98 95 93 91 85 81 83 84 84 83 81 82 82 83 84 85 85 84 81 79 79 80 83 85 87 89 89 90 91 95 98 101 103 104 103 106 110 113 113 117 121 124 126 126 126 127 129 129 128 125 125 124 125 128 131 135 135 133 132 132 129 128 130 134 134 135 135 137 140 144 145 144 144 144 143 141 140 138 138 135 132 130 128 128 129 131 131 132 129 127 126 126 127 126 126 124 124 124 127 128 127 123 122 124 124 121 120 122 122 120 119 119 118 116 114 114 115 115 116 117 117 118 118 118 117 117 115 112 109 106 105 105 104 103 103 103 102 102 104 104 103 103 103 103 103 103 103 103 103 103 103 103 103 103 103 103 103 103 103 103 103 103 103 103 103 103 103 103 103 103 103 103 103 103 103 103 103 103 103 101 100 98 98 99 100 100 97 94 93 92 92 91 91 91 90 90 90 90 90 90 90 90 92 92 91 91 91 90 90 90 90 90 90 92 93 94 94 94 95 95 97 97 97 94 92 91 91 90 89 86 82 80 80 80 82 85 87 87 84 82 80 80 80 80 82 84 86 88 89 91 92 93 95 96 95 94 94 94 94 93 93 94 94 94 93 93 91 89 87 85 84 82 82 83 84 85 85 85 83 81 76 73 69 66 66 65 62 62 59 58 56 54 53 53 55 56 58 58 59 59 59 60 61 62 64 64 64 62 61 59 54 53 53 53 52 51 48 46 45 45 45 45 45 41 33 25 21 22 23 24 24 24 29 41 53 52 49 48 49 52 54 54 54 52 51 50 50 50 48 47 45 43 43 43 43 41 39 37 37 40 45 44 39 41 47 50 48 46 46 48 48 52 57 63 67 70 72 74 79 84 88 90 93 93 94 93 93 92 91 91 93 94 95 95 94 93 92 92 89 85 81 78 77 76 75 71 69 67 67 70 70 70 70 71 72
134 134 133 133 133 133 134 138 146 149 147 145 141 136 134 134 134 134 134 134 134 134 134 134 134 134 134 134 134 136 139 139 139 139 142 143 145 146 147 147 147 148 149 151 151 151 151 150 150 151 151 148 144 142 142 145 145 147 147 144 145 144 142 142 144 146 149 149 149 151 151 152 152 153 154 154 154 153 152 151 152 157 158 154 151 151 149 147 147 145 145 148 149 151 150 150 151 151 151 153 153 150 153 156 155 151 151 150 149 148 147 148 148 147 146 146 144 143 140 140 140 140 144 146 143 137 134 134 139 145 146 148 150 150 151 153 154 156 157 159 161 161 160 160 162 163 162 158 155 155 154 150 148 148 146 142 139 135 132 130 129 127 124 123 122 121 124 125 125 123 120 118 115 114 111 108 108 110 108 106 106 104 103 103 103 104 108 110 112 115 118 120 121 122 125 127 131 135 136 135 135 136 137 137 139 139 139 141 144 144 146 149 151 154 157 159 160 160 160 159 158 158 159 157 156 156 155 155 155 153 151 148 145 144 143 144 143 145 146 146 144 144 145 144 143 143 140 137 133 131 131 130 130 131 131 131 130 129 127 126 125 123 121 121 122 121 118 117 114 114 115 116 118 120 120 116 113 115 115 115 116 118 122 129 134 135 135 137 138 139 142 143 145 147 147 147 149 148 149 152 152 149 146 146 145 145 144 142 142 143 140 138 136 134 132 130 127 127 127 126 126 128 129 130 131 131 131 130 130 131 131 129 129 131 133 135 135 135 134 135 138 140 140 139 136 135 133 128 129 128 129 133 132 127 125 122 122 123 122 121 124 128 129 129 129 133 134 134 135 135 135 132 131 131 132 131 131 134 141 142 142 140 138 139 139 138 139 140 141 143 145 146 146 149 154 154 155 158 161 165 167 167 167 167 168 168 169 169 168 164 157 152 150 148 145 138 132 129 124 121 119 115 110 105 104 105 103 102 104 106 104 102 102 102 100 95 92 90 88 82 79 80 80 81 81 81 85 86 85 86 85 84 81 79 78 79 81 85 87 88 90 90 92 93 95 98 100 101 103 104 108 112 114 114 117 120 122 124 124 126 129 130 129 126 125 125 125 127 130 133 135 135 134 134 132 130 130 133 136 136 136 139 141 144 146 145 145 145 144 141 140 139 137 135 133 131 130 130 131 132 131 131 133 131 128 125 125 127 127 126 124 124 125 127 127 127 124 124 125 125 123 123 123 121 120 121 121 121 119 117 117 117 116 116 115 115 114 116 118 117 116 114 113 111 109 106 105 105 106 107 109 106 105 107 108 107 103 102 103 103 103 103 103 103 103 103 103 103 103 103 103 103 103 103 103 103 103 103 103 103 103 103 103 103 103 103 103 103 103 103 103 103 103 103 102 101 100 100 102 102 101 98 95 93 93 92 91 91 91 90 90 90 90 90 90 90 90 91 91 91 92 91 91 90 90 90 90 90 92 94 95 95 96 95 95 97 97 97 95 92 91 91 90 88 86 81 80 81 83 85 89 90 89 86 83 80 80 80 81 82 83 85 87 88 90 92 93 94 96 95 95 94 94 94 94 94 94 94 94 94 93 91 89 87 86 85 83 82 81 83 85 85 85 83 82 78 75 70 66 66 65 63 62 60 59 57 55 54 55 57 59 60 60 59 59 59 59 59 61 64 65 64 63 62 60 54 51 51 50 49 48 46 44 45 45 45 45 46 45 41 33 25 22 23 24 24 24 25 33 45 48 48 48 48 51 52 52 53 52 50 49 48 48 50 51 48 45 44 43 42 40 38 36 37 42 45 44 42 42 46 49 47 45 46 50 50 51 55 60 65 68 70 73 78 84 89 91 93 93 94 93 93 93 92 92 94 94 95 95 94 94 94 94 90 86 82 79 77 77 75 72 70 66 66 69 70 69 69 68 69
134 134 134 134 134 134 134 138 147 151 149 147 143 139 136 135 134 133 133 134 134 134 134 134 134 134 134 134 135 137 141 139 139 139 142 144 147 150 150 147 147 149 151 152 151 151 152 152 153 152 149 146 144 143 144 148 146 144 144 144 143 142 142 142 143 144 146 147 148 150 150 151 153 152 151 152 152 152 154 154 152 153 153 150 150 151 150 148 147 145 145 147 148 149 148 147 150 149 149 151 152 153 155 155 153 149 148 147 146 146 147 148 147 147 147 147 145 144 142 140 140 140 143 144 142 137 134 134 135 141 146 147 148 149 149 152 154 156 158 160 161 161 161 161 164 163 161 158 156 156 154 150 149 148 146 142 138 135 133 130 129 126 122 122 123 122 122 122 122 120 117 116 115 114 112 109 108 109 107 107 106 105 106 105 103 104 106 108 111 113 115 118 119 123 126 128 132 134 134 134 135 137 139 138 138 139 138 141 144 144 146 148 151 154 157 160 160 161 162 160 158 159 160 159 158 158 156 156 156 154 153 150 146 145 145 146 146 147 148 148 146 146 148 147 145 143 141 139 134 132 132 132 133 134 133 132 129 128 126 126 125 123 121 122 124 122 117 117 117 117 117 116 117 118 119 117 114 116 118 117 117 120 124 129 133 134 134 137 140 142 145 146 147 148 147 148 152 152 151 152 149 146 147 148 146 146 145 143 145 147 144 140 136 134 132 131 129 129 129 128 127 128 129 132 132 133 133 131 131 133 133 130 130 132 134 134 133 132 132 135 136 137 136 136 133 133 131 127 127 127 128 132 132 127 126 125 124 125 124 122 124 130 132 129 129 133 135 136 136 137 137 133 131 132 134 134 133 133 136 138 141 138 137 138 139 138 137 139 140 141 144 145 144 145 149 150 154 158 161 166 167 165 166 166 167 168 169 169 168 165 160 153 150 151 147 140 135 130 124 121 117 113 108 105 104 103 103 104 105 106 105 104 105 102 98 92 89 88 86 81 79 79 78 79 81 83 85 85 84 84 85 83 80 79 79 81 84 87 87 90 92 91 92 93 95 97 99 99 101 105 108 112 112 112 116 118 121 123 124 128 130 130 129 126 125 125 127 129 132 134 134 135 135 135 134 132 134 138 141 138 137 142 145 147 147 144 144 145 143 140 140 139 137 134 132 130 130 131 133 131 129 130 132 131 130 127 126 126 125 125 126 126 126 128 128 129 127 126 126 125 125 125 124 121 120 121 121 120 120 119 117 118 119 117 114 114 112 114 117 116 116 115 116 115 112 110 108 108 110 111 114 113 111 112 114 115 104 101 103 103 103 103 103 103 103 103 103 103 103 103 103 103 103 103 103 103 103 103 103 103 103 103 103 103 103 103 103 103 103 103 103 103 103 103 102 102 102 102 103 104 103 100 96 94 93 93 92 92 91 90 90 90 90 90 90 90 91 91 91 92 92 91 91 90 90 90 90 90 93 94 96 96 97 96 96 96 96 97 95 93 92 91 90 89 86 83 82 84 87 88 91 91 88 85 81 81 81 81 81 82 83 84 85 88 90 91 92 93 94 95 95 95 94 94 94 94 94 94 94 94 94 92 90 88 86 85 83 82 81 81 83 85 85 83 82 79 77 72 66 66 66 64 62 61 60 58 55 54 56 60 61 61 61 60 59 58 58 58 59 63 65 65 64 62 60 54 51 50 50 49 48 48 48 48 48 46 45 45 45 45 42 33 25 24 24 24 24 24 27 35 42 46 47 48 50 51 52 52 52 50 49 48 48 51 54 52 48 45 43 42 39 37 36 39 44 44 44 43 43 45 47 46 45 47 52 52 51 54 59 63 66 69 72 76 82 88 90 93 93 94 94 94 93 93 93 94 94 95 95 94 94 94 94 92 88 84 80 78 77 75 73 71 67 66 67 68 66 65 64 64
133 133 134 134 134 133 133 137 149 153 151 148 144 142 139 136 134 133 133 134 134 134 134 134 134 134 134 134 135 139 141 139 139 140 143 146 149 150 150 147 147 151 153 153 152 152 151 151 152 152 148 146 145 145 147 148 146 142 142 141 140 143 144 143 141 142 144 145 148 149 150 151 154 152 150 150 150 150 154 155 151 150 149 147 148 150 149 149 147 144 144 147 149 150 149 147 149 147 148 150 151 154 154 153 150 150 149 146 145 144 145 146 145 145 146 147 146 145 143 140 140 140 141 141 140 139 136 134 134 138 144 147 147 149 149 152 154 156 158 160 162 162 162 163 165 163 160 158 157 156 152 151 149 147 146 143 138 136 135 130 129 127 123 124 123 122 120 119 118 116 116 116 114 114 112 109 107 107 107 107 107 107 108 107 104 104 105 106 109 111 116 120 122 125 127 129 131 131 132 133 135 137 138 138 136 137 138 140 143 143 146 148 151 154 158 161 161 162 163 161 159 161 162 159 159 160 158 156 156 155 152 149 147 146 146 147 149 150 150 150 149 149 151 150 147 144 143 140 135 133 133 134 137 136 134 132 128 128 125 125 125 123 121 121 123 122 120 118 120 119 117 117 116 116 117 115 114 116 120 120 119 123 127 129 130 133 134 137 140 142 145 146 148 149 150 151 153 154 153 152 148 147 150 152 149 147 145 144 146 148 145 141 138 135 133 132 132 132 131 129 128 129 131 133 132 132 132 132 133 137 136 131 131 132 132 131 130 129 132 133 132 131 131 132 129 129 130 128 127 127 127 130 130 129 129 130 128 128 127 125 126 130 131 127 126 130 134 136 136 137 136 132 131 132 135 136 136 135 136 136 137 136 135 137 140 140 138 140 141 141 142 143 143 142 146 150 155 158 160 165 166 164 164 166 167 167 167 168 167 165 162 155 151 150 146 141 136 131 124 119 114 110 107 105 104 104 104 105 106 106 106 104 104 101 96 91 87 86 85 81 78 78 79 81 84 84 83 81 81 81 83 82 81 81 83 85 88 88 88 90 92 92 92 95 96 96 97 99 102 105 108 110 112 112 114 117 121 125 126 129 129 129 128 126 125 126 128 131 135 136 134 135 135 136 136 135 137 141 143 139 139 143 145 147 147 145 145 145 141 140 141 140 139 136 133 130 130 132 133 131 129 130 131 129 129 128 127 126 125 126 128 128 128 128 128 129 129 127 126 126 126 126 126 124 121 121 120 120 120 119 117 116 119 117 115 115 113 113 115 114 114 115 119 119 115 114 112 112 114 114 117 119 117 117 117 117 109 106 105 103 103 103 103 103 104 104 103 103 103 103 103 103 103 103 103 103 103 103 103 103 103 103 103 103 103 103 103 103 103 103 103 103 103 103 103 103 103 103 105 106 105 102 98 95 93 93 92 92 91 91 91 91 91 91 91 91 91 91 91 91 91 91 91 90 90 90 90 90 92 94 96 97 97 97 97 97 98 98 96 94 92 92 91 90 87 84 84 86 89 90 91 91 87 84 81 81 81 81 81 83 83 83 85 87 89 90 91 93 93 94 94 94 94 94 94 94 94 94 94 94 94 92 91 89 87 86 83 82 81 81 82 83 83 83 83 80 79 74 68 66 65 64 63 61 61 58 57 56 58 61 62 63 62 61 60 59 58 57 57 61 63 63 63 62 60 54 52 50 50 50 49 49 50 50 50 47 46 45 44 44 45 42 32 26 25 25 24 24 24 28 37 43 46 46 48 49 52 53 51 49 48 48 48 52 55 55 50 45 42 40 37 36 36 41 43 42 42 42 43 44 45 45 44 48 52 52 51 54 59 62 66 68 71 74 79 85 87 91 93 93 94 94 94 94 92 92 92 93 93 93 94 94 95 93 90 86 81 78 76 75 72 71 67 66 66 66 63 61 61 63
132 132 134 134 134 133 133 136 148 153 151 150 146 143 140 136 134 133 133 134 134 134 134 134 134 134 134 134 135 141 142 139 139 141 144 148 150 149 148 148 149 153 155 156 154 153 153 151 152 152 149 148 148 148 147 147 145 142 139 138 140 145 147 144 141 142 143 145 148 149 148 149 152 151 149 150 150 149 151 152 150 149 147 147 147 147 148 149 149 145 142 145 147 151 151 148 148 146 147 150 151 152 153 150 148 150 151 148 146 144 144 144 144 144 145 147 145 145 143 141 140 140 140 140 139 139 137 134 134 134 141 148 148 149 150 152 154 155 158 160 162 161 160 162 164 163 160 158 157 155 152 152 149 146 145 143 138 138 137 130 128 128 125 125 123 121 118 117 115 113 114 116 115 112 111 109 107 107 107 105 105 105 108 109 106 105 105 106 109 111 118 124 126 126 126 129 132 131 133 134 134 135 136 137 135 137 139 141 143 143 146 147 151 155 158 161 162 163 163 163 161 163 164 161 160 160 159 157 156 155 151 150 149 147 147 148 149 150 150 151 151 152 153 151 149 147 146 142 138 136 136 136 137 136 134 133 132 130 126 125 125 124 123 121 121 122 122 120 120 118 117 117 115 115 115 115 114 116 119 120 119 124 128 130 132 136 137 137 139 142 144 145 149 150 152 153 154 154 153 153 150 150 152 153 151 148 145 145 146 147 145 142 139 137 136 135 133 133 132 131 131 133 136 136 132 131 130 133 136 138 138 134 130 130 129 128 128 128 131 131 128 127 129 129 128 128 129 129 128 128 129 130 130 130 130 131 131 130 129 128 127 128 128 124 123 128 133 136 134 135 133 131 132 132 134 134 135 137 138 138 136 135 135 135 137 139 140 142 144 144 144 144 144 142 146 151 156 158 159 164 165 163 162 164 166 165 165 166 167 166 161 154 149 147 146 142 137 132 124 119 114 110 107 104 102 103 103 104 104 106 106 104 101 99 95 89 85 85 85 80 78 78 80 83 84 83 81 81 81 81 81 81 82 83 86 89 91 90 89 90 91 92 94 96 97 96 96 99 102 106 107 110 112 112 114 116 122 125 128 128 128 128 128 126 127 128 129 131 136 137 135 135 134 135 137 137 137 140 142 140 141 145 145 146 147 146 145 143 141 141 143 143 142 139 134 130 130 133 134 133 130 132 130 129 128 128 128 127 127 130 131 131 129 128 128 129 129 129 128 128 128 128 129 126 122 121 121 121 121 118 117 117 118 117 116 116 114 114 115 113 111 114 118 117 116 116 115 114 115 116 119 120 118 115 114 114 112 111 107 103 103 103 103 104 106 106 105 103 102 102 102 102 103 103 103 103 103 103 103 103 103 103 103 103 103 103 103 103 103 103 103 103 103 103 103 103 103 104 106 106 106 104 100 97 94 93 92 92 92 91 91 91 91 91 91 91 91 91 91 91 91 91 91 90 90 90 90 90 92 95 97 98 98 98 99 102 101 101 97 94 93 93 92 90 88 86 87 89 90 89 90 90 87 84 81 81 81 81 82 83 84 84 84 85 87 89 91 92 92 93 93 94 94 94 94 94 94 94 94 94 94 92 91 90 87 86 84 83 81 81 81 82 82 83 83 81 79 75 70 66 65 64 64 62 61 59 58 59 60 61 63 63 62 61 61 60 58 56 55 57 58 58 58 59 58 54 52 51 51 51 49 48 48 49 49 48 47 45 44 43 44 43 38 31 26 25 24 24 24 25 31 40 44 45 46 47 51 53 51 47 47 47 48 50 54 55 50 43 40 38 36 36 36 39 41 39 39 40 42 43 45 45 43 46 51 52 52 54 59 62 66 67 71 74 77 82 84 89 92 93 94 94 94 94 92 90 90 91 91 92 94 94 95 93 91 87 82 77 76 73 72 70 68 66 65 65 62 61 61 63
133 133 134 134 134 133 133 134 145 151 153 154 150 144 138 134 133 133 133 134 134 134 134 134 134 134 134 134 135 141 141 139 140 143 146 150 152 151 149 149 150 155 156 157 154 154 155 152 153 152 152 151 150 147 145 144 144 142 140 138 139 144 146 142 142 144 143 143 145 147 145 145 148 150 149 149 149 148 148 148 149 148 147 147 147 147 147 148 148 145 142 145 146 149 150 149 148 146 146 148 149 150 150 147 146 148 150 150 148 146 145 146 145 145 144 144 142 143 143 143 141 140 140 139 138 138 136 134 134 134 141 149 149 149 150 153 153 154 158 160 161 161 160 159 161 162 160 157 156 153 154 155 151 147 143 141 139 138 137 130 130 129 126 125 122 121 120 119 115 111 111 114 113 110 110 110 107 108 108 106 104 105 107 109 105 104 105 106 108 111 118 124 126 126 126 129 131 131 135 138 136 135 136 136 135 137 139 141 142 143 145 147 150 153 157 160 162 162 162 163 161 163 166 164 162 161 161 160 158 157 153 152 150 148 147 149 149 148 149 152 154 154 155 152 151 150 150 145 142 139 138 138 139 137 134 134 135 132 128 125 125 125 125 122 121 121 120 118 117 116 116 115 115 114 115 115 116 118 119 121 121 126 129 131 134 139 139 139 139 142 145 147 150 152 153 154 154 154 154 154 154 152 152 153 152 149 147 146 146 145 143 142 140 138 139 138 136 135 134 133 134 138 140 137 133 133 132 135 136 138 137 133 129 129 128 128 128 130 131 129 127 128 131 130 128 128 128 127 128 129 129 129 128 129 130 130 130 130 130 130 128 127 127 126 124 127 131 133 131 133 133 132 132 132 132 132 134 137 139 139 136 135 135 134 136 136 139 143 146 146 144 143 143 143 147 153 156 158 161 164 165 164 163 164 165 164 164 163 165 166 161 153 147 146 145 141 136 131 124 118 114 110 107 104 103 103 103 103 104 105 106 103 101 98 94 88 85 83 83 80 78 78 79 81 82 81 81 83 82 82 80 80 82 83 86 90 91 90 90 91 92 93 96 97 98 98 97 99 102 104 106 111 113 114 116 118 122 125 128 126 126 128 129 129 130 132 131 131 135 137 136 134 134 133 136 136 136 138 139 139 144 147 147 147 148 148 146 144 144 145 145 144 144 141 136 131 130 131 133 133 131 131 129 129 128 128 128 129 130 132 133 133 129 128 128 129 129 130 130 129 130 131 131 127 122 121 122 123 121 118 119 119 119 118 116 117 117 116 117 115 111 112 114 113 113 114 115 113 113 115 118 117 114 110 108 108 110 107 105 103 103 103 104 107 108 108 107 104 103 102 102 102 102 103 103 103 103 103 103 103 103 103 103 103 103 103 103 103 103 103 103 103 103 103 103 103 103 104 107 108 108 107 103 99 96 93 93 93 92 93 91 91 91 91 91 91 91 91 91 91 91 91 91 91 91 90 91 91 93 95 96 97 99 99 101 104 104 103 98 95 94 95 93 89 88 88 90 90 89 88 88 88 87 85 82 81 81 81 84 85 85 85 84 84 86 88 89 90 91 92 93 93 93 93 93 93 93 93 93 93 93 92 92 90 88 87 85 83 80 80 79 80 81 82 82 81 80 77 72 67 65 64 64 63 62 61 60 60 61 62 62 62 61 60 60 60 59 56 54 54 54 54 54 55 56 53 52 51 51 51 50 49 48 48 48 48 47 46 45 44 43 42 40 36 29 26 25 24 24 24 26 35 42 44 44 46 49 52 51 46 45 45 47 49 51 52 47 41 39 37 36 36 36 36 38 36 37 38 40 42 45 45 42 44 49 52 53 55 59 62 66 68 71 74 76 80 83 87 91 93 95 95 96 95 92 90 90 90 90 91 92 93 93 91 89 87 83 78 75 72 71 70 68 66 65 64 62 62 63 65
134 134 134 134 134 133 133 133 140 148 154 156 152 145 137 133 133 133 133 134 134 134 134 134 134 134 134 134 136 140 139 139 143 145 147 150 153 152 151 150 150 153 153 154 152 154 157 155 155 154 154 154 153 148 146 143 143 143 141 139 139 142 142 139 140 143 141 141 141 143 144 145 148 150 150 149 149 148 148 148 148 146 145 145 147 147 147 145 145 144 144 145 145 146 147 149 149 146 146 147 145 146 147 145 145 146 149 149 149 148 147 147 146 146 144 142 141 142 144 144 142 140 140 138 136 135 134 134 134 137 145 147 148 147 149 152 153 154 156 158 161 161 161 158 157 158 158 156 154 153 156 157 153 148 142 139 138 137 135 131 131 131 128 126 123 122 123 122 117 112 111 111 109 109 109 109 108 111 111 109 106 105 107 106 103 102 105 106 108 111 116 121 123 126 127 129 131 131 137 139 137 135 137 137 136 137 140 141 142 143 146 148 149 151 155 159 161 162 162 162 162 164 167 166 163 161 161 161 160 158 154 153 150 149 149 151 151 149 149 152 154 156 156 154 153 153 153 148 147 143 141 142 141 140 137 135 134 131 127 125 124 124 125 123 119 118 117 116 115 115 116 115 115 114 116 116 117 120 122 124 123 125 128 130 133 138 140 140 141 142 146 150 152 154 155 156 155 155 155 157 156 152 152 152 152 152 150 148 147 145 142 142 140 139 141 142 139 137 134 133 134 139 138 136 135 136 135 136 136 138 138 134 129 129 129 129 128 130 130 128 128 129 130 130 129 129 130 127 128 129 128 127 126 127 129 128 128 129 130 132 129 127 127 128 128 127 129 129 128 130 132 131 132 130 130 132 136 139 139 140 136 134 135 136 137 134 135 140 144 145 142 140 141 144 148 153 156 159 162 164 165 165 165 166 166 164 163 160 162 163 159 152 147 145 142 137 134 129 122 118 114 110 108 106 105 105 103 101 103 104 104 102 101 98 94 90 86 83 83 80 78 78 79 81 81 82 82 82 81 80 80 81 82 83 85 89 91 90 91 94 95 95 97 98 98 98 98 100 103 104 106 111 114 114 116 119 123 124 125 125 125 128 131 132 133 135 132 132 134 135 135 136 135 133 134 134 136 137 139 141 146 149 149 148 149 150 149 146 145 146 144 143 143 141 135 131 130 130 130 130 130 130 129 130 129 128 130 131 131 133 134 134 131 129 128 129 131 132 131 129 129 131 130 128 124 122 123 123 120 120 121 119 119 120 119 120 121 119 119 117 113 112 111 110 112 114 114 114 113 114 116 113 109 104 103 104 105 102 103 103 103 104 107 109 110 110 108 107 106 103 102 102 103 104 103 103 103 103 103 103 103 103 103 103 103 103 103 104 104 103 103 103 103 103 103 103 103 105 107 109 109 109 106 102 98 94 93 93 93 93 92 91 91 91 91 91 91 91 91 91 91 91 91 92 92 91 91 91 93 94 96 97 100 100 101 105 105 103 98 95 95 95 94 91 89 89 90 89 87 87 87 86 85 84 82 81 81 83 86 88 88 87 85 85 86 87 88 89 90 92 92 93 93 93 93 93 93 93 93 93 93 92 92 91 88 87 85 84 81 79 79 79 80 80 81 80 80 78 73 68 66 64 64 63 63 61 61 61 62 62 62 62 61 59 59 59 59 56 54 54 53 53 53 53 53 52 52 51 51 51 51 50 48 48 48 47 47 46 46 44 43 42 39 37 32 28 25 25 25 24 24 29 39 43 44 44 46 49 50 46 44 43 44 47 49 47 42 40 38 36 36 36 36 36 36 36 36 36 39 41 43 43 41 43 48 52 53 56 59 62 67 68 71 74 75 79 81 87 90 93 96 96 96 96 94 92 90 90 90 91 91 91 90 89 87 86 83 78 75 72 71 69 68 67 64 63 62 62 63 66
134 134 134 134 134 133 133 133 136 146 153 155 152 146 139 133 133 133 133 134 134 134 134 134 134 134 134 134 138 141 139 142 145 146 147 149 151 149 150 151 151 151 151 151 151 154 157 157 157 156 154 154 154 150 147 144 144 144 141 140 140 141 140 138 139 140 139 140 141 141 143 145 148 149 148 149 149 147 148 148 145 145 145 145 147 147 147 144 144 145 145 144 143 144 146 147 148 146 146 145 143 144 146 146 146 146 149 151 149 147 147 147 147 146 143 142 143 144 144 144 142 139 138 135 134 134 134 134 134 138 146 145 146 147 149 152 153 155 156 158 161 161 160 158 157 156 156 154 153 154 156 155 151 146 142 138 136 134 133 130 130 130 129 129 126 124 124 123 119 116 112 110 109 110 110 108 107 111 113 110 108 105 105 103 102 103 105 107 109 112 116 121 122 127 128 129 131 133 136 136 134 134 137 137 137 138 140 140 142 146 148 149 151 152 154 158 161 162 163 164 164 165 167 166 164 162 162 163 161 159 156 153 151 150 151 153 152 149 149 151 153 156 157 157 156 155 154 151 150 147 145 145 144 143 141 137 134 130 127 126 124 122 123 121 117 117 117 117 115 116 117 117 115 114 118 118 118 120 121 123 121 123 126 130 131 136 139 140 143 144 147 150 152 154 156 156 156 156 157 157 156 153 152 153 154 156 154 152 151 148 144 143 141 141 143 144 142 139 135 133 133 136 135 134 136 137 136 135 135 138 140 137 132 132 132 132 130 130 130 128 128 127 127 130 131 130 129 128 128 128 127 124 124 127 129 127 127 129 129 131 128 125 125 127 129 130 129 129 130 130 130 129 131 129 128 132 137 140 139 139 136 134 135 137 137 134 133 138 142 143 140 141 142 145 148 151 153 156 160 163 165 165 166 166 165 163 162 159 159 159 156 151 147 144 139 134 133 129 123 119 115 111 110 107 106 106 102 99 101 101 100 99 98 97 95 92 87 84 85 81 79 80 81 81 80 80 80 80 80 80 81 83 83 84 85 88 90 91 93 96 98 97 99 100 100 99 100 102 105 106 108 112 115 115 115 118 121 122 123 127 128 128 130 132 134 134 131 130 132 135 137 138 137 135 135 136 137 137 140 144 148 149 148 148 148 149 148 147 144 144 142 141 140 138 134 131 131 131 130 130 130 129 130 132 131 130 131 131 131 132 134 134 133 132 130 130 133 136 133 129 127 127 127 128 127 125 125 122 120 121 121 120 120 121 122 122 122 121 118 117 116 114 112 111 113 115 115 115 113 113 113 109 105 102 102 103 104 104 105 105 105 106 109 111 112 111 110 110 108 105 103 103 105 106 104 103 103 103 103 103 103 103 103 103 103 103 103 104 104 104 104 104 104 104 104 103 104 106 108 110 111 110 108 105 100 96 94 93 93 93 91 91 91 90 90 90 90 90 90 90 90 93 93 93 93 92 91 91 93 93 95 97 100 101 102 104 104 103 97 94 93 93 93 91 90 89 89 88 88 88 87 87 84 83 82 82 83 85 88 90 90 89 87 86 86 86 87 89 90 92 92 92 93 93 93 93 93 93 93 93 93 92 92 91 89 88 86 84 82 80 79 78 78 78 79 78 78 77 73 69 66 66 65 64 63 62 62 62 63 63 61 61 60 59 57 57 58 56 54 54 53 53 53 53 53 52 52 51 51 51 51 50 49 48 48 47 47 46 46 45 44 42 37 35 34 30 27 25 24 23 22 24 32 40 43 43 44 47 48 48 46 44 42 45 46 43 40 39 38 36 36 36 36 37 37 37 36 36 40 41 41 41 41 43 47 52 55 57 58 61 65 68 71 73 75 78 80 85 89 93 96 96 96 96 96 93 90 90 90 90 89 89 88 87 86 84 83 79 75 72 71 70 69 67 65 63 62 62 63 67
134 134 134 134 134 134 134 133 135 147 154 156 151 147 141 133 133 134 134 134 134 134 134 134 134 134 134 134 140 142 142 146 147 146 146 147 148 147 149 150 150 149 150 150 151 153 155 157 159 157 154 153 153 152 149 146 146 144 140 140 141 141 140 137 137 137 137 138 140 139 141 143 146 146 146 148 147 145 147 146 144 145 145 145 145 146 146 145 144 145 145 142 141 143 145 144 146 146 146 144 143 145 147 147 147 147 149 151 150 147 147 147 146 145 143 143 145 145 144 144 142 140 138 134 134 134 134 134 134 136 143 144 145 147 149 152 154 155 156 158 159 159 158 157 156 156 156 153 153 156 155 152 148 144 142 138 135 132 131 129 127 127 128 130 127 126 126 126 123 119 114 111 110 110 110 108 106 108 109 108 108 105 105 103 103 105 107 109 111 114 118 121 123 129 130 130 131 132 134 133 131 134 138 137 137 138 140 140 143 148 150 151 152 154 154 158 161 163 164 165 165 166 167 165 165 163 164 165 162 160 157 153 152 151 152 153 153 149 148 151 153 155 157 157 156 154 154 154 152 150 148 145 145 144 144 140 136 131 129 127 124 121 120 118 117 117 118 118 116 116 118 117 115 115 118 120 120 120 118 119 120 124 128 132 134 136 137 139 144 146 148 149 151 153 155 155 155 157 157 157 156 155 154 154 154 159 159 156 154 149 145 144 142 142 143 143 143 140 138 134 132 133 134 134 136 138 138 135 135 137 140 138 134 134 134 133 130 131 133 130 129 128 128 130 131 130 126 130 130 128 127 124 125 127 127 127 127 128 128 128 125 123 123 127 131 132 130 128 130 129 128 128 130 129 128 132 136 138 137 136 136 135 136 136 135 135 135 138 141 141 140 143 146 147 148 146 149 152 156 161 163 165 166 165 163 162 161 160 158 157 154 150 145 142 137 134 132 129 125 121 117 112 110 106 104 105 101 98 98 97 96 95 95 94 93 92 89 87 86 82 80 81 82 81 80 78 79 80 80 80 83 83 83 84 86 88 92 95 97 97 99 100 101 102 102 101 102 104 107 109 111 113 114 115 115 116 119 121 123 128 128 127 128 130 131 131 132 131 132 135 139 140 138 138 139 140 139 137 141 145 149 149 148 147 147 146 145 145 144 144 140 138 137 135 134 133 132 131 131 132 132 129 130 132 134 133 132 132 131 132 133 133 134 135 132 130 132 136 135 130 127 126 126 130 130 129 129 125 122 123 122 121 122 122 121 121 121 121 117 117 118 117 115 112 114 115 114 113 111 111 110 107 105 104 104 104 106 108 110 109 107 108 111 112 113 112 112 111 108 107 106 106 107 106 106 104 103 103 103 103 103 103 103 103 103 103 103 104 104 105 105 105 105 105 106 105 106 108 110 112 112 112 110 107 103 99 97 95 94 92 91 91 91 90 90 90 90 90 90 90 90 93 93 93 93 92 91 91 93 93 95 97 99 102 104 105 105 103 97 94 93 92 92 91 90 89 89 89 90 90 89 88 84 83 82 84 86 88 90 92 92 92 90 88 87 87 87 89 90 92 92 92 93 93 94 94 94 93 93 93 93 92 92 91 89 88 86 85 83 81 79 77 76 76 76 76 76 74 71 69 68 69 69 66 63 62 62 62 62 62 60 60 58 57 57 57 57 56 54 54 53 53 52 52 52 52 52 51 51 51 50 49 49 49 48 47 47 47 47 45 45 42 38 35 35 33 31 26 23 21 21 22 26 35 41 43 44 45 46 47 47 45 42 42 43 41 39 38 38 37 36 36 37 38 38 37 36 37 40 40 40 41 41 43 48 52 56 58 57 58 64 68 71 72 74 77 79 83 87 91 94 96 97 98 98 95 91 90 90 89 88 88 86 85 84 82 81 79 76 72 71 70 69 68 66 63 62 62 62 65
134 134 134 134 134 134 134 133 135 147 156 156 152 149 142 133 133 134 134 134 134 134 134 134 134 134 134 135 140 143 145 148 150 147 145 146 147 147 148 149 149 149 149 150 151 152 155 157 159 157 155 153 153 153 152 147 146 143 140 140 141 140 139 137 137 137 137 137 139 139 139 141 144 144 145 147 147 144 145 145 144 144 145 145 144 145 146 146 145 145 144 140 139 142 144 144 145 147 147 144 142 145 146 146 146 146 149 151 151 147 147 146 145 144 143 144 144 144 144 144 143 141 138 136 134 134 134 134 134 134 140 144 144 147 149 153 154 155 155 157 158 158 158 156 156 157 157 154 154 156 155 151 146 143 141 137 135 132 131 127 126 126 127 128 127 127 128 127 125 119 115 113 111 110 109 109 105 105 106 106 107 105 104 103 104 106 108 111 112 115 118 122 123 130 131 130 130 131 132 131 131 135 139 137 137 138 141 141 144 148 151 152 152 154 154 158 160 162 165 165 166 166 168 166 166 164 164 165 163 160 157 154 152 152 153 154 154 150 148 150 153 155 157 157 155 154 155 155 153 150 149 146 145 145 144 142 138 133 131 128 125 121 120 118 118 118 119 119 117 117 118 116 115 116 118 120 121 121 117 117 120 126 130 134 136 136 136 139 145 147 148 148 151 153 154 155 155 158 158 157 157 157 156 154 154 158 161 159 155 149 145 145 142 142 142 142 142 140 140 136 133 133 134 134 136 138 138 136 136 136 138 137 134 133 134 133 130 132 136 134 131 130 130 130 131 128 124 131 132 129 127 125 125 127 127 128 127 127 129 127 124 123 124 127 132 132 131 128 128 128 127 128 130 130 129 132 135 136 134 134 136 136 136 136 135 136 136 137 140 140 141 144 148 148 148 145 148 151 154 159 162 165 167 165 162 162 162 162 159 156 154 149 144 140 138 134 131 128 126 122 117 112 109 105 104 104 102 98 96 96 94 93 93 92 92 91 90 88 86 83 81 81 82 81 80 78 79 80 80 80 82 82 83 84 87 89 93 97 99 98 99 101 102 103 103 103 105 107 109 112 114 114 114 115 115 115 117 120 123 127 127 127 127 128 129 130 133 133 132 136 140 140 139 140 141 141 139 137 140 145 148 148 147 147 146 144 144 143 144 143 139 136 134 134 135 134 133 132 132 132 132 130 130 132 134 134 133 132 131 132 133 132 134 136 133 130 131 134 134 131 127 126 127 130 131 131 130 127 124 123 122 122 124 123 121 121 121 121 118 118 118 117 115 113 114 114 113 111 110 110 109 106 106 105 105 107 108 110 112 112 110 110 111 113 113 113 113 111 109 107 107 107 107 107 107 105 104 103 103 103 103 103 103 103 103 103 103 105 105 105 105 105 106 106 107 107 108 109 111 113 113 113 111 109 105 101 98 96 94 92 92 91 91 90 90 90 90 90 90 90 90 92 93 93 93 92 92 92 93 94 96 98 99 102 104 106 106 103 98 95 94 92 91 90 90 88 88 89 91 91 90 89 84 83 83 85 87 89 90 93 93 93 91 90 87 87 87 89 90 92 92 93 93 93 94 94 94 93 93 93 93 92 92 91 89 89 86 85 83 82 80 77 76 76 76 76 74 73 70 69 70 72 72 69 64 62 62 62 61 61 60 59 58 56 56 56 56 55 54 54 53 53 52 52 52 52 52 51 51 50 49 49 49 49 48 48 48 47 47 45 45 43 39 36 36 35 33 26 23 20 20 21 23 31 39 42 43 44 45 47 47 45 43 41 41 40 38 37 37 36 35 36 37 38 38 37 36 37 40 40 40 41 41 44 49 53 56 58 57 57 63 69 71 72 73 77 79 83 85 89 93 95 96 98 99 95 92 90 90 89 88 87 85 84 83 81 80 78 76 72 71 70 69 68 66 64 62 62 62 63
134 134 134 134 134 134 134 133 135 146 155 157 152 149 143 133 133 134 134 134 134 134 134 134 134 134 134 135 140 144 147 150 153 150 145 145 148 149 149 148 149 149 150 151 153 153 155 158 157 157 157 155 153 154 154 149 145 143 141 141 140 138 137 138 138 138 137 137 139 138 138 139 142 143 144 146 145 143 143 144 144 144 143 144 144 144 145 147 147 146 143 140 138 140 144 145 146 148 146 142 140 143 144 144 144 146 149 151 149 147 147 146 145 144 144 145 144 143 144 144 143 141 140 138 134 134 134 134 134 134 138 145 146 147 148 152 153 154 154 155 157 157 157 158 157 159 158 154 154 156 154 149 145 142 141 136 135 133 130 126 125 124 124 125 128 128 128 128 126 121 116 114 113 110 109 108 105 103 103 105 107 105 104 105 106 108 110 112 113 116 118 122 123 129 130 130 129 129 130 130 132 137 141 138 137 138 140 143 146 148 151 152 153 154 156 158 160 162 165 167 168 168 169 168 167 165 164 166 164 161 158 154 153 153 153 155 155 151 148 150 152 155 157 157 157 155 156 155 153 150 149 147 146 146 144 141 138 134 132 128 124 122 121 120 119 119 118 118 117 117 117 116 116 116 117 120 121 120 117 117 120 127 132 134 136 136 136 141 146 148 149 149 151 153 156 156 156 158 160 159 158 159 159 156 155 158 161 160 156 149 147 146 143 142 142 142 141 140 140 136 134 134 137 137 137 137 137 137 138 135 135 134 131 132 135 134 131 134 138 136 133 132 132 130 129 125 122 131 132 129 127 125 125 127 127 128 128 128 131 129 126 124 126 130 134 132 130 126 126 127 125 127 130 130 130 131 133 134 133 133 135 135 136 136 135 135 135 135 138 140 143 144 146 148 149 147 149 151 153 158 160 163 167 165 162 162 161 160 157 155 152 147 142 139 138 133 130 127 124 120 117 114 109 105 104 104 103 99 97 96 93 92 93 93 92 90 89 88 86 84 82 81 82 81 80 79 80 80 78 78 79 80 82 84 87 89 95 100 102 101 101 103 105 105 104 105 108 109 109 113 114 113 113 114 115 114 116 119 123 127 128 129 130 129 130 132 135 135 134 135 139 140 140 141 141 141 139 139 140 143 146 147 145 144 143 142 141 140 141 140 136 134 133 134 135 135 134 132 132 134 133 132 131 131 133 135 136 134 132 132 132 132 134 136 135 132 131 133 133 131 129 128 129 131 132 131 130 128 126 124 123 124 125 124 123 123 122 122 120 120 118 115 113 114 114 112 110 109 109 108 107 107 107 107 108 109 110 112 114 114 112 111 113 114 114 113 113 112 111 110 109 109 109 109 107 105 104 103 103 103 103 103 103 103 103 103 103 103 104 104 105 106 107 108 108 109 109 111 113 115 115 115 113 110 107 103 100 97 95 94 93 91 90 90 90 90 90 90 90 90 90 92 92 93 93 93 92 92 94 94 96 98 100 102 104 106 106 104 100 96 96 93 91 89 88 87 88 88 90 91 89 86 84 83 84 87 89 90 92 93 94 94 93 92 89 88 88 88 90 92 92 93 93 93 94 94 94 93 93 93 93 92 92 91 90 89 86 86 83 82 81 79 77 77 76 76 75 74 73 72 73 75 75 72 67 64 62 62 60 60 60 59 58 56 56 56 56 55 54 54 53 53 52 52 52 51 51 51 51 50 49 49 49 49 48 48 48 47 47 45 45 43 41 38 36 35 33 28 23 20 20 21 21 27 35 40 43 44 45 45 45 43 43 41 40 39 37 35 35 35 35 36 37 39 39 37 37 37 40 40 40 42 43 47 51 53 57 58 56 56 61 69 72 72 73 75 77 81 84 87 91 93 95 98 98 95 92 89 89 89 88 87 84 83 81 79 78 76 75 72 71 70 69 69 66 65 62 62 62 62
134 134 134 134 134 134 134 133 134 143 153 156 152 148 141 133 133 134 134 134 134 134 134 134 134 134 134 135 140 145 149 152 154 152 145 143 146 150 150 149 151 152 152 152 154 154 154 157 155 156 158 157 153 153 153 149 145 143 141 140 139 137 138 139 139 139 138 138 137 137 139 138 140 143 143 144 143 143 143 143 142 144 143 143 143 142 143 146 147 145 142 140 139 139 144 146 146 147 144 139 139 142 143 143 144 146 149 149 148 148 149 146 146 146 146 146 143 143 143 142 141 140 139 138 134 134 134 134 134 134 137 147 147 146 147 151 152 153 154 154 155 156 157 160 160 159 157 154 154 154 152 148 144 142 140 136 135 133 130 126 124 123 121 122 126 128 130 130 127 123 117 115 114 111 108 107 104 102 102 105 107 105 105 108 107 108 111 112 114 116 117 122 123 128 130 131 130 129 129 129 134 139 141 138 135 137 141 144 147 148 151 152 154 155 157 159 161 163 166 169 170 171 170 169 168 166 164 165 164 162 159 156 153 152 153 155 155 152 149 150 152 154 157 158 159 159 158 155 154 152 149 149 147 147 144 140 138 135 133 128 124 121 122 122 120 120 118 118 118 118 117 117 118 118 118 120 119 118 117 117 120 126 130 132 136 136 137 141 146 149 150 150 151 155 158 158 157 159 161 161 160 161 162 159 156 158 161 160 156 150 148 145 143 143 143 141 141 141 141 138 136 137 139 139 140 137 137 139 141 137 134 131 131 132 134 134 134 136 138 136 133 132 132 129 126 123 122 130 132 129 127 124 124 125 127 129 130 130 132 132 128 126 129 133 135 132 128 126 126 127 126 126 129 129 129 129 130 131 132 133 135 135 137 137 135 133 133 133 135 139 142 143 145 147 149 149 150 152 155 158 160 163 166 165 163 161 159 157 155 154 151 145 139 137 136 132 129 127 123 119 118 116 111 106 105 105 104 101 98 97 92 90 91 92 91 88 87 86 84 83 82 82 82 80 79 80 80 79 77 76 77 80 82 85 88 90 97 103 105 103 103 105 107 107 106 108 111 110 108 111 112 112 113 113 115 115 117 120 123 126 128 131 133 131 132 134 137 137 135 133 137 140 140 142 142 141 141 142 143 143 145 146 145 142 140 139 139 139 138 137 132 132 134 135 136 135 134 131 133 134 133 133 131 131 132 135 137 135 135 134 132 132 134 136 136 134 132 132 132 131 130 130 131 132 133 132 130 128 128 127 126 127 127 126 126 126 125 123 120 120 116 112 111 113 112 109 108 108 108 108 106 107 107 110 112 113 114 115 115 115 115 114 115 116 115 114 114 113 113 114 113 111 111 110 108 106 104 103 103 103 103 103 103 103 103 103 103 103 103 104 105 106 108 109 110 111 111 113 115 118 118 117 114 111 108 105 101 98 96 94 93 91 90 90 89 89 89 89 90 90 92 93 93 93 93 93 93 93 94 94 96 98 100 103 104 107 107 105 102 99 97 94 91 88 86 85 86 86 89 89 86 83 84 85 87 89 91 92 93 94 95 95 95 93 91 89 88 88 89 91 91 92 93 93 94 94 94 93 93 93 93 92 92 91 90 89 86 86 84 83 82 80 79 79 78 77 77 77 76 76 77 79 79 76 71 67 64 62 59 59 59 58 58 56 56 55 55 54 53 53 53 53 52 52 52 51 51 51 51 50 49 49 49 49 48 48 48 47 47 47 46 43 41 39 35 33 32 28 23 20 20 20 21 23 29 35 41 44 45 44 44 42 42 41 40 38 35 35 35 35 35 36 37 38 38 37 39 39 40 40 41 44 47 50 52 55 59 57 56 56 59 68 74 74 74 75 75 79 82 86 89 91 93 96 97 94 91 89 88 89 89 87 83 82 80 78 76 75 74 72 71 70 69 68 66 65 62 62 62 62
134 134 134 134 134 134 134 133 133 139 150 153 150 145 138 133 133 134 134 134 134 134 134 134 134 134 134 135 140 145 148 151 152 151 147 144 146 150 151 150 153 155 155 153 153 153 154 155 155 155 156 157 154 151 150 148 145 143 141 140 139 139 140 140 140 139 139 139 137 137 140 140 139 142 142 143 142 142 142 142 141 142 143 143 142 141 140 143 144 143 142 142 142 141 142 143 142 143 141 138 139 142 142 142 143 144 147 148 148 149 150 148 148 147 146 146 144 144 143 141 140 139 138 137 134 134 134 134 134 134 137 145 145 144 146 151 152 153 154 154 154 155 157 159 159 158 155 153 154 153 150 148 143 142 139 136 134 132 131 126 124 124 122 121 122 126 129 129 127 123 119 115 114 112 110 108 106 105 104 108 109 106 106 108 109 109 111 112 114 116 119 123 123 126 129 130 131 131 131 132 137 140 140 136 134 137 143 145 147 148 151 153 155 157 157 159 161 164 167 169 171 171 170 169 169 167 165 164 164 162 159 159 155 152 152 153 154 153 150 151 152 154 157 158 160 162 161 158 156 154 151 149 148 148 146 141 139 136 133 128 124 120 120 122 119 119 118 118 119 119 118 118 121 121 121 121 118 117 118 118 121 125 128 132 135 137 138 141 146 149 151 151 152 155 158 159 158 159 161 161 161 162 162 161 160 160 162 160 156 152 150 146 145 144 142 139 140 141 141 141 139 138 138 139 141 139 139 141 144 142 137 134 134 133 133 133 136 138 136 133 131 130 130 128 126 124 124 129 131 130 128 126 125 125 126 129 131 131 132 131 129 129 132 136 136 130 127 127 128 128 127 127 128 128 128 128 128 128 131 132 135 136 135 135 136 134 132 132 132 136 139 141 144 147 149 148 149 153 157 160 161 163 164 164 163 160 157 154 152 152 150 145 139 135 134 131 128 127 125 121 118 116 112 107 106 105 103 100 97 94 91 89 88 88 89 87 86 86 83 82 82 82 80 79 79 80 80 79 78 77 78 81 84 88 91 92 97 104 105 103 104 105 107 107 108 110 111 109 107 109 111 111 113 113 116 118 119 120 123 125 128 131 132 133 135 135 135 136 134 133 136 139 140 142 143 144 145 145 146 145 146 146 146 143 140 139 139 139 138 136 132 132 134 137 137 135 134 132 133 133 134 135 133 132 132 133 134 134 136 133 132 132 133 134 136 136 135 134 133 132 132 133 134 133 133 133 131 130 132 131 129 130 128 125 128 127 125 123 120 118 115 111 111 111 110 109 108 108 108 107 106 107 107 111 113 115 117 117 116 116 117 116 117 117 116 115 115 115 117 117 115 114 113 112 110 107 104 103 103 103 103 103 103 103 103 103 103 103 103 104 105 106 108 109 111 112 113 115 117 120 121 119 115 112 109 106 102 99 96 93 93 92 91 90 89 89 89 89 90 90 92 94 94 94 94 94 93 93 94 94 95 96 99 101 104 107 107 106 104 101 99 94 91 88 86 85 85 85 87 88 85 83 85 88 90 92 93 94 95 95 96 96 96 95 93 91 90 89 90 91 91 92 93 93 95 95 94 94 94 93 93 92 92 91 89 89 86 86 84 83 82 81 81 81 80 80 80 80 79 79 80 81 81 79 76 72 68 64 60 59 58 58 57 56 56 55 55 54 53 53 53 53 52 52 52 51 51 51 51 51 49 49 49 49 49 49 49 48 48 48 48 46 43 39 34 32 30 27 23 20 20 20 20 21 23 29 37 42 45 44 44 42 42 40 39 38 35 35 35 35 35 36 36 37 36 37 41 42 41 41 43 47 50 51 52 56 59 57 56 56 59 66 75 76 75 76 75 77 81 86 89 90 93 95 95 93 91 88 88 88 88 85 82 81 78 77 75 73 72 71 70 69 68 67 65 63 62 62 63 63
