ncols         770
nrows         32
xllcorner     -72.0666266667
yllcorner     41.76062
cellsize      1.0E-5
NODATA_value  -9999
209 209 209 208 209 210 212 214 214 213 213 213 214 216 217 217 215 216 215 214 212 210 210 209 208 206 203 200 197 194 189 185 181 175 169 165 158 151 142 134 129 124 121 118 116 116 115 114 113 113 112 112 114 115 115 114 114 113 115 117 120 120 119 120 122 123 123 124 124 123 122 122 121 121 122 123 127 130 132 135 135 135 135 135 133 133 133 134 135 135 135 135 135 137 140 143 145 146 148 148 148 151 153 157 161 165 170 174 179 180 182 183 185 188 189 189 189 189 189 189 191 191 189 188 188 188 188 187 186 186 186 185 185 184 181 180 179 177 172 170 166 165 160 158 154 153 152 150 148 145 142 139 137 135 134 136 140 141 139 137 137 138 138 138 137 137 136 138 140 143 141 139 139 137 134 133 132 131 130 130 129 128 126 123 121 120 121 123 123 122 120 119 118 117 116 114 113 113 113 113 113 113 112 112 112 112 111 110 107 107 109 110 112 113 114 114 114 114 116 116 117 119 120 120 120 120 121 121 121 119 118 119 120 119 117 119 119 117 117 115 114 114 114 113 113 112 110 109 107 105 103 100 98 95 92 90 87 86 83 82 82 82 81 79 78 78 76 75 74 74 72 71 71 68 67 66 66 65 62 61 60 60 60 60 61 65 65 65 65 65 65 65 65 65 66 66 67 68 68 69 70 71 72 73 75 75 75 75 74 73 73 74 76 76 78 78 78 80 82 81 79 76 74 72 70 67 65 66 68 68 68 65 65 66 68 68 69 71 70 70 71 75 79 83 84 88 93 96 99 100 100 102 105 107 109 110 112 113 115 117 119 122 122 122 120 118 117 116 115 115 114 114 112 109 106 103 100 96 93 91 88 87 87 87 88 89 89 89 90 93 96 97 97 96 95 93 91 89 90 92 91 89 87 86 83 80 78 76 74 73 73 73 73 74 75 73 72 70 70 71 71 71 71 71 71 72 75 75 75 74 74 73 74 75 76 78 76 75 72 71 69 68 66 64 62 61 61 60 60 60 63 65 67 69 71 73 76 79 79 77 74 74 74 74 72 69 67 67 67 66 66 64 64 62 59 58 57 57 55 53 51 50 50 50 51 52 53 54 55 57 59 61 63 65 68 70 71 71 71 71 73 76 79 82 84 86 88 89 91 91 93 94 95 94 94 94 95 96 96 96 96 97 97 98 98 98 96 94 92 90 88 88 89 92 93 94 96 100 104 106 108 109 110 110 110 110 108 107 107 107 107 107 108 109 111 112 114 119 121 125 128 131 133 136 138 140 142 142 142 142 143 144 146 148 149 149 149 149 151 152 153 154 154 154 154 152 149 148 145 144 143 141 139 135 132 128 125 122 117 117 116 116 116 116 116 116 117 118 120 121 124 126 129 132 135 138 141 143 146 149 152 154 156 159 159 159 159 161 163 167 170 172 175 177 180 182 185 186 187 189 190 191 191 194 196 197 198 200 202 203 204 204 204 206 208 209 210 212 213 214 214 213 213 213 214 214 213 213 213 214 216 217 217 217 216 215 216 216 215 215 215 215 215 214 214 212 212 212 211 212 212 211 211 211 211 210 209 207 206 206 206 208 209 210 209 208 205 202 201 200 200 199 197 194 191 189 186 184 182 178 174 169 164 160 157 155 154 154 153 152 151 149 148 149 150 149 147 148 153 155 156 158 160 162 164 166 167 168 169 170 171 173 176 178 181 183 185 188 189 190 192 194 195 197 198 200 201 202 204 204
209 210 209 209 209 210 212 213 213 212 212 213 215 216 216 215 214 215 215 214 212 212 212 212 210 208 204 201 199 195 190 186 182 175 170 166 160 153 146 137 131 126 122 118 117 116 114 111 111 112 113 113 114 115 115 113 113 113 115 119 119 118 118 119 122 123 123 123 123 123 123 123 123 123 122 122 126 130 132 132 131 131 132 132 132 132 133 133 134 133 134 133 134 136 140 141 144 146 148 148 148 151 154 157 160 165 171 175 179 180 182 183 186 189 191 190 189 189 189 189 192 192 190 187 187 188 189 189 187 185 183 183 182 181 179 177 176 173 170 167 165 165 160 158 156 154 152 149 147 144 141 139 137 136 136 138 140 140 138 138 138 137 137 137 137 137 137 138 141 144 144 142 141 139 136 134 133 133 133 132 132 131 127 124 122 121 123 124 124 124 122 121 119 118 118 117 117 117 117 116 116 114 113 114 114 113 113 111 108 107 109 109 109 111 112 112 112 112 113 113 115 117 118 118 119 119 119 120 119 117 117 117 118 117 118 119 118 117 115 114 113 113 113 112 112 112 109 108 106 103 101 99 97 95 92 90 87 85 84 83 83 82 81 79 77 77 75 75 73 72 71 71 70 68 67 65 65 64 62 61 60 60 61 60 60 61 63 64 66 66 66 66 66 66 67 67 68 69 69 69 71 71 73 75 76 76 77 76 75 73 73 75 75 75 76 77 77 77 78 81 80 76 74 71 68 65 64 65 66 66 66 65 65 65 68 69 71 71 70 70 71 76 79 83 84 88 92 96 99 100 101 103 106 108 109 111 112 112 115 117 120 121 122 120 118 116 115 114 114 114 114 114 111 109 106 102 100 96 93 90 88 88 88 88 89 90 90 90 91 94 96 98 99 99 97 96 92 90 91 92 92 90 88 87 85 82 80 77 75 73 73 73 73 74 75 74 73 71 70 70 70 70 70 71 71 73 76 76 76 76 75 74 74 75 76 78 76 74 72 71 69 69 67 64 63 62 62 61 61 61 63 64 67 69 70 72 74 77 78 76 74 73 73 72 70 67 67 67 67 66 66 65 64 62 59 57 56 54 54 52 51 50 50 50 51 53 55 57 59 60 61 61 62 65 69 70 71 71 70 70 71 74 77 80 84 86 89 89 91 91 93 96 96 96 96 96 96 96 97 97 97 97 100 100 101 99 97 95 94 92 89 89 90 93 94 95 98 101 105 107 109 110 112 112 112 112 110 109 109 108 108 108 108 110 111 112 115 119 121 125 128 131 133 136 139 141 143 143 143 143 143 145 146 148 150 150 150 150 151 152 153 154 154 154 153 151 148 147 145 145 144 141 139 135 132 128 125 122 118 117 116 116 116 116 116 115 116 118 119 121 124 126 130 133 136 139 142 145 148 151 155 156 159 160 158 158 158 161 164 167 170 172 175 176 179 182 185 187 188 190 191 192 192 194 196 196 198 200 203 204 204 205 205 207 209 210 212 213 214 215 215 213 213 213 214 214 213 213 213 215 216 218 218 218 218 216 216 216 215 215 215 215 215 214 214 213 213 213 213 213 212 212 211 211 210 209 208 206 206 206 206 207 209 210 209 207 205 202 201 201 201 200 197 196 193 191 189 187 184 181 176 171 167 163 159 156 154 154 153 151 151 149 148 148 149 149 148 150 154 156 157 158 159 160 162 164 165 166 167 168 170 173 175 178 180 183 184 186 188 190 192 194 195 197 198 199 200 201 202 203
207 208 210 210 210 210 213 214 214 212 212 214 215 216 215 215 214 214 215 214 213 213 211 212 211 208 204 202 199 196 191 187 183 178 172 169 163 156 149 141 133 127 123 118 118 117 114 111 111 114 113 113 114 114 116 114 113 112 114 117 118 118 118 119 121 122 123 123 122 121 122 122 124 124 125 124 125 129 131 131 130 129 130 131 132 132 132 133 133 134 134 133 133 136 140 141 144 146 149 149 149 153 156 159 163 168 171 175 179 180 182 184 187 190 191 190 189 189 189 189 190 190 188 187 187 188 190 190 187 185 182 181 179 178 176 174 174 171 168 166 164 162 159 158 157 154 151 148 147 145 143 141 139 138 136 136 136 137 137 138 138 136 136 137 137 137 138 138 141 144 144 144 144 142 139 138 137 137 136 136 136 133 129 126 124 122 124 125 126 125 124 122 120 120 120 120 120 121 120 119 118 117 116 116 116 115 115 113 111 109 109 109 108 108 109 110 110 110 110 110 112 114 116 115 116 116 116 117 116 115 114 114 115 114 116 117 116 115 113 111 111 112 112 112 113 113 112 109 106 103 101 100 98 96 93 91 89 86 86 86 85 82 79 76 76 76 76 75 72 72 70 69 68 66 64 62 61 61 60 59 60 60 61 58 59 60 61 63 64 65 64 64 65 66 66 66 66 66 67 68 70 71 74 75 77 77 78 77 76 74 74 74 74 74 74 74 74 74 75 77 78 76 73 70 66 64 64 64 66 65 65 65 65 67 68 70 72 72 72 72 72 76 79 82 84 88 92 95 98 100 103 105 106 107 109 111 112 113 115 117 119 119 119 117 116 114 113 112 112 113 114 113 111 109 107 102 99 95 92 90 89 89 90 90 90 91 91 91 91 94 96 99 101 101 100 98 95 93 93 92 92 91 90 89 87 85 82 79 76 73 73 72 72 72 75 75 74 72 69 69 69 69 70 71 71 73 76 76 77 78 76 75 75 75 77 77 75 74 71 71 70 70 68 66 64 63 63 62 62 62 63 64 67 68 69 70 72 74 75 74 73 73 72 70 68 66 66 66 66 66 65 64 63 62 59 57 55 53 53 51 51 50 50 51 53 55 58 59 61 63 63 62 63 66 69 70 69 69 69 70 72 75 77 80 83 86 88 89 90 92 94 97 98 97 97 97 97 97 97 97 97 99 102 102 102 102 100 98 96 94 91 91 93 95 97 97 100 104 107 109 111 112 114 114 114 114 112 111 111 110 109 108 109 110 112 115 117 119 122 125 128 131 135 138 140 142 143 144 143 143 143 145 146 148 150 150 150 150 151 152 153 154 155 155 153 151 148 146 145 145 144 141 140 135 132 128 125 122 119 118 117 117 116 116 115 115 115 118 119 121 124 127 130 133 137 140 144 146 149 153 156 157 159 159 158 158 158 161 165 169 171 172 175 176 179 181 183 186 188 190 191 192 193 194 197 197 200 202 204 205 206 206 206 208 210 212 213 213 215 215 215 213 213 213 213 214 214 215 216 216 217 218 218 219 219 217 216 216 215 215 215 215 215 214 214 213 213 214 214 214 213 213 212 210 210 208 208 208 206 206 206 207 209 210 209 207 205 203 202 202 201 200 198 197 194 192 190 188 186 182 178 174 169 165 161 157 154 154 154 154 152 150 148 148 149 149 149 151 155 157 158 157 157 158 160 162 163 164 165 167 169 173 175 178 180 182 184 184 186 189 191 193 195 197 198 199 199 200 201 202
206 208 209 209 208 210 214 217 217 216 215 214 213 214 215 216 217 216 217 214 214 214 211 212 210 208 204 202 199 197 192 188 184 179 174 171 166 159 152 143 136 129 124 120 119 117 116 114 113 114 113 113 114 115 116 114 111 109 110 113 116 117 117 117 118 119 119 119 119 119 120 122 123 125 125 125 125 127 128 130 130 130 130 131 132 132 132 133 133 136 136 134 134 137 139 141 143 146 147 147 149 153 157 160 164 168 172 175 176 179 181 183 186 187 188 188 189 189 188 187 187 186 185 185 185 187 189 187 185 184 181 178 176 174 172 172 171 169 166 165 162 160 157 157 156 154 153 151 150 149 147 145 143 140 138 136 135 134 136 138 138 136 136 139 138 139 140 141 141 144 144 145 145 143 142 141 140 141 141 139 138 136 132 128 125 124 124 125 127 126 124 122 121 121 122 123 124 125 125 123 121 120 119 119 119 117 116 114 112 110 108 109 110 108 108 109 109 109 108 109 110 111 112 112 112 113 113 114 114 114 112 112 113 113 114 114 114 113 111 109 110 111 113 113 115 114 112 110 107 104 102 101 99 97 95 92 90 88 87 87 86 82 79 76 76 76 76 76 74 72 70 69 68 66 64 62 61 61 60 59 60 60 59 57 57 58 60 62 63 64 64 64 64 64 64 65 65 63 63 65 68 69 72 74 76 77 77 77 76 74 73 71 71 72 73 73 73 73 73 73 74 73 72 70 66 64 65 66 66 65 65 67 68 69 70 71 72 72 72 73 73 75 78 82 83 87 92 94 98 100 104 106 106 106 108 110 112 113 116 117 119 119 118 116 114 113 111 111 112 112 113 113 111 109 106 102 99 94 91 89 89 89 91 91 91 91 91 91 92 95 97 99 102 102 101 100 97 96 96 94 93 92 91 90 88 86 82 80 77 74 73 72 72 72 74 75 75 73 69 69 69 69 69 70 71 72 74 76 77 78 78 76 75 76 78 77 75 73 71 71 71 71 69 67 64 63 63 63 61 61 62 64 66 68 68 70 71 72 73 73 73 73 71 69 67 65 65 66 65 63 62 61 61 61 59 57 55 53 53 52 51 50 50 52 55 58 60 61 62 64 64 63 64 66 69 70 69 69 69 71 74 76 79 81 83 86 88 88 90 92 94 97 98 97 97 97 97 97 99 100 101 103 104 104 105 105 103 101 100 97 95 93 95 97 99 99 102 106 108 111 112 113 115 115 115 114 113 111 111 110 109 108 109 110 113 116 118 121 123 126 129 132 136 138 141 142 144 144 144 143 143 145 146 148 150 150 151 151 152 153 153 155 155 155 154 151 147 146 145 145 145 141 139 135 131 127 124 122 119 119 117 117 116 114 114 115 115 118 119 121 125 128 132 135 138 141 144 147 150 153 157 157 158 157 158 158 158 162 167 170 172 173 175 176 179 180 182 185 187 190 191 193 194 194 197 198 201 202 204 206 206 206 207 208 210 212 214 214 215 215 215 215 213 213 215 216 217 217 217 217 217 218 218 218 219 217 216 216 215 215 215 215 216 215 215 214 214 215 214 214 213 213 212 210 209 208 208 208 207 206 207 207 207 207 207 206 204 203 202 202 201 200 198 197 195 193 192 189 187 184 180 177 173 169 164 160 158 157 156 156 155 152 149 148 149 149 150 151 154 156 156 155 155 156 158 159 161 162 164 166 169 172 174 176 178 180 181 183 184 187 188 190 193 195 197 198 199 200 200 201
209 210 210 209 208 210 215 217 219 218 216 213 212 213 216 218 219 219 218 217 216 215 214 213 211 208 206 203 200 198 193 188 184 179 175 172 167 161 154 145 138 132 128 124 121 119 119 116 113 113 112 112 113 115 115 113 110 108 107 110 113 116 116 116 116 117 117 116 117 118 119 121 123 124 125 125 125 125 126 127 129 131 131 131 132 132 134 134 134 137 137 136 135 137 137 138 141 143 145 146 148 152 157 160 164 167 171 173 175 177 179 182 185 187 187 187 188 189 188 187 185 184 184 184 183 185 186 184 182 182 180 178 175 174 172 171 170 168 166 165 162 160 158 156 156 156 158 156 155 154 151 149 146 143 141 138 135 134 136 139 138 136 137 139 140 141 141 142 143 144 144 145 145 144 143 143 143 145 144 143 141 139 135 130 128 126 124 125 127 126 124 123 123 124 125 127 128 129 128 126 124 123 122 122 122 120 117 114 112 110 108 110 111 110 109 109 109 108 108 108 108 108 108 109 109 110 110 112 112 111 110 110 110 110 111 111 111 111 108 108 109 111 113 113 113 114 112 110 107 105 104 103 101 99 97 94 91 89 87 87 86 83 80 78 77 77 76 76 75 73 72 71 69 68 66 64 63 63 62 61 60 60 59 57 57 58 62 62 63 63 64 64 64 63 63 65 65 63 63 64 67 68 70 72 73 74 75 74 73 72 70 68 68 70 71 72 72 71 70 70 69 69 70 69 66 66 67 68 67 66 68 70 71 72 72 73 72 72 72 72 72 74 78 81 83 87 92 94 98 101 105 107 107 106 106 107 110 113 116 117 118 118 117 115 113 111 111 110 110 110 110 110 110 109 104 101 97 93 90 89 90 91 91 92 91 91 91 92 92 95 97 99 101 102 102 101 99 99 98 96 94 92 91 90 88 86 82 80 76 74 74 73 73 73 74 75 74 73 70 70 70 70 70 70 70 71 72 74 75 76 76 76 76 77 79 78 75 73 71 71 72 72 71 69 66 64 63 62 60 59 61 64 66 68 68 70 70 71 71 71 72 71 70 68 65 64 64 64 63 61 59 59 59 59 58 56 55 54 55 54 52 52 53 55 58 60 61 61 62 63 63 63 65 66 66 69 69 69 71 73 76 79 82 83 85 87 88 89 91 92 94 96 98 98 97 97 98 100 102 103 105 106 107 108 109 108 107 104 103 100 97 95 96 98 99 100 103 107 109 112 114 116 117 116 114 113 111 110 110 110 108 108 108 111 114 117 119 122 124 127 129 133 136 138 141 142 144 144 144 144 144 145 146 147 148 149 150 151 152 153 153 154 155 155 154 151 147 146 145 145 144 141 138 135 131 127 124 121 119 119 118 118 116 114 114 115 116 118 120 122 126 129 133 136 139 142 144 148 150 153 155 156 156 156 157 158 160 164 168 171 173 174 175 177 179 180 182 185 187 190 191 194 195 195 197 198 201 202 204 205 204 205 207 207 209 211 212 213 215 215 215 215 215 215 217 219 220 218 218 218 219 218 218 216 218 217 217 217 217 215 215 215 214 214 214 214 214 213 213 212 211 211 211 209 209 208 208 208 208 207 206 205 205 205 205 204 204 202 202 202 202 201 199 198 196 194 193 190 188 185 182 179 176 173 168 165 163 161 159 158 156 153 150 149 150 150 150 150 152 154 154 153 153 153 155 157 159 161 163 165 168 171 173 174 176 178 180 182 184 186 188 189 192 193 195 196 197 197 198 199
212 213 213 211 209 210 213 216 218 217 214 212 212 213 216 220 222 221 219 217 217 216 215 213 212 209 207 204 201 198 194 189 185 180 176 173 167 162 154 146 138 134 130 127 123 121 120 116 113 110 109 109 110 111 113 111 110 108 107 109 111 115 116 116 115 115 115 115 116 118 119 121 122 122 122 123 124 125 125 126 128 131 131 130 131 131 134 134 134 137 138 139 139 138 137 137 139 140 143 146 149 152 156 159 163 166 170 172 175 176 179 182 186 188 189 187 186 186 187 187 184 183 183 183 183 183 183 181 180 180 179 178 176 175 173 170 168 166 165 164 162 161 159 156 157 159 161 160 158 156 153 150 146 144 142 139 137 137 138 139 139 138 138 139 140 141 142 143 145 145 145 146 146 146 144 145 146 148 147 145 144 142 137 133 130 128 128 127 126 126 124 124 124 126 128 130 131 133 132 130 127 126 125 124 123 121 118 115 112 110 110 111 112 111 110 109 109 108 108 108 108 108 108 108 108 108 108 109 109 108 108 108 109 109 109 110 110 108 106 108 110 112 113 113 113 113 112 111 108 106 105 103 102 100 97 95 92 89 87 86 86 84 82 79 78 77 77 77 75 74 73 71 70 68 67 65 64 64 63 62 60 59 59 57 58 59 62 62 63 63 64 64 64 63 63 65 65 63 63 65 67 68 69 70 72 72 72 73 73 71 69 68 68 69 70 70 70 68 67 67 66 67 67 66 66 66 68 69 68 67 69 71 73 73 73 73 73 73 72 72 72 74 77 81 82 86 92 95 99 102 106 107 107 105 105 106 110 114 117 117 118 118 117 115 113 111 111 110 109 109 108 107 107 106 103 99 96 92 90 90 91 92 93 93 93 92 92 92 92 95 96 98 100 102 102 101 103 102 99 97 95 93 91 91 88 85 82 79 76 74 74 74 74 74 74 73 72 72 72 71 71 70 70 70 73 73 72 73 73 74 75 75 75 78 79 79 76 73 72 73 73 73 72 69 67 63 62 59 59 59 61 63 66 68 68 70 70 71 71 70 70 70 69 67 64 64 64 63 61 59 58 58 58 58 57 56 55 54 55 55 54 54 55 58 60 60 62 62 62 63 64 66 67 67 67 68 70 70 72 75 78 81 84 85 86 88 89 89 91 92 94 96 97 99 99 100 102 104 106 108 109 110 111 111 112 112 110 107 104 102 98 96 95 97 99 101 103 107 110 113 115 117 118 116 113 112 111 109 109 109 108 108 108 111 114 117 119 122 124 127 129 132 135 138 141 143 145 146 145 145 145 145 145 146 146 147 148 150 151 152 153 154 154 155 154 151 148 146 145 145 144 140 136 132 128 123 121 119 119 119 118 118 116 115 115 116 117 119 121 123 127 131 134 137 139 142 144 147 150 151 152 153 155 155 157 159 162 165 168 172 174 175 176 177 179 181 183 185 187 189 191 193 195 195 197 198 201 201 203 203 202 202 205 206 208 210 211 212 214 216 216 215 215 216 218 220 220 219 218 218 220 219 218 218 220 220 220 219 219 217 216 215 213 213 213 214 214 213 212 211 210 210 210 209 209 209 209 209 208 207 205 204 204 203 203 203 203 202 202 202 202 201 199 198 196 195 193 191 190 187 184 181 178 175 172 169 166 164 162 160 158 155 152 150 150 150 150 150 151 152 153 153 153 153 154 155 157 160 163 164 167 169 170 171 174 177 179 181 184 186 188 189 191 192 194 195 195 195 196 196
214 214 215 213 209 208 209 212 213 213 213 212 212 214 217 221 223 222 219 217 215 214 213 211 210 209 207 205 201 197 194 191 187 181 175 172 167 162 155 146 138 134 130 127 124 121 119 116 113 110 108 108 107 107 110 110 110 110 109 109 111 114 115 115 114 114 114 115 116 118 119 120 119 119 119 120 123 125 126 126 127 129 130 130 131 132 134 134 134 137 139 142 142 141 139 138 137 139 143 147 151 154 155 158 162 165 168 172 175 176 179 183 187 189 189 188 186 186 186 186 183 182 182 183 183 182 181 179 178 179 179 178 177 176 174 170 167 165 163 162 161 161 161 159 159 160 162 161 159 158 155 152 147 145 143 141 139 139 139 139 140 139 139 139 140 140 143 145 146 147 148 148 149 148 146 147 148 151 150 149 147 145 140 136 132 131 131 130 128 126 125 125 126 129 131 133 134 136 135 133 130 129 127 127 125 123 119 116 113 112 112 112 112 112 111 110 110 110 110 111 111 110 109 108 108 108 108 108 108 107 107 107 107 108 109 109 110 107 106 108 110 111 111 111 110 110 110 109 108 106 106 103 102 100 98 96 93 90 88 87 86 86 84 82 81 79 79 78 77 76 75 72 71 68 68 66 64 64 63 62 60 59 59 59 61 62 62 62 62 62 62 62 63 63 64 65 65 65 65 66 67 67 68 68 69 70 70 71 72 71 69 69 68 69 69 69 67 66 66 66 66 66 65 65 65 66 69 69 68 69 71 73 74 74 73 72 72 72 72 72 72 74 77 81 82 86 90 94 97 100 103 104 105 104 104 106 110 116 118 118 116 116 116 115 114 113 111 110 109 107 105 104 104 103 100 97 94 92 91 91 92 94 95 96 96 95 94 94 95 95 95 97 99 102 103 103 104 103 100 98 96 95 93 91 87 85 82 79 76 74 74 74 74 74 73 72 72 73 74 73 72 71 71 71 73 74 73 73 72 72 72 73 74 77 80 81 78 74 72 74 75 73 72 69 66 61 60 58 58 59 62 63 66 68 70 70 70 70 71 69 68 68 66 65 64 63 62 61 59 58 57 56 56 56 56 56 55 55 56 57 56 56 58 60 62 62 62 62 62 64 66 68 69 70 70 70 71 72 75 78 81 84 85 86 87 88 90 90 92 94 96 97 98 100 102 103 105 107 109 111 112 113 114 114 115 114 112 109 106 103 99 96 95 97 100 102 104 108 112 115 117 119 118 116 113 111 111 109 109 108 107 107 108 110 112 115 118 120 122 125 127 131 134 138 142 144 146 147 146 144 144 145 145 145 145 145 147 149 151 152 153 154 154 155 154 152 150 149 147 145 143 139 135 130 125 121 119 117 116 116 116 117 116 116 116 117 118 119 121 123 128 132 135 138 139 142 144 147 149 149 150 152 155 156 159 160 162 166 168 171 174 175 177 179 180 182 184 186 186 186 189 192 193 195 197 199 202 203 204 203 202 203 205 207 209 210 211 211 213 215 216 214 214 217 219 218 218 219 219 219 221 221 220 221 222 222 222 221 220 218 217 216 214 214 214 215 214 213 211 210 209 209 210 210 211 210 210 210 209 208 205 204 203 203 202 202 203 204 205 204 201 201 199 198 196 195 194 192 191 188 186 183 181 178 175 172 169 167 165 162 159 157 153 151 150 150 150 150 150 152 153 154 153 153 153 154 157 159 163 165 167 169 169 171 174 177 179 182 185 187 188 188 190 192 193 194 194 194 196 196
214 214 213 211 208 206 206 208 210 211 212 211 211 212 215 218 219 218 217 216 214 213 211 209 207 206 207 204 200 197 194 191 188 181 175 171 167 163 155 147 140 134 130 128 126 122 119 116 113 111 109 108 107 107 109 110 110 110 110 111 112 113 114 114 114 114 117 116 116 117 119 118 117 117 117 118 121 125 127 128 127 127 128 129 132 133 134 134 136 139 141 143 143 142 141 138 137 138 143 149 154 155 155 157 161 164 168 172 176 178 180 184 187 188 188 187 186 186 186 185 181 181 182 182 182 181 181 178 177 178 178 177 176 174 172 170 166 164 163 162 161 161 162 162 160 161 162 161 160 159 157 153 149 147 144 142 140 139 139 139 140 139 139 140 141 143 144 145 147 149 150 151 152 151 149 149 150 153 153 151 150 148 143 138 135 133 133 132 130 127 125 125 127 131 133 135 137 138 137 135 133 132 130 128 126 123 120 117 114 113 113 112 112 112 112 111 111 111 111 112 112 111 110 109 109 109 109 108 108 107 107 107 107 107 109 110 110 108 106 108 110 110 110 109 107 107 108 107 107 106 105 103 101 100 98 96 93 91 89 88 88 88 86 85 84 84 82 80 79 78 76 73 71 69 68 67 64 64 62 62 61 60 61 62 62 62 61 61 60 61 61 61 62 62 64 65 65 66 66 67 67 67 67 67 68 68 69 71 71 70 70 70 69 69 69 68 66 65 65 66 66 65 64 64 65 66 68 68 68 70 71 73 73 73 72 72 72 72 73 74 74 75 78 81 82 86 90 93 97 99 102 103 103 102 103 105 111 116 118 117 115 113 113 113 113 113 112 109 107 105 102 100 99 99 97 96 94 91 90 90 92 94 96 96 97 96 97 99 99 98 97 97 99 102 104 104 104 103 102 100 98 96 94 92 87 85 81 78 75 73 73 73 73 72 72 72 73 74 76 75 74 72 72 70 69 69 72 73 72 70 71 72 73 77 80 82 79 75 73 74 75 73 71 69 65 60 59 58 58 60 62 63 65 68 70 70 68 70 71 68 66 65 65 63 62 61 59 58 58 57 57 56 56 56 56 56 55 56 58 60 59 59 60 61 63 63 63 63 64 66 68 70 71 71 71 71 73 74 77 80 83 85 85 87 87 88 90 91 94 97 98 99 101 103 105 107 109 111 113 114 115 115 116 116 116 116 114 111 108 105 101 98 97 99 102 105 107 111 113 116 118 119 117 116 113 111 111 109 109 109 107 107 107 109 112 114 117 119 121 124 127 131 134 138 142 144 147 147 145 144 143 142 143 144 143 144 147 149 152 153 154 155 155 154 154 153 151 150 147 146 143 139 135 129 125 120 118 116 115 114 115 116 116 116 116 117 119 120 121 124 129 132 136 138 140 142 144 147 148 149 150 152 155 158 160 161 163 166 167 170 173 175 178 179 181 183 185 187 186 188 188 191 193 194 197 200 203 205 206 205 205 206 207 208 210 211 211 212 213 215 216 214 214 218 219 218 218 221 221 222 222 222 221 222 223 223 223 222 221 219 217 217 216 216 216 215 215 213 210 209 208 209 211 211 211 211 211 210 208 205 204 204 204 203 202 202 202 205 206 205 203 201 199 198 196 195 194 192 191 189 187 185 183 181 177 174 171 170 167 164 161 158 154 151 150 150 150 150 150 150 152 154 154 153 153 154 157 160 164 166 168 169 170 172 175 178 180 183 186 187 189 189 191 193 193 194 194 195 195 195
214 213 211 209 207 206 206 207 209 210 211 211 210 211 213 215 216 217 216 216 215 213 211 208 207 206 206 203 200 197 195 192 188 181 175 171 167 163 156 148 141 136 131 128 127 123 120 118 114 112 110 108 107 107 110 109 109 109 110 111 113 113 114 114 114 116 117 116 116 117 118 118 117 117 117 117 120 123 126 128 126 126 128 130 133 133 134 135 137 140 143 145 146 145 143 140 139 140 144 150 154 155 155 157 161 165 169 173 177 178 181 183 185 186 186 185 185 185 185 183 180 180 181 182 182 181 180 177 176 176 175 175 174 174 172 169 166 164 164 163 163 163 164 163 162 161 162 163 162 161 159 156 151 149 145 142 139 138 138 139 140 139 139 141 143 145 145 147 147 150 154 155 155 153 151 152 152 154 154 152 151 148 144 139 136 134 134 133 131 128 126 126 127 132 134 136 138 139 138 136 134 133 131 129 127 123 121 117 115 114 113 112 112 112 112 112 112 112 112 112 112 112 111 110 110 110 110 109 109 108 107 107 107 108 110 111 111 108 106 108 109 109 109 108 106 106 107 106 106 105 104 102 100 99 97 96 93 92 89 89 89 89 87 85 85 85 83 81 80 79 77 74 71 70 69 67 65 64 62 62 62 61 62 63 63 62 61 60 60 60 60 60 61 62 63 65 66 67 67 67 67 67 67 67 68 68 68 71 71 71 71 70 69 69 68 67 65 65 65 66 66 64 63 64 66 67 68 68 68 70 71 72 72 72 71 71 72 72 73 75 75 76 78 81 81 85 90 93 97 99 102 102 102 101 103 104 110 116 118 116 114 112 112 112 112 113 111 109 106 104 101 99 98 98 96 95 93 91 89 89 91 93 95 96 97 97 98 100 100 99 98 98 100 101 103 103 103 103 103 101 99 97 95 92 87 85 81 78 74 73 72 73 72 72 73 73 74 75 77 76 75 73 72 69 68 68 71 73 72 70 70 72 73 77 80 82 79 76 74 74 75 72 70 68 65 59 59 58 59 61 63 64 65 68 70 70 67 69 70 67 65 64 64 62 61 60 58 57 57 57 57 56 56 56 56 56 56 57 59 61 60 60 61 62 63 63 64 64 65 67 69 71 71 71 71 71 74 75 78 81 83 86 86 87 87 87 90 92 95 98 99 100 102 104 106 108 110 112 114 115 116 116 117 117 117 117 115 112 109 106 102 99 98 100 103 106 108 112 114 117 119 119 118 116 114 111 111 110 110 109 107 106 106 108 111 114 116 119 121 124 127 132 135 138 142 144 146 146 144 143 143 142 142 143 142 144 147 149 152 153 154 155 155 154 154 153 151 150 148 146 143 138 135 129 125 120 118 116 114 113 114 115 116 116 116 118 119 121 122 124 130 132 136 138 140 143 145 147 148 149 151 153 156 158 161 162 163 166 167 170 173 175 178 179 182 183 185 187 187 189 189 191 193 194 198 200 204 205 206 206 206 207 208 209 211 211 212 213 213 215 216 215 215 218 219 218 219 221 222 223 223 223 222 223 224 224 224 223 221 220 218 217 217 217 217 216 215 213 210 209 208 209 210 211 211 210 210 209 208 205 204 205 205 204 202 202 202 206 207 205 203 202 199 198 196 196 194 192 192 189 188 186 184 182 178 175 172 171 168 165 162 158 155 151 150 150 150 150 150 150 151 154 154 154 154 154 158 160 164 166 168 169 170 173 175 179 181 183 186 186 188 188 191 194 194 194 194 195 195 195
211 211 209 208 207 207 207 208 208 210 210 210 208 208 211 213 214 215 217 216 216 213 211 209 207 206 205 202 199 198 196 192 187 180 174 171 167 162 156 148 141 137 132 128 128 124 121 119 116 112 110 109 108 108 110 109 108 108 109 111 113 113 114 114 115 117 117 116 116 117 118 118 117 117 117 117 119 122 124 125 125 126 128 131 133 133 135 137 139 141 143 146 147 147 145 143 140 141 145 150 154 155 155 157 162 165 169 173 176 178 181 182 184 184 185 184 184 184 183 181 178 177 179 181 181 181 179 176 175 174 174 174 174 174 172 171 168 166 165 165 164 164 164 164 163 162 162 163 163 162 160 157 153 150 146 143 139 138 138 139 140 140 140 143 145 146 147 147 148 152 155 156 156 153 152 153 154 155 154 153 152 151 146 142 139 137 136 135 133 130 127 127 130 133 136 138 140 141 141 139 137 135 133 131 128 124 121 118 116 115 114 112 112 112 113 113 113 112 112 113 112 112 111 111 111 111 111 111 111 111 109 107 107 109 111 111 111 108 107 108 108 108 107 106 105 104 105 105 103 104 103 101 100 98 96 96 93 91 90 90 90 89 88 86 86 86 83 82 82 81 79 76 74 71 70 68 66 64 62 62 62 62 62 64 64 62 62 60 60 60 60 60 61 62 63 66 67 67 67 67 67 67 67 67 67 67 68 70 70 71 71 71 68 68 67 65 64 64 65 65 64 63 63 64 66 67 69 69 69 70 71 72 72 71 70 70 71 72 74 75 75 76 77 81 81 85 90 93 97 100 102 102 101 101 101 102 108 114 115 113 112 110 109 108 108 108 106 104 102 101 99 97 96 94 93 90 89 86 85 85 86 88 91 92 93 95 98 101 101 99 99 99 101 101 102 102 102 103 103 101 100 98 95 92 87 85 81 77 74 72 71 72 72 72 73 74 75 76 77 76 76 73 72 69 68 68 71 73 72 70 70 72 73 76 79 80 78 77 75 75 74 72 69 67 64 59 59 58 59 61 64 64 65 67 68 69 67 67 67 65 63 62 61 60 57 55 54 55 56 57 57 56 56 56 56 56 58 60 61 63 62 62 62 62 64 64 64 64 66 68 69 71 72 72 71 72 75 76 79 82 83 85 85 87 87 87 90 93 96 99 102 104 106 107 109 111 113 115 116 117 117 117 118 118 118 118 116 113 111 108 104 101 100 102 105 108 111 114 116 118 120 121 120 117 115 112 111 109 109 109 107 106 105 107 110 113 116 119 122 125 128 132 135 138 141 143 144 145 142 141 142 142 142 142 142 145 147 149 152 154 154 155 155 154 154 153 151 151 149 146 143 138 135 129 125 121 118 116 112 110 111 115 116 116 117 119 120 121 123 126 130 133 136 139 141 144 145 147 148 150 153 155 158 160 161 162 163 166 167 170 172 174 177 179 182 183 185 188 188 189 189 191 193 195 198 202 204 205 207 206 206 208 209 209 210 210 211 213 214 215 216 217 217 218 220 222 223 222 223 223 224 224 224 224 224 225 224 224 222 221 218 218 217 217 217 216 215 213 211 209 208 209 210 210 210 210 209 208 206 204 204 205 205 204 203 202 202 206 207 204 204 202 200 198 197 196 195 193 192 190 189 188 187 184 181 178 174 172 170 167 163 159 155 151 150 150 150 150 149 149 151 153 154 154 154 154 157 160 164 166 168 170 170 172 175 178 180 183 185 186 188 189 191 193 193 194 194 195 195 194
207 207 208 208 208 210 211 211 210 210 212 210 207 207 211 212 213 214 216 216 215 213 213 211 209 207 205 202 200 199 197 193 188 181 174 171 166 162 156 149 141 136 132 129 127 124 122 120 117 114 110 109 108 108 110 108 107 107 108 110 113 115 116 116 116 116 115 115 115 117 117 117 117 117 117 117 118 120 123 124 124 126 130 133 133 134 135 138 139 142 146 149 151 152 150 147 144 144 146 150 153 155 155 158 162 165 167 170 174 177 179 182 183 184 184 184 184 184 182 178 174 174 176 177 178 179 177 175 174 174 174 176 177 176 175 173 170 168 169 168 166 166 166 167 167 164 165 166 167 164 161 158 154 151 147 143 140 139 140 141 141 141 143 147 149 150 149 150 152 155 158 159 157 155 155 156 157 156 155 155 154 152 148 144 141 140 139 137 135 132 130 129 131 135 138 141 142 144 144 142 139 137 135 132 129 126 123 120 117 116 115 114 113 113 113 113 113 113 114 113 112 112 112 112 112 112 112 113 113 113 111 109 108 108 108 108 108 108 108 107 107 107 106 104 103 103 104 103 102 102 102 100 100 99 98 96 92 90 90 90 90 89 88 85 85 84 83 82 82 82 82 79 76 73 71 70 69 67 65 62 61 60 60 61 62 63 63 62 60 60 60 60 61 62 63 66 68 69 68 67 66 66 66 66 65 66 67 68 68 70 71 71 69 68 66 64 63 64 64 64 63 62 63 64 66 67 69 69 70 71 71 72 71 70 69 69 69 70 73 74 75 78 79 81 83 86 89 93 96 100 102 102 101 101 101 101 106 111 111 110 108 107 106 105 105 104 103 101 101 101 98 97 94 92 90 88 87 85 84 84 85 87 89 89 90 92 95 98 97 95 96 98 98 99 100 101 102 102 101 101 100 98 95 92 87 85 81 77 73 71 70 70 69 70 72 74 76 76 77 76 76 73 72 70 68 68 70 73 73 72 71 72 73 76 77 78 78 77 76 75 73 71 69 66 64 59 59 58 58 61 64 64 65 67 68 68 67 65 64 62 61 59 58 56 54 53 53 54 56 57 58 58 58 58 58 59 61 63 64 65 65 64 63 63 64 64 65 67 68 69 70 72 72 72 73 75 76 78 80 82 83 85 85 87 87 88 91 94 97 100 104 106 108 110 111 113 115 117 118 119 119 119 120 120 120 119 118 115 113 110 106 103 103 104 107 110 112 115 118 120 123 123 122 120 117 115 111 109 109 109 108 106 104 105 107 112 116 119 122 125 128 132 134 137 139 141 143 143 142 141 142 143 142 142 144 146 147 149 152 154 155 156 156 154 154 153 152 152 149 147 143 138 135 130 126 122 119 116 112 110 112 116 117 118 119 120 121 123 126 128 132 134 137 140 141 144 145 147 148 150 154 156 159 161 162 163 164 166 167 170 171 173 177 178 181 182 185 187 188 190 190 191 194 196 199 202 205 205 207 206 206 208 209 209 210 210 211 212 214 216 217 219 219 219 221 223 224 225 224 225 225 226 226 226 225 224 224 224 223 222 219 218 217 217 217 216 216 214 212 209 208 209 210 209 209 208 207 206 205 204 204 206 207 206 205 203 203 205 205 204 204 204 202 200 199 198 196 195 194 192 191 191 189 186 183 180 176 175 171 168 164 160 157 153 149 149 150 150 149 149 150 153 154 154 154 154 157 159 164 166 168 169 170 172 174 177 180 182 185 186 188 189 190 191 192 193 193 194 194 194
206 206 208 208 209 211 212 211 211 211 213 211 208 209 211 211 213 213 215 214 211 213 214 212 210 208 206 204 201 199 197 193 189 182 176 172 166 162 156 148 140 135 132 129 126 123 121 120 117 114 111 111 111 110 110 108 107 107 108 110 114 116 118 119 118 116 115 115 115 117 117 114 114 115 117 117 119 121 123 125 126 128 131 134 134 136 137 140 142 145 149 152 155 155 154 151 148 148 149 151 153 156 158 160 162 165 167 169 172 176 179 182 183 183 183 183 183 183 182 179 174 174 174 175 177 177 176 175 175 176 178 179 179 178 176 173 171 169 170 170 168 168 168 169 168 167 168 169 168 164 161 158 155 152 148 144 141 142 143 143 142 143 146 149 151 151 151 152 154 157 159 159 157 157 157 158 159 158 158 158 157 155 151 147 144 142 141 139 137 133 130 130 132 136 140 143 145 146 146 144 142 139 136 133 130 128 125 121 119 117 116 115 114 114 114 113 113 114 114 113 113 113 113 113 113 113 113 114 114 113 112 110 108 108 107 107 107 109 109 108 107 106 105 104 103 103 103 103 102 102 102 101 101 101 99 97 93 90 90 90 90 88 87 85 85 84 82 82 82 82 82 80 77 73 72 71 71 69 67 64 61 59 59 60 60 61 63 62 61 61 60 61 62 63 63 66 68 70 69 67 66 66 66 65 64 65 66 66 66 67 70 70 69 68 65 64 63 64 64 64 63 62 63 63 65 66 69 69 69 70 72 72 71 70 69 69 68 69 73 75 77 79 80 82 83 86 88 91 95 98 101 102 101 100 100 102 105 108 108 107 107 106 106 104 103 103 102 101 101 101 98 97 93 91 90 87 87 85 84 84 85 86 88 88 90 92 94 97 96 95 95 97 98 98 100 100 101 101 101 100 100 98 95 92 87 85 81 77 73 71 70 69 69 69 69 71 73 74 75 74 73 72 71 70 68 67 68 70 72 72 72 72 73 74 75 75 75 76 76 74 72 70 68 65 64 60 59 57 57 60 63 64 65 67 68 68 66 64 61 60 59 57 56 54 53 53 53 54 55 58 59 60 60 60 61 61 63 65 65 66 66 65 64 64 64 65 67 69 69 70 70 72 72 73 74 75 77 78 80 82 83 85 85 87 87 88 92 95 98 102 106 108 110 112 114 116 118 120 121 121 121 120 120 120 120 120 119 116 114 112 108 105 105 106 109 111 113 116 120 122 124 125 124 122 119 116 112 109 109 109 108 106 104 104 106 110 115 119 122 125 128 131 133 135 138 140 142 142 142 142 142 142 140 142 145 146 148 150 152 154 155 155 155 154 154 154 153 152 149 146 142 138 135 132 127 123 120 117 114 114 115 117 118 119 120 121 122 124 127 130 133 135 138 140 141 144 144 146 148 150 154 157 160 161 163 164 164 167 169 170 171 173 177 178 181 181 184 186 188 190 190 193 195 198 200 202 205 205 206 206 206 207 208 208 208 209 211 212 214 217 220 221 221 222 223 225 226 226 226 226 226 227 227 227 226 224 224 224 223 223 220 218 217 217 217 216 216 215 212 210 209 209 209 209 208 207 206 205 204 204 205 206 207 207 205 204 204 205 205 205 205 204 202 201 200 199 198 196 195 194 193 192 191 188 186 182 179 177 174 170 165 162 159 155 151 149 150 150 149 148 148 150 153 154 154 154 157 161 164 166 168 169 169 170 173 175 178 180 182 185 187 187 188 190 191 192 193 195 194 194
207 207 208 210 211 211 212 211 211 211 212 211 210 211 213 212 213 214 214 213 211 213 213 212 210 209 206 205 201 197 194 191 188 183 177 173 166 161 155 148 141 136 133 129 125 121 119 117 116 114 114 114 114 112 110 108 108 107 109 111 114 117 119 121 119 116 114 114 115 116 116 114 114 115 117 119 121 123 125 129 129 129 130 132 133 136 138 141 143 148 151 153 155 155 154 154 152 152 152 154 155 157 159 161 163 165 166 168 172 176 179 181 182 182 181 181 180 182 182 180 175 174 174 175 176 177 177 177 179 180 181 181 180 179 176 172 170 170 170 170 170 170 170 169 168 168 168 169 168 164 162 160 157 153 149 144 142 143 144 144 144 146 147 149 151 151 152 154 155 160 161 159 159 159 160 160 160 161 162 162 160 159 156 152 149 146 145 141 137 134 131 131 132 137 140 144 146 147 147 145 143 140 137 134 131 128 126 123 121 119 118 117 116 115 115 115 115 116 115 115 115 115 116 116 115 115 115 116 115 113 112 111 109 108 109 109 109 109 110 110 109 107 105 104 103 103 103 103 104 103 103 102 102 102 101 98 96 94 93 92 90 87 87 86 86 85 83 83 82 82 81 80 77 73 72 73 73 71 68 66 63 60 59 58 59 61 61 62 63 62 62 63 63 63 63 65 68 70 69 67 65 65 65 63 63 63 64 66 66 67 68 68 68 66 64 63 63 65 65 64 63 63 63 63 65 66 67 68 69 70 72 72 71 70 68 68 68 69 73 76 77 80 81 82 83 85 87 89 92 95 98 100 101 100 100 103 105 107 107 107 107 107 106 104 103 103 103 103 103 102 100 97 94 91 90 88 88 87 86 87 88 89 88 87 90 92 94 96 96 95 96 97 98 100 101 101 101 102 102 102 101 100 96 92 88 85 83 79 76 74 71 69 69 69 69 69 70 71 71 71 70 68 68 68 66 66 67 68 69 70 71 72 72 72 73 72 72 74 73 72 71 69 67 65 63 59 57 56 56 59 62 63 65 66 67 65 63 61 58 57 56 55 54 54 53 54 56 57 58 60 62 62 62 63 64 64 66 67 67 67 67 65 64 64 65 67 69 71 72 71 72 72 73 73 75 75 76 77 78 81 83 85 86 87 87 88 93 96 100 103 107 110 112 114 117 119 121 123 123 123 123 121 120 120 121 121 120 118 116 114 111 108 107 108 111 113 115 118 121 124 127 127 127 124 122 118 114 111 110 109 108 106 103 103 105 109 113 117 121 125 127 130 131 133 135 138 139 140 141 142 142 142 141 144 145 148 150 152 153 155 155 155 155 155 155 155 153 152 148 146 142 139 136 133 128 124 121 118 116 116 116 118 119 120 121 122 123 125 128 130 133 135 138 141 141 143 144 146 147 150 155 157 160 161 163 164 165 168 170 171 172 174 177 179 180 181 183 186 187 190 191 194 196 198 201 201 202 203 204 204 204 205 207 207 208 210 212 214 216 219 222 223 223 224 225 227 228 228 228 228 227 228 228 227 226 224 224 224 223 223 220 218 217 217 217 216 216 215 212 210 210 210 209 208 208 206 206 204 204 204 206 206 206 206 206 206 205 206 206 207 205 204 202 201 201 202 201 199 197 196 195 194 193 190 188 184 181 179 175 171 167 163 160 157 155 153 150 150 149 149 148 148 150 153 153 155 158 161 164 166 168 167 168 169 172 173 176 179 181 183 184 185 187 189 190 192 193 194 194 194
210 208 208 209 210 211 212 212 211 210 210 211 211 213 214 213 213 215 214 213 214 213 213 211 210 209 208 205 200 196 191 187 185 182 176 172 165 158 153 148 142 138 134 131 125 121 119 116 115 115 115 116 114 113 110 109 110 109 111 114 117 118 121 121 119 115 113 113 114 115 117 118 117 118 119 120 122 124 126 130 128 129 130 130 132 135 139 143 145 149 151 153 153 155 155 157 157 155 154 156 157 158 160 161 163 165 165 168 171 175 179 180 180 179 178 178 177 177 178 177 174 174 174 176 177 178 178 180 182 182 181 180 179 177 174 171 170 170 170 170 171 171 170 170 167 167 167 167 166 166 164 162 159 155 151 146 145 145 146 146 146 148 148 148 151 151 153 155 156 160 161 160 160 161 161 161 161 165 165 164 162 161 160 158 155 152 148 143 139 134 131 131 132 137 140 143 146 147 147 146 143 140 139 136 133 130 128 125 122 120 118 118 117 116 116 116 117 117 116 116 116 117 117 118 117 117 117 117 116 114 112 111 110 110 110 111 110 110 111 111 110 108 108 106 105 104 104 104 104 103 103 103 103 103 101 99 96 95 94 93 90 88 87 86 87 86 84 84 82 81 80 79 76 74 73 74 73 72 68 67 63 61 59 58 59 61 61 60 62 62 63 63 64 64 64 64 66 68 68 67 64 64 63 63 62 63 63 65 66 66 67 67 66 65 63 63 63 64 64 63 62 62 63 64 65 65 67 68 69 70 72 72 71 70 67 67 68 69 72 75 77 80 81 82 82 84 87 88 91 94 96 99 101 100 100 103 105 107 107 107 108 108 107 105 105 105 105 106 104 103 101 98 95 92 90 89 89 88 88 89 90 90 89 88 90 92 93 94 96 97 98 98 100 101 102 102 102 103 104 104 104 102 98 94 90 86 83 80 77 75 73 70 69 69 68 67 68 69 70 69 68 67 66 66 65 65 67 67 69 69 70 71 71 72 72 71 71 71 70 69 68 67 66 64 61 57 55 53 55 57 60 61 62 62 62 61 60 58 56 55 55 54 54 54 54 55 57 59 61 62 64 65 65 65 66 67 69 69 69 69 67 64 64 64 66 68 70 71 72 72 72 73 73 74 74 74 75 76 78 81 84 86 87 87 87 90 94 98 101 105 108 111 114 116 119 121 122 124 124 125 124 122 121 121 122 121 121 119 117 115 112 110 109 110 112 115 117 119 122 125 128 129 128 126 123 120 116 112 111 110 109 106 103 103 105 108 112 117 120 123 126 128 129 130 132 135 137 139 139 140 141 143 144 146 147 149 151 153 154 156 156 155 155 155 155 155 153 152 148 146 143 141 138 134 129 125 122 119 117 117 118 120 120 121 122 123 124 126 128 130 133 135 138 141 141 143 144 146 149 152 155 157 160 161 163 164 167 169 171 172 173 175 178 179 179 180 183 186 188 190 191 194 196 198 199 200 201 201 202 203 203 205 206 208 210 212 214 216 219 222 224 225 224 225 227 229 230 230 229 229 228 228 228 226 225 223 223 223 223 221 220 219 217 217 217 216 216 215 212 210 210 210 209 208 208 207 207 205 204 204 206 206 206 206 206 206 206 207 207 207 205 204 202 202 203 203 203 201 199 197 196 195 193 191 189 186 183 181 177 173 169 165 162 159 157 154 150 150 150 149 149 147 147 150 153 157 159 162 164 164 164 164 166 168 170 172 174 177 180 182 183 184 186 188 189 191 192 193 194 194
211 211 208 208 210 210 211 210 209 208 207 209 211 213 214 213 213 214 211 213 214 213 213 211 210 209 208 205 200 197 192 187 185 181 174 171 164 158 152 148 142 138 135 131 126 123 121 119 117 116 115 115 114 112 110 109 110 110 114 116 118 121 122 121 117 114 113 113 113 115 118 121 121 120 120 122 124 126 127 130 128 129 129 129 132 134 139 143 145 149 150 150 151 155 157 157 157 156 155 157 157 159 160 161 162 163 163 165 168 173 176 177 177 176 176 175 173 172 173 172 171 171 173 177 179 179 179 180 182 182 181 180 178 176 173 170 170 170 171 172 172 172 170 170 167 166 165 164 165 168 165 163 160 157 153 150 148 148 149 150 149 150 150 150 151 151 154 156 157 159 161 162 163 163 163 163 164 168 168 166 164 161 161 159 158 155 151 145 140 136 133 133 134 137 141 143 145 147 148 146 143 141 140 139 136 133 130 127 123 121 119 119 117 117 116 117 118 117 116 115 116 117 118 118 119 119 119 118 116 114 112 111 111 112 113 113 113 113 114 114 112 111 109 108 106 105 104 104 105 104 104 103 103 103 101 99 97 96 94 93 91 89 89 89 89 88 86 85 83 81 79 78 77 77 75 73 72 70 68 66 63 62 60 59 60 59 58 58 60 61 63 64 64 63 63 63 64 66 66 65 64 63 62 63 62 62 62 63 65 66 66 66 65 62 61 61 62 64 64 62 61 61 62 64 65 65 67 68 69 69 70 72 72 70 68 67 68 69 72 75 77 80 82 83 84 85 87 88 90 93 95 97 100 101 102 105 108 109 109 109 109 108 106 106 107 107 106 107 105 104 102 99 97 94 92 91 90 88 87 89 91 91 89 89 89 91 92 94 96 98 98 100 101 101 103 103 103 105 107 107 105 103 100 95 90 87 84 81 78 77 75 72 70 69 66 63 65 68 67 66 65 65 65 65 64 64 66 67 67 67 68 69 70 71 71 70 70 69 67 66 66 65 64 63 61 56 55 53 53 55 57 58 59 57 56 56 57 56 55 54 53 53 54 54 56 57 58 60 62 64 66 67 68 68 68 68 69 70 70 71 68 65 65 67 69 69 70 71 72 73 73 73 72 71 71 72 75 76 79 82 85 87 87 88 88 91 95 99 103 106 110 113 116 119 121 123 125 125 125 126 126 124 123 122 122 122 122 121 119 117 114 112 111 112 114 117 119 121 123 127 130 131 131 129 126 122 119 114 112 110 109 107 105 104 105 108 112 116 119 121 123 125 127 127 129 132 134 136 136 138 140 143 145 148 148 150 152 154 155 156 156 155 155 155 155 155 154 152 150 147 144 142 139 135 130 127 124 120 118 118 119 121 122 122 123 124 126 127 129 130 132 134 137 139 141 143 144 147 151 153 156 158 160 161 164 165 168 171 172 174 175 176 177 177 177 180 182 186 188 190 191 194 196 197 197 198 198 200 201 203 204 205 208 211 213 215 217 219 221 223 225 226 226 226 228 230 232 232 231 230 229 228 228 226 225 223 222 221 221 220 219 218 217 217 217 217 216 215 213 211 210 210 209 208 208 207 207 206 206 206 206 206 205 205 206 207 207 207 207 207 206 204 204 204 205 205 205 203 201 199 198 197 196 193 190 187 185 183 179 175 170 166 163 161 159 155 151 150 150 150 150 148 147 148 151 157 160 163 163 163 161 162 164 165 168 171 173 175 178 180 181 182 184 186 188 190 191 192 193 193
211 213 210 208 209 208 208 208 208 207 207 208 210 211 213 213 213 213 212 212 212 213 213 211 210 209 207 205 201 199 195 190 185 180 174 170 163 158 153 148 142 138 133 129 126 124 122 120 117 117 115 115 113 112 111 110 110 111 114 117 119 121 122 119 115 114 115 115 114 115 119 122 122 121 122 123 124 127 128 130 131 131 129 131 134 136 139 143 145 149 149 148 150 154 156 157 157 156 155 157 158 159 159 160 161 162 163 164 168 171 173 175 174 174 174 172 171 169 168 168 167 170 173 178 179 179 179 179 180 181 181 180 177 175 172 170 170 171 172 172 171 170 168 168 167 165 163 162 164 166 165 164 160 158 154 151 148 149 150 151 151 151 150 150 150 151 154 156 157 160 163 167 167 167 166 165 167 171 171 169 166 163 162 159 159 156 151 146 142 138 136 135 137 139 142 144 146 148 148 146 143 142 142 141 138 136 132 129 125 123 121 120 119 118 117 118 118 117 116 115 115 116 118 118 119 120 120 119 117 115 112 112 112 113 114 114 114 114 115 115 113 112 110 109 106 106 106 106 105 105 105 105 104 103 101 99 98 97 94 93 91 90 90 91 90 89 87 86 84 83 81 80 79 78 76 73 71 70 67 65 63 63 62 62 61 58 56 56 57 60 63 64 63 62 61 61 62 64 65 65 64 63 62 63 62 62 62 63 64 66 66 65 64 61 59 60 62 64 64 61 60 60 62 63 65 65 67 68 69 68 69 71 72 71 69 68 68 69 72 75 78 82 84 85 85 86 87 88 90 92 95 96 99 101 102 106 109 110 110 110 109 108 106 106 107 107 107 107 105 105 102 100 97 95 93 91 91 88 87 87 90 90 88 88 88 91 92 94 95 98 99 100 102 102 102 102 104 106 108 107 106 103 100 96 91 88 85 82 79 77 76 72 71 69 66 63 65 66 65 65 65 65 65 64 64 64 65 65 65 65 66 68 69 71 71 70 69 68 66 65 65 64 63 62 60 56 55 53 54 55 57 58 58 56 54 54 56 55 55 54 53 53 54 55 58 59 60 61 63 65 66 68 69 69 69 69 69 69 71 71 69 67 69 70 71 70 70 71 72 72 72 71 70 69 70 71 75 76 80 84 86 87 87 88 89 92 96 100 104 107 111 114 117 120 123 124 126 126 126 126 127 126 124 123 123 123 123 121 119 118 115 113 113 114 116 119 120 122 125 128 131 133 133 132 129 125 120 116 113 110 108 107 105 105 106 108 113 116 118 119 120 122 124 126 128 131 133 135 135 138 141 144 147 150 151 152 154 155 156 157 157 156 155 155 155 155 154 153 150 148 145 143 140 136 132 129 125 121 118 118 119 121 122 123 124 126 127 128 129 130 132 133 136 138 140 143 145 149 152 155 157 158 160 161 164 166 170 172 174 175 176 177 176 176 176 179 182 185 187 190 191 193 194 195 195 196 197 200 202 205 206 208 210 213 215 217 219 221 223 225 227 228 227 228 229 231 233 233 231 231 229 228 227 226 226 223 222 221 220 219 218 217 217 217 217 217 217 216 213 212 211 211 210 209 209 208 207 207 207 207 206 206 205 205 205 207 207 207 207 207 207 205 205 205 206 206 207 206 203 201 200 199 198 196 193 190 187 184 181 176 171 167 164 161 159 156 153 150 150 150 150 149 147 148 150 156 161 164 163 161 160 161 163 164 167 169 172 174 176 178 180 181 183 185 187 189 190 192 192 192
210 211 210 209 208 208 206 206 206 205 206 208 209 210 212 213 213 214 212 212 212 213 213 211 210 209 206 204 201 199 195 190 186 180 174 170 164 159 154 150 144 138 132 127 124 123 122 118 116 116 116 115 114 114 115 113 111 111 114 117 119 121 120 118 114 113 114 115 115 115 119 122 122 122 123 125 125 126 128 130 131 133 131 132 135 137 141 144 146 149 149 149 151 152 153 155 156 156 156 159 160 160 160 159 160 160 162 164 168 170 171 172 172 172 173 171 170 168 166 165 166 169 173 178 179 179 179 179 179 179 179 178 177 174 172 171 171 170 170 170 169 169 167 166 164 161 161 161 163 163 163 162 159 156 152 148 146 147 149 150 151 151 149 148 149 151 154 156 157 161 164 168 170 169 168 168 168 171 172 171 169 164 162 160 159 156 151 147 142 139 138 138 140 142 144 147 148 148 147 146 143 143 143 141 139 136 134 130 126 124 123 121 121 120 119 118 118 118 117 117 117 117 118 119 119 119 118 118 118 115 113 113 114 115 115 116 116 116 116 116 114 113 111 109 108 108 109 107 107 107 108 106 105 103 100 99 98 97 94 92 91 91 92 91 91 90 88 87 86 84 83 82 81 79 77 74 71 70 66 65 65 65 64 64 62 59 57 56 56 59 61 62 61 61 59 59 60 62 64 65 66 65 64 64 62 62 62 61 62 65 65 64 62 59 59 59 61 62 62 61 60 60 62 63 64 64 65 68 68 68 68 69 70 70 69 69 70 70 73 76 80 84 86 87 87 89 89 90 91 92 93 95 97 99 101 104 107 109 110 110 109 108 106 107 108 107 107 105 104 103 102 100 97 96 94 91 90 88 87 87 89 89 88 88 88 91 92 94 95 99 99 100 102 102 102 103 106 108 108 107 106 104 101 97 92 88 86 84 80 78 76 72 71 69 66 64 65 65 66 65 66 65 66 66 66 65 65 65 63 63 64 66 68 70 71 70 69 67 65 64 64 62 61 59 58 56 55 55 56 57 58 59 59 56 54 53 54 55 55 55 55 55 56 58 60 62 63 64 65 66 67 68 69 69 69 69 69 70 72 71 69 70 71 73 73 72 71 71 70 70 70 68 67 68 69 71 75 77 81 84 86 86 86 88 91 93 97 100 105 107 111 115 117 121 123 126 126 127 127 127 128 128 126 124 123 123 123 121 120 118 117 115 115 116 118 120 122 123 126 130 133 135 136 135 132 127 122 117 114 110 107 105 103 104 106 108 113 115 116 117 118 120 123 125 128 131 133 135 136 140 143 146 150 152 152 153 155 156 157 158 158 157 157 156 155 155 155 153 151 148 145 143 141 137 134 131 127 122 119 119 119 121 122 124 125 127 129 128 130 131 132 133 135 138 140 143 145 150 153 155 158 158 160 162 165 167 170 173 174 175 175 176 176 176 176 178 182 185 186 189 189 190 191 192 192 195 197 201 204 207 209 210 212 214 216 219 221 223 225 226 228 230 229 229 230 232 232 232 231 230 229 227 227 227 226 224 223 221 219 218 217 217 216 216 216 216 216 216 214 212 211 211 211 210 210 210 209 209 208 207 206 205 204 203 204 205 206 207 207 207 206 206 206 206 206 206 208 209 207 204 202 201 200 198 195 192 188 186 182 176 172 167 164 161 159 158 155 151 150 150 150 149 149 148 148 153 160 162 162 161 160 160 162 163 166 168 171 173 175 177 179 181 182 183 185 187 189 190 190 190
209 209 208 208 209 208 205 205 204 204 205 207 208 210 212 212 213 214 214 212 212 213 213 211 211 209 206 204 201 198 194 190 186 180 173 169 164 159 154 151 144 139 132 126 124 121 120 118 116 116 116 116 116 115 115 113 112 112 113 116 119 121 119 117 113 112 112 115 116 118 120 122 123 123 125 126 126 126 127 129 130 131 132 133 136 139 143 145 146 148 150 151 151 151 152 154 156 156 157 160 160 159 158 158 159 159 162 164 167 168 169 170 171 172 172 171 170 168 165 165 166 168 173 177 178 179 179 180 180 179 177 175 174 174 172 170 168 168 167 166 165 165 164 161 158 157 157 158 161 161 160 159 156 152 148 145 145 147 148 150 150 150 148 148 149 152 155 157 158 161 164 168 170 169 169 168 168 170 172 172 170 167 164 162 159 156 152 147 142 140 139 139 141 143 145 148 149 149 147 146 143 143 143 141 140 137 135 132 128 126 124 123 122 122 121 121 120 119 119 119 119 119 119 119 119 118 118 117 117 115 114 115 116 116 116 117 117 117 118 118 116 114 113 111 109 109 110 110 109 109 109 108 106 103 101 99 98 97 95 93 93 93 93 91 90 90 88 88 87 85 83 82 82 79 77 74 71 69 67 66 66 66 65 64 63 59 57 57 56 58 59 60 60 59 58 59 59 62 63 65 67 66 65 64 62 61 61 61 62 64 64 62 60 59 59 59 61 61 61 60 59 60 62 63 63 63 64 67 68 67 67 67 68 69 69 69 71 71 74 77 81 85 87 88 88 89 90 91 92 92 92 94 96 98 100 102 105 108 109 109 108 108 108 108 109 108 107 104 103 102 101 99 97 96 95 91 90 88 88 88 89 89 89 88 89 91 91 93 95 98 99 99 100 101 103 103 106 108 108 107 106 104 101 98 92 89 86 85 81 79 77 72 71 69 67 66 65 68 69 68 68 67 67 67 67 66 65 65 62 62 63 64 65 67 69 69 67 66 64 63 62 60 58 56 55 55 56 57 58 59 59 59 59 56 54 53 53 55 55 56 57 58 59 61 63 64 65 66 66 67 67 68 69 69 69 69 70 71 72 70 70 71 73 75 75 73 71 69 68 68 67 67 67 67 69 72 75 77 81 83 84 85 85 89 91 94 97 100 104 107 111 114 117 120 123 127 127 128 128 129 129 129 127 124 124 123 123 121 120 119 118 116 117 118 120 122 124 125 128 132 135 138 138 137 134 129 123 117 114 109 106 103 101 103 106 108 112 114 115 117 117 120 123 127 130 133 135 138 139 142 146 149 153 154 154 155 157 158 159 160 159 159 158 157 156 156 155 154 151 149 146 143 142 138 135 132 128 123 119 119 119 121 122 124 125 128 129 130 130 132 132 132 135 138 140 143 147 151 153 155 158 158 160 162 166 167 170 173 173 174 174 174 175 176 177 180 182 185 186 187 188 188 189 189 191 195 200 204 207 209 211 212 214 216 218 221 224 226 227 228 230 230 230 229 230 232 232 232 230 230 229 228 228 228 227 225 224 222 219 218 217 217 216 216 216 216 216 215 214 212 211 211 211 210 209 210 209 209 209 208 206 205 203 203 203 204 205 206 206 206 205 205 206 206 207 208 209 210 208 205 204 203 202 200 197 193 189 187 182 177 172 168 164 162 161 160 158 153 150 150 150 150 150 148 148 150 155 159 161 161 160 161 162 163 165 168 171 172 175 176 179 180 181 183 184 185 187 188 189 189
209 208 207 208 208 207 205 203 203 204 205 207 207 210 213 213 212 212 212 212 212 212 212 211 210 209 206 205 202 198 193 189 184 178 171 168 163 159 154 151 145 141 135 129 124 120 120 121 118 117 116 119 117 115 115 112 110 112 113 114 116 119 118 115 112 111 111 115 118 120 122 124 124 126 129 128 127 127 127 129 130 133 133 134 137 140 143 144 145 146 148 150 150 151 152 155 157 157 158 158 158 157 156 157 158 160 162 164 164 165 166 167 169 170 171 171 170 166 164 164 166 169 173 177 179 179 180 180 180 178 175 173 172 172 170 166 165 164 163 161 159 159 158 157 154 152 153 153 155 155 156 155 152 148 144 142 144 147 149 150 150 150 150 149 150 152 156 157 159 162 165 168 169 168 168 168 167 168 170 172 171 168 166 163 160 157 152 146 142 140 140 141 144 145 147 148 149 149 148 147 144 144 144 142 140 137 136 132 129 127 125 125 124 123 123 122 122 121 121 121 121 120 120 120 119 118 117 116 115 115 116 118 118 118 119 119 120 120 120 118 117 114 113 112 111 111 112 112 112 111 111 109 107 105 103 101 100 99 98 96 96 96 94 92 90 90 89 89 87 85 83 82 80 78 75 73 70 69 67 65 65 64 63 62 60 58 56 56 56 56 56 57 57 56 57 58 59 62 64 67 68 67 65 64 62 62 62 62 63 64 61 59 58 58 60 62 61 60 60 60 60 61 62 63 64 63 64 67 68 66 65 64 65 66 67 69 71 73 76 79 82 86 88 89 90 90 91 91 91 91 90 92 95 98 99 102 105 107 107 108 109 109 110 110 110 108 107 104 102 101 100 98 97 95 94 91 90 89 89 89 90 91 90 90 90 91 91 93 94 97 98 98 98 100 103 103 106 106 106 107 106 104 101 97 92 90 87 85 83 80 77 72 70 68 67 67 69 70 71 70 70 69 69 69 70 69 68 65 62 62 60 61 62 64 66 66 64 63 62 60 59 57 55 53 53 55 57 58 59 60 59 58 58 56 54 54 55 56 57 58 60 61 63 64 65 66 67 68 69 69 69 70 70 71 71 71 71 71 72 72 72 73 74 75 75 72 67 65 64 66 66 67 68 68 70 73 76 79 81 82 83 85 86 90 92 94 97 100 102 106 109 112 115 119 123 127 128 128 129 129 129 129 126 124 123 122 122 121 120 120 119 119 119 120 122 124 126 126 129 133 137 139 141 140 137 131 125 117 113 107 103 101 101 101 105 108 111 114 115 117 117 121 124 128 132 134 137 140 141 144 148 151 154 156 156 157 158 159 161 162 161 160 159 158 156 156 156 155 153 150 147 145 144 140 137 134 130 124 120 120 119 120 121 123 125 128 129 131 132 133 132 132 135 138 140 144 147 152 153 155 158 158 160 163 167 168 170 172 172 172 173 173 175 176 178 181 183 184 184 185 186 186 187 188 191 197 202 206 208 210 212 213 214 216 219 222 225 227 228 230 231 231 230 230 231 232 233 232 230 230 229 229 229 229 228 226 225 223 220 218 217 217 217 216 216 215 215 213 213 212 211 211 210 208 207 207 207 207 207 208 206 205 204 203 203 204 204 205 205 205 205 204 205 205 208 208 209 209 207 205 204 203 203 202 198 194 190 188 184 179 175 171 167 165 163 161 158 154 151 150 150 150 150 149 148 148 150 155 159 160 160 161 162 163 164 166 168 170 173 176 177 178 178 180 181 182 184 186 186 187
208 206 205 206 206 205 203 201 201 202 204 206 207 210 212 212 211 210 210 211 211 210 209 208 208 208 206 205 202 199 193 189 183 177 171 168 164 159 154 151 146 142 136 131 125 121 121 121 121 121 117 119 117 115 112 109 108 109 109 110 112 113 113 113 111 111 111 115 118 121 123 125 126 129 131 130 129 128 129 130 131 134 134 134 136 138 140 141 141 142 144 147 150 151 153 155 156 156 156 157 157 156 156 157 158 160 163 163 164 164 164 163 165 167 169 169 166 163 163 165 167 170 173 177 179 179 179 179 177 174 173 172 170 167 164 160 159 158 157 155 153 153 153 152 150 148 149 149 149 152 153 151 149 145 143 142 144 148 149 149 150 151 151 149 150 152 156 158 160 163 166 168 168 167 167 167 167 167 169 171 171 169 167 165 161 158 151 146 142 142 143 144 145 147 148 149 149 149 148 148 146 145 144 142 140 139 137 134 131 128 127 126 125 125 124 123 123 122 122 123 122 121 120 120 119 117 117 115 115 115 116 119 119 120 120 121 122 123 122 119 117 115 113 112 112 112 113 114 114 114 112 110 109 107 105 103 102 101 100 100 99 98 96 93 91 90 89 89 86 85 84 83 81 79 76 73 69 68 66 65 64 64 63 61 60 57 55 54 53 52 52 53 53 53 54 57 59 62 64 66 67 67 65 63 62 62 62 63 63 62 60 58 57 58 61 62 62 60 60 61 61 62 62 63 64 64 64 66 67 65 63 63 64 65 67 69 72 74 77 80 82 85 88 90 91 91 91 91 90 90 90 92 94 98 99 102 105 106 107 107 110 110 110 111 109 107 106 103 101 101 99 98 96 94 93 91 90 89 89 90 91 92 90 90 90 91 91 93 95 97 97 98 98 99 103 103 105 105 105 106 106 104 101 97 91 90 87 86 84 80 77 72 70 68 66 67 70 70 71 71 71 70 70 71 72 71 69 66 63 62 59 58 59 61 63 62 61 60 59 58 56 54 53 53 54 57 58 59 60 61 59 58 56 55 55 55 57 58 59 61 62 63 64 65 66 67 68 69 70 70 70 71 71 72 73 73 73 72 74 75 75 74 74 73 72 67 63 62 63 66 68 70 70 71 73 75 78 79 81 82 83 85 88 91 93 94 96 99 101 105 108 112 114 119 122 125 126 126 127 128 129 127 124 123 122 121 121 121 121 121 120 120 121 122 123 126 127 128 131 135 139 141 143 142 138 133 126 117 113 106 102 101 101 101 104 108 110 113 114 117 117 121 124 128 133 135 139 141 142 146 150 154 156 157 158 158 160 161 162 163 162 161 160 159 157 157 156 156 154 151 148 147 145 143 139 136 132 126 121 120 119 119 120 121 123 126 129 132 133 133 132 133 135 138 141 144 147 151 153 156 158 159 161 164 167 169 170 172 172 172 173 174 175 176 179 181 183 183 183 184 185 186 187 189 195 200 204 207 209 211 212 213 214 216 219 222 225 227 229 231 231 231 231 231 231 232 233 233 231 230 230 230 230 229 229 227 226 224 221 219 217 217 218 217 217 214 213 213 212 211 211 210 208 207 207 206 206 206 206 207 206 206 204 203 203 204 204 204 203 204 203 203 204 205 208 208 208 207 205 204 203 202 203 203 200 196 193 191 187 184 180 176 172 168 164 161 158 155 153 150 150 150 150 149 149 148 149 152 156 158 159 159 160 160 160 162 164 166 169 172 174 175 176 177 179 181 183 184 184 185
206 202 201 204 203 202 200 198 200 201 203 206 207 210 211 211 211 210 210 211 211 210 210 208 208 208 206 203 199 196 192 188 184 180 174 172 167 162 157 151 146 141 137 131 126 121 119 118 120 121 118 118 117 115 111 107 105 105 106 108 109 109 109 111 111 111 112 115 117 120 123 125 125 127 130 130 129 128 128 129 131 134 134 134 135 136 137 138 138 140 143 147 148 149 151 153 154 155 155 157 158 157 156 157 158 159 163 163 163 162 161 160 162 164 166 165 161 160 162 165 167 168 169 173 176 176 177 177 174 173 172 170 168 164 160 157 156 155 153 151 151 151 150 149 147 148 148 148 148 150 151 149 147 145 142 142 145 148 148 149 150 151 151 151 151 152 156 159 161 164 167 167 167 166 166 166 167 169 170 172 171 170 168 165 162 158 150 145 143 144 145 146 148 150 150 149 148 148 148 147 146 144 143 142 141 140 138 135 133 130 129 128 127 126 125 125 125 124 124 124 124 123 122 121 119 117 117 115 115 115 116 120 121 122 122 123 124 124 123 120 118 116 115 114 114 114 115 116 117 115 113 111 110 109 107 105 105 104 103 102 101 99 97 94 92 91 89 89 87 86 84 83 82 79 77 73 69 68 66 65 65 64 63 62 60 57 55 52 50 48 49 50 51 51 53 56 58 60 62 64 64 64 63 63 62 62 62 62 62 61 59 56 56 57 59 59 59 59 59 61 61 61 61 61 62 63 65 65 65 64 62 63 63 65 67 69 72 75 78 80 81 84 86 88 89 90 90 90 90 90 90 92 95 98 100 102 104 106 107 107 110 111 111 111 109 106 105 103 102 102 100 98 96 94 92 90 90 90 90 91 91 91 90 89 90 91 92 94 95 97 97 97 98 99 102 103 105 104 103 103 103 103 100 97 93 90 89 87 84 81 77 73 70 68 66 67 69 70 72 72 72 72 73 74 74 73 71 68 65 62 59 58 58 58 59 58 58 58 56 54 53 51 51 52 54 57 58 59 61 61 59 57 56 55 55 57 58 60 61 63 64 65 66 66 67 68 69 70 71 71 71 71 72 73 74 75 75 74 76 77 77 76 74 72 68 64 61 60 61 66 69 71 72 73 74 76 79 79 81 82 83 87 90 92 94 95 96 98 101 104 108 112 114 117 120 122 123 123 123 124 126 125 123 122 120 121 121 122 122 122 121 121 122 123 123 126 127 129 132 136 140 143 145 145 142 137 131 122 116 107 102 101 101 101 103 107 109 111 113 114 116 118 122 126 130 135 139 142 144 147 152 156 158 160 160 161 162 163 163 163 163 161 161 161 159 157 156 156 154 152 149 148 147 145 142 139 134 127 122 120 119 119 120 119 120 123 127 130 132 133 134 136 138 140 142 145 147 151 153 155 156 159 161 164 168 169 169 169 170 171 173 174 175 176 179 180 180 180 180 182 184 188 192 195 200 203 206 208 209 210 211 212 214 216 218 222 225 227 229 230 230 231 230 228 227 228 230 232 231 230 231 232 231 230 229 228 227 226 224 221 219 218 218 218 217 214 213 213 211 210 208 209 207 207 207 206 206 206 206 207 206 205 204 203 202 203 202 201 200 201 201 202 202 203 205 206 205 205 204 203 202 201 201 202 201 199 196 194 190 187 183 179 175 170 166 161 158 157 155 153 151 150 150 149 149 149 149 151 154 156 158 157 156 156 156 159 161 164 167 169 171 172 173 174 177 179 181 181 182 183
204 201 201 202 201 200 199 199 199 201 203 205 207 208 209 209 211 212 212 213 213 213 213 211 209 208 205 201 197 194 191 188 186 181 176 173 169 163 157 150 144 139 135 130 125 121 119 117 117 116 117 117 117 114 111 106 104 104 105 106 107 107 107 108 109 110 111 114 117 119 122 124 124 124 127 127 127 127 127 129 131 134 134 134 134 134 136 137 138 141 144 147 147 148 150 152 154 155 155 157 157 157 157 157 157 159 162 163 162 160 158 156 156 158 160 160 158 159 162 164 163 163 165 169 172 174 176 176 174 173 172 170 167 163 159 157 156 154 153 152 151 151 150 149 148 149 149 148 148 148 148 148 146 145 143 145 147 149 149 149 150 150 151 152 152 153 156 159 162 166 169 168 167 166 166 166 168 170 171 173 172 170 168 164 162 156 149 145 145 146 147 148 150 151 152 150 149 148 146 144 143 143 143 142 142 140 139 137 135 133 132 131 130 129 128 127 127 126 125 125 125 124 122 121 119 118 117 115 115 115 116 120 122 123 123 123 125 125 123 120 118 118 118 117 116 116 116 117 118 117 115 113 112 110 109 108 107 106 105 104 103 101 98 96 94 92 91 90 89 87 85 83 82 78 76 73 70 68 67 67 66 66 64 64 62 59 55 52 49 48 48 49 50 50 51 53 55 57 59 61 63 63 63 63 63 63 63 62 62 60 58 56 56 56 58 58 58 58 58 59 59 58 59 60 60 62 64 65 65 63 62 62 63 64 67 69 71 75 78 80 80 82 84 86 86 88 88 88 90 90 91 92 96 99 100 102 103 104 105 107 109 111 111 110 108 106 104 102 102 102 100 99 97 95 93 90 90 90 90 91 90 89 89 88 90 91 92 93 94 97 97 97 98 99 102 103 105 103 103 102 101 101 99 97 94 91 89 88 85 81 78 74 71 68 67 67 68 70 71 72 72 73 73 75 75 74 72 70 66 63 60 58 58 57 57 57 56 55 54 53 51 50 50 50 52 54 55 58 60 60 59 57 57 57 58 59 61 62 63 64 65 67 67 67 68 70 70 71 71 71 71 72 73 74 75 76 76 75 77 76 77 76 73 70 66 61 60 60 60 66 69 72 72 73 75 76 78 79 81 83 86 89 91 93 94 95 97 98 101 103 107 111 113 116 118 120 121 120 120 121 123 123 121 121 120 121 121 122 122 122 121 121 121 122 123 124 127 129 132 137 141 145 147 150 148 146 142 131 123 111 104 101 101 101 104 106 108 111 112 113 114 116 120 124 129 134 138 142 145 149 153 157 160 161 162 163 163 163 163 163 163 162 162 161 160 158 156 155 153 151 149 148 148 146 143 140 135 128 122 121 119 119 119 119 119 122 126 129 132 132 135 137 139 141 142 145 147 149 151 153 155 157 160 163 167 167 167 167 167 170 172 173 175 176 176 177 178 178 179 182 185 189 194 198 201 205 208 208 208 210 211 213 215 216 218 221 224 226 227 227 228 229 227 225 225 226 228 231 232 233 233 233 232 231 230 228 228 227 224 222 219 218 217 217 216 215 214 213 211 210 208 208 207 207 207 206 206 207 207 207 205 204 204 203 202 202 202 200 197 198 201 201 202 202 202 203 204 204 203 202 202 201 201 201 202 200 197 195 191 187 184 180 176 172 168 164 161 158 156 154 152 150 150 150 150 150 150 151 155 157 158 156 155 154 154 156 159 162 165 168 169 170 171 173 174 177 179 180 181 182
203 202 201 201 199 198 198 199 200 201 203 204 205 206 207 208 211 211 212 213 213 213 213 211 209 206 203 199 196 194 190 188 184 179 174 172 167 162 155 148 142 137 132 128 124 120 120 118 116 113 113 114 115 114 111 107 105 105 105 106 108 108 107 108 110 110 110 114 116 119 122 124 124 124 127 127 127 127 127 129 132 133 133 133 132 133 135 138 140 144 147 149 148 148 150 153 155 156 156 156 155 155 157 157 157 158 162 162 161 159 156 153 153 155 158 158 157 158 159 160 160 162 164 168 171 174 175 177 176 175 172 170 166 163 160 159 157 156 155 156 155 155 153 152 153 153 152 149 146 145 145 145 146 145 145 147 149 149 150 152 152 152 153 154 154 154 157 161 164 169 172 172 170 169 168 168 169 172 173 173 172 170 167 164 160 154 148 146 147 149 150 150 151 152 152 150 149 145 143 142 142 142 142 142 142 142 141 140 138 136 134 134 133 131 131 130 130 128 127 126 125 124 122 121 121 119 118 116 115 116 118 121 123 124 125 125 127 126 123 120 120 120 120 120 120 118 118 118 119 118 116 114 113 111 110 110 109 109 108 106 104 101 99 97 95 93 91 91 89 88 86 84 82 79 76 74 72 71 70 69 68 67 66 65 64 61 57 54 50 48 48 48 48 49 50 51 53 54 56 60 63 64 65 65 65 63 63 62 62 60 58 56 56 56 56 57 56 57 57 57 57 58 58 58 59 60 63 63 63 63 63 62 62 63 67 68 71 74 77 79 80 81 83 84 84 85 86 87 89 90 91 93 96 98 99 99 99 100 102 104 107 108 108 108 107 105 103 102 100 99 99 99 98 97 94 92 91 90 90 90 89 88 88 88 90 91 92 93 94 97 97 98 98 99 102 102 103 103 102 101 101 101 100 98 94 92 89 87 85 81 78 74 71 68 67 67 68 68 70 72 72 73 75 76 76 75 72 71 67 64 62 60 58 57 57 57 55 54 53 52 50 50 49 48 49 51 52 55 57 58 57 57 57 59 60 61 63 64 64 65 66 67 68 68 69 71 72 73 73 73 73 73 74 75 76 77 77 76 76 75 74 74 72 69 65 61 60 60 60 65 67 70 72 73 75 76 78 79 81 84 87 90 92 94 94 94 95 98 100 103 106 109 112 114 116 118 119 119 120 120 121 121 120 120 120 120 121 122 122 121 120 120 119 120 122 123 125 128 132 137 142 146 150 153 155 154 150 140 132 118 109 105 103 103 106 108 109 111 112 113 113 116 120 124 129 133 138 142 145 150 153 158 160 162 163 164 164 164 163 163 163 162 162 161 160 158 157 155 153 151 149 149 149 146 144 140 135 128 122 120 119 119 119 119 119 122 126 129 132 133 135 137 139 141 142 145 146 149 150 152 155 157 160 163 165 165 164 163 164 168 171 173 175 176 177 177 178 178 179 182 186 190 195 198 202 205 209 210 211 211 212 214 217 218 219 221 224 224 224 224 226 228 227 225 225 225 228 230 232 234 234 233 233 232 231 228 228 227 224 222 219 218 217 216 216 216 215 214 213 212 211 210 209 208 208 207 207 207 206 205 204 203 202 201 201 201 200 199 197 197 199 200 202 203 202 202 203 203 203 202 202 201 201 202 203 202 198 196 192 188 185 180 177 173 168 165 162 159 156 154 153 150 150 150 150 150 150 153 156 158 159 157 155 154 154 154 157 160 163 166 167 168 169 171 172 174 176 178 180 181
203 202 201 199 196 194 193 194 196 198 200 201 203 206 207 208 209 209 208 208 208 209 209 208 206 204 201 198 195 193 189 185 181 177 172 170 164 158 152 146 141 137 132 127 124 122 121 118 114 111 111 112 113 112 111 107 106 105 105 108 110 112 111 110 110 110 112 115 117 120 122 123 124 123 124 126 126 126 126 130 132 133 133 133 132 132 135 140 143 146 148 149 149 150 151 153 156 156 157 157 156 156 158 158 159 161 163 164 162 160 157 154 153 156 158 159 158 158 159 159 160 163 166 169 173 174 177 179 179 177 174 171 167 164 162 161 160 160 160 160 159 158 158 158 158 156 155 150 146 144 144 144 145 145 146 148 149 150 151 153 154 155 155 155 155 155 158 162 166 171 174 175 174 172 172 172 170 172 173 173 172 170 166 162 157 152 148 147 149 151 151 151 151 152 150 149 146 144 142 142 142 142 143 143 143 142 142 141 140 138 136 136 136 134 133 132 132 131 129 127 126 124 122 121 121 120 119 118 117 118 120 122 124 125 126 127 126 125 123 121 121 121 122 122 122 121 119 119 119 119 118 117 115 113 111 111 111 110 110 108 105 103 100 99 96 94 92 91 89 88 87 86 83 81 78 76 75 73 72 71 70 68 67 65 64 61 58 55 53 51 48 47 47 48 49 51 51 52 55 58 62 65 67 67 67 65 64 63 62 60 58 56 57 57 56 56 56 57 57 57 57 58 57 57 57 57 60 61 61 63 63 62 62 63 67 69 72 74 77 79 79 81 82 83 83 84 85 87 87 88 89 91 94 96 97 96 96 97 98 101 103 104 106 106 105 103 102 101 99 99 99 99 98 97 95 92 91 89 88 87 86 87 88 88 90 91 92 93 94 97 97 98 99 100 101 101 102 102 102 101 101 102 102 99 97 93 90 87 85 80 78 73 71 68 67 67 67 67 70 72 72 74 75 77 77 75 72 71 67 65 62 60 59 57 57 56 55 54 52 52 50 50 48 47 48 50 51 53 55 57 57 57 58 60 62 64 65 66 66 66 67 67 68 69 70 73 74 74 74 74 74 74 75 76 77 78 78 76 76 74 74 72 70 68 65 61 60 60 60 62 65 69 71 73 75 75 78 79 81 85 87 90 92 94 94 94 97 98 100 102 105 108 111 113 115 117 118 119 120 120 120 120 119 119 119 120 121 122 121 120 120 120 119 120 122 123 124 128 133 138 143 147 151 155 158 157 154 147 140 128 116 109 104 104 107 109 110 112 112 113 113 116 120 125 129 133 137 141 145 149 153 158 160 162 164 164 164 164 165 165 165 164 163 161 161 160 159 157 154 151 150 149 149 146 144 140 134 127 121 120 118 119 119 119 120 124 129 132 134 135 136 138 140 142 145 146 147 149 151 154 157 159 161 162 162 162 161 162 163 168 171 173 175 178 179 179 180 180 181 184 188 192 196 200 204 207 210 211 212 212 213 215 218 219 220 222 223 223 223 223 225 227 227 226 226 227 228 230 232 234 233 232 233 232 231 228 227 226 224 223 221 219 219 219 218 216 216 214 213 213 212 211 210 208 208 207 207 206 204 204 203 201 201 201 201 199 197 199 199 197 199 201 204 204 203 202 202 202 202 203 202 202 202 203 204 202 199 197 194 190 185 180 177 173 168 165 162 158 155 154 153 150 150 150 150 150 150 154 157 158 159 158 156 154 154 153 156 158 161 164 166 167 168 169 171 173 174 175 177 179
203 202 200 198 195 192 191 191 193 195 198 200 201 205 208 209 209 209 207 206 206 207 208 207 205 203 200 198 195 193 188 184 181 176 171 168 162 156 151 146 142 139 133 127 124 122 119 115 112 111 111 111 112 112 111 108 106 105 106 108 111 112 112 111 108 109 112 116 117 118 119 120 120 121 123 124 125 125 125 129 132 134 135 134 133 134 137 141 143 147 147 149 150 151 152 154 156 157 158 158 158 159 159 159 160 163 165 165 163 161 157 155 155 157 158 159 158 156 158 158 161 164 167 170 173 175 177 180 180 178 176 172 168 165 165 165 164 164 164 163 163 163 162 162 162 161 157 153 149 146 144 145 146 146 148 150 151 152 153 155 155 156 157 156 156 158 160 164 167 172 174 175 175 175 174 173 171 172 172 172 171 169 165 159 153 149 148 148 150 151 151 151 151 150 149 147 144 144 142 142 142 144 144 143 143 143 143 141 140 139 139 139 139 138 136 134 133 133 131 129 127 125 122 121 121 121 121 121 120 120 122 123 125 125 127 127 126 124 124 122 122 123 123 123 123 123 121 120 120 120 120 120 118 116 114 114 114 114 112 109 106 104 101 99 97 95 92 91 89 88 88 87 85 82 79 78 77 75 74 73 71 69 67 65 63 61 59 55 53 52 48 47 47 47 48 51 51 52 54 57 61 65 68 69 67 66 66 64 63 61 58 56 57 57 57 57 56 57 57 57 57 58 57 57 56 56 59 60 60 63 63 63 63 63 66 69 72 74 77 79 80 82 82 83 83 84 84 86 86 86 87 89 92 95 96 96 96 96 97 99 101 102 104 105 105 102 102 100 99 99 98 97 97 97 95 92 90 88 86 84 84 86 87 87 88 90 90 91 93 96 97 98 100 100 101 101 100 100 101 102 102 104 104 102 99 95 91 88 85 81 78 74 72 69 67 67 66 66 69 71 72 73 75 77 77 76 73 71 67 65 62 60 60 58 57 58 56 54 52 51 50 48 47 47 47 49 50 51 53 55 57 57 59 61 63 65 66 67 68 68 68 68 69 70 71 74 75 75 74 74 74 75 76 78 78 79 79 78 77 75 74 71 69 68 65 61 60 60 60 60 61 66 71 73 75 76 78 79 81 84 86 88 90 93 95 97 98 99 100 101 103 106 108 110 112 114 117 118 119 120 120 119 119 119 119 119 120 121 119 119 120 120 121 121 122 123 125 129 133 138 144 148 152 156 159 159 156 151 147 138 127 115 106 105 108 110 111 112 113 113 113 116 120 125 130 133 136 139 143 148 153 157 160 162 162 162 162 163 166 167 167 166 164 162 161 162 161 159 156 154 151 150 150 147 144 139 134 127 121 120 118 118 119 119 122 126 130 133 135 137 139 140 142 143 145 147 148 150 153 155 158 160 161 161 160 160 159 161 163 168 172 176 178 180 181 182 181 182 183 186 190 194 198 201 206 209 211 212 212 213 214 216 219 220 221 223 224 222 222 222 224 228 229 228 228 230 230 230 232 233 233 232 232 232 231 228 227 226 225 225 223 221 220 220 219 217 216 215 213 213 212 212 210 209 208 207 207 205 204 203 202 201 201 201 200 198 197 199 199 198 199 202 205 205 204 203 202 202 202 204 204 204 203 203 204 202 199 198 195 190 186 180 177 173 168 165 161 158 155 153 153 150 150 150 150 150 151 154 157 157 158 158 157 155 154 153 155 157 160 163 165 166 168 169 170 170 172 172 174 176
204 202 201 198 196 193 191 191 192 195 197 199 200 204 208 209 209 208 206 205 205 207 207 206 204 202 199 198 195 191 186 183 181 176 171 167 161 156 151 146 143 140 134 128 124 119 115 113 111 111 111 112 113 113 111 108 106 106 107 108 110 111 111 109 108 108 111 115 117 116 116 117 118 119 122 123 125 127 128 129 132 135 136 136 136 137 139 143 144 146 146 149 150 152 154 157 159 159 158 158 158 159 159 159 160 164 166 166 165 163 159 156 156 158 158 157 156 156 158 159 162 165 167 167 170 173 177 180 181 179 176 173 169 167 166 166 166 165 165 165 164 164 164 163 164 163 159 155 151 148 146 146 147 147 149 151 152 154 155 155 155 156 158 158 161 162 163 164 167 170 173 175 175 175 175 174 172 173 172 171 170 168 163 157 152 149 148 150 152 151 151 151 151 148 146 145 144 144 143 144 144 144 145 143 142 142 142 141 140 140 140 140 141 140 139 136 136 135 133 132 129 127 124 122 122 123 123 123 122 122 123 124 125 125 126 126 126 126 126 124 124 124 125 125 125 125 123 122 122 123 122 121 120 118 117 117 118 117 115 112 109 106 103 101 100 98 95 94 91 91 90 89 87 85 83 81 80 78 76 75 73 70 67 64 62 60 59 57 55 52 50 48 47 47 48 51 51 52 53 56 59 62 64 66 67 67 67 64 64 62 58 56 57 58 58 58 57 57 57 57 57 58 57 57 57 57 59 60 61 62 63 62 62 63 66 69 72 74 78 79 80 81 81 82 82 83 83 84 84 84 85 87 90 92 94 94 94 94 96 98 100 101 103 104 105 104 102 101 99 98 97 96 96 96 95 93 90 87 86 84 83 84 84 85 86 87 89 90 91 93 95 96 97 98 99 98 97 97 97 98 99 101 103 103 99 96 91 89 85 81 78 75 73 70 67 66 64 65 67 68 69 71 74 77 77 77 75 72 68 65 63 61 60 58 57 58 56 54 52 50 49 47 47 47 47 49 50 51 53 54 57 59 59 61 63 66 67 68 70 70 70 71 70 71 72 75 75 75 75 75 76 76 77 79 81 81 81 80 79 76 74 72 69 66 63 60 60 60 60 60 60 62 69 73 76 77 79 80 82 84 85 87 89 92 95 97 99 99 99 99 101 103 105 108 110 113 114 117 118 119 119 119 117 117 116 117 118 119 119 119 120 120 122 123 124 125 127 129 134 139 144 148 153 156 161 162 157 152 150 145 137 126 113 108 110 113 114 115 114 113 114 117 121 126 131 133 136 138 142 147 152 156 158 159 159 160 162 163 166 168 168 166 164 164 164 165 164 161 158 156 153 152 151 147 145 139 134 127 122 120 117 117 118 120 124 128 132 135 137 139 141 143 144 145 146 148 150 151 154 156 159 160 160 160 159 159 159 161 165 170 174 178 180 182 183 184 184 184 185 188 191 195 199 203 207 210 211 213 213 214 215 216 218 219 222 223 225 224 222 222 225 229 231 231 230 230 232 231 231 232 234 233 232 231 230 228 227 226 227 226 224 222 221 221 220 218 217 215 213 213 212 212 210 209 208 207 207 205 204 202 201 200 199 198 197 197 197 197 197 197 199 202 205 206 205 203 202 202 203 205 206 204 204 204 203 202 199 199 196 191 186 180 177 173 169 166 163 160 158 156 153 150 150 149 149 150 151 154 156 155 156 157 156 155 154 153 154 156 158 161 164 166 168 169 169 170 170 171 172 174
205 204 202 200 198 196 193 192 193 195 196 199 200 204 207 207 207 207 204 203 205 205 204 204 202 201 199 198 194 188 184 183 181 175 169 166 161 157 153 148 143 140 135 128 124 118 114 111 111 111 111 113 112 112 111 107 107 107 107 108 108 108 108 107 107 108 110 114 114 113 114 115 117 119 123 126 129 131 132 133 133 134 135 136 138 139 141 143 144 146 148 150 152 155 157 159 161 161 158 158 159 160 160 159 160 164 167 167 166 164 160 157 156 157 156 156 156 157 160 162 164 165 164 164 168 172 176 180 181 180 176 174 171 170 169 168 169 168 168 168 167 167 166 166 166 164 161 158 154 150 148 147 148 148 150 151 153 154 155 155 155 156 158 160 164 166 166 167 168 171 173 175 176 177 178 177 175 175 173 170 168 165 161 156 151 149 150 152 154 154 153 152 149 147 144 144 144 144 144 145 145 145 144 142 141 141 141 141 141 141 140 140 141 141 140 138 138 138 137 134 130 128 125 123 123 124 124 123 123 123 123 125 126 126 126 126 126 127 127 125 125 125 126 126 126 126 124 124 124 124 123 121 121 120 120 121 121 119 117 114 110 108 105 103 101 99 97 95 94 93 93 92 91 89 86 84 83 81 79 78 76 72 68 65 62 61 60 59 57 54 52 49 47 48 51 51 51 51 53 55 57 59 61 63 65 66 65 64 64 62 58 57 58 58 59 59 58 59 59 58 58 58 58 58 58 59 60 61 61 62 62 62 62 63 66 69 72 75 78 78 78 79 80 81 81 81 81 81 82 83 83 85 87 90 92 93 93 93 95 97 99 101 102 103 105 104 103 101 99 98 96 96 96 96 96 94 91 89 87 85 83 81 83 84 85 87 88 90 90 93 94 95 96 97 98 97 97 96 95 95 96 97 98 99 97 95 91 88 85 81 79 75 72 69 66 63 62 61 63 65 65 67 71 75 77 77 75 73 69 67 64 62 61 58 56 56 55 53 51 50 48 47 47 47 48 49 50 51 53 56 58 60 60 61 64 67 68 70 71 71 71 72 73 72 72 74 74 75 75 76 78 78 77 79 81 81 80 79 78 76 75 72 69 66 61 60 60 60 60 60 60 61 67 72 76 78 80 81 83 85 86 87 88 92 94 96 98 98 97 97 99 101 102 105 108 110 112 115 117 118 118 118 116 116 115 115 116 117 118 118 120 120 123 124 125 126 127 130 134 139 144 148 153 156 160 162 158 153 151 147 142 133 120 113 113 115 116 116 115 114 115 118 122 126 131 133 136 138 142 147 151 154 155 157 157 158 161 163 167 168 168 167 166 166 167 167 166 163 161 158 155 152 151 147 144 139 134 128 122 121 117 117 117 121 124 129 134 136 138 139 142 143 145 147 147 149 150 152 154 156 158 159 159 159 159 159 160 163 167 171 176 179 181 184 185 185 185 185 186 189 191 196 200 203 208 211 212 213 214 215 215 217 217 217 220 223 225 225 223 222 225 231 232 232 230 230 231 231 231 232 234 234 233 230 228 228 228 228 228 228 226 224 223 223 221 220 218 216 214 213 211 211 210 209 208 207 207 205 203 201 199 198 196 195 196 196 196 196 196 196 199 202 205 206 205 204 202 203 203 206 206 204 203 203 203 202 200 199 196 190 185 180 176 173 170 167 164 161 159 158 154 151 150 149 149 151 153 154 155 155 155 156 155 154 154 153 153 154 157 160 163 165 167 170 170 170 170 170 171 173
208 207 205 203 200 197 195 194 194 195 196 198 200 204 205 205 205 204 202 201 203 204 202 203 202 199 198 197 192 187 183 183 180 174 169 166 162 158 153 149 143 138 133 129 124 118 115 112 111 111 111 113 112 112 111 109 109 108 108 108 107 105 104 106 107 108 109 111 112 113 113 114 117 121 125 129 131 132 132 134 134 134 135 137 139 141 143 145 146 149 151 152 152 156 158 160 162 163 161 159 159 160 160 160 160 163 165 166 166 164 160 157 157 156 156 156 157 160 164 165 166 164 162 162 166 170 175 178 180 180 176 174 174 173 171 171 171 171 171 170 169 169 168 168 168 167 165 161 157 154 150 147 148 148 150 152 153 154 155 155 155 157 158 161 165 167 167 169 170 174 176 177 177 178 178 178 177 176 173 168 166 162 157 152 149 149 151 152 155 155 154 152 149 147 144 144 144 144 145 145 146 145 143 141 141 140 140 141 141 141 139 139 139 140 140 140 140 140 138 135 132 129 127 126 124 123 123 123 123 124 124 125 127 127 126 127 127 125 126 125 125 125 125 125 127 127 125 125 125 124 124 124 123 123 123 123 122 120 118 115 113 110 108 105 102 100 97 96 96 95 95 95 94 92 89 88 86 84 82 81 79 75 71 67 65 64 63 62 60 57 54 52 50 50 51 51 49 50 52 53 55 56 59 62 63 63 64 64 64 61 58 59 59 59 60 60 59 60 60 58 58 58 58 58 59 60 61 61 62 61 61 62 62 64 67 69 73 75 76 75 75 76 77 78 79 79 79 79 81 81 81 83 85 87 90 91 91 91 93 95 97 98 99 101 102 103 102 100 98 97 96 96 96 96 96 94 92 89 88 86 83 81 83 83 83 86 89 90 91 93 94 95 96 97 97 97 97 95 95 95 95 96 96 96 96 94 90 88 85 82 79 74 71 68 65 62 60 59 61 62 63 64 67 69 71 72 73 72 69 67 64 62 59 56 54 53 51 50 48 47 47 47 47 48 49 50 51 53 55 58 60 61 63 64 66 68 69 71 71 71 71 73 74 73 72 74 74 75 76 77 78 78 78 78 79 79 77 77 77 76 75 72 70 66 60 60 60 60 60 60 60 60 66 71 76 78 81 82 84 86 86 87 89 92 93 94 96 96 95 95 97 99 101 103 106 108 110 113 115 117 118 117 115 114 112 113 114 116 117 118 120 121 123 125 126 127 127 131 134 138 143 147 151 155 158 159 157 153 151 146 142 136 125 117 115 116 117 117 116 116 117 119 123 127 131 133 136 139 143 147 149 151 153 155 156 157 161 164 167 168 168 168 168 169 169 169 167 164 162 159 156 152 150 146 143 139 134 128 122 119 117 117 119 121 125 131 134 137 139 141 142 144 146 148 148 148 150 153 154 155 156 157 158 158 159 160 162 165 169 173 177 181 183 185 186 187 186 186 188 189 192 196 200 204 209 211 213 213 215 216 217 217 217 217 220 224 226 226 224 223 226 232 234 232 230 230 231 231 231 232 233 233 232 229 228 226 226 228 229 229 228 226 225 223 222 221 219 217 215 213 212 211 211 211 209 207 206 204 202 200 198 197 195 194 193 195 194 194 194 196 199 202 205 206 205 204 203 203 203 204 205 204 202 201 202 202 200 199 195 189 184 179 176 174 171 168 165 162 159 158 157 153 150 151 151 152 154 155 155 155 154 155 154 154 154 153 153 153 156 159 162 164 167 169 169 169 169 169 171 172
210 208 206 203 200 198 195 195 195 194 195 198 200 202 203 202 202 202 199 199 202 203 203 202 202 200 198 196 191 187 184 182 180 174 170 167 163 159 153 149 142 138 133 131 126 122 118 114 111 111 111 111 111 111 110 110 110 109 109 108 106 104 103 105 107 109 110 111 111 113 113 114 117 121 126 129 130 130 131 133 134 135 137 139 141 143 146 149 150 152 154 153 154 156 159 162 165 165 163 160 160 160 160 160 160 160 162 164 164 162 159 157 157 158 158 158 161 164 166 168 167 164 162 162 165 169 173 175 177 176 175 175 174 174 174 174 173 171 171 171 169 169 169 170 170 170 167 163 160 157 153 149 149 150 152 154 156 155 155 155 155 157 159 161 166 168 170 171 173 176 177 178 178 179 179 179 177 174 171 165 162 158 153 148 148 148 151 153 156 156 155 153 150 148 146 144 144 144 144 144 144 142 140 140 139 138 138 140 141 141 139 139 139 140 140 140 140 140 138 135 132 130 129 128 125 123 123 123 123 124 124 125 127 127 127 127 126 124 124 124 124 124 124 125 126 126 125 124 125 124 125 125 124 124 124 124 122 121 118 116 114 112 109 106 103 100 97 97 96 96 96 96 95 93 92 91 90 87 85 84 81 77 73 69 66 65 65 63 60 58 55 53 51 51 51 50 49 50 51 52 53 55 58 60 61 62 63 65 63 61 58 59 59 59 60 58 58 59 59 59 59 60 59 59 60 61 61 61 61 61 61 62 62 64 67 69 72 74 74 73 74 76 76 77 78 78 78 78 80 80 81 83 84 85 88 90 90 90 92 94 96 97 98 100 100 101 100 98 96 96 95 95 96 96 95 94 93 89 88 85 82 81 83 83 83 86 89 91 91 94 95 95 97 97 97 97 97 96 95 95 95 95 95 95 95 93 90 88 85 82 79 74 71 68 64 62 59 59 60 62 62 64 64 66 68 69 71 71 69 67 63 61 57 54 53 51 49 47 45 45 45 46 46 48 49 51 52 54 57 59 61 62 64 66 67 69 69 70 70 70 72 73 74 74 73 74 74 76 76 77 77 77 77 77 77 77 77 77 77 77 75 72 71 67 62 60 60 60 60 60 60 60 65 70 75 78 81 82 84 85 85 87 89 92 92 92 94 95 94 94 95 97 98 101 103 106 108 111 113 115 117 116 114 113 111 111 113 114 116 117 120 121 124 126 126 127 127 129 132 136 140 144 148 151 155 157 156 152 150 145 140 135 125 118 116 116 117 118 117 118 119 121 124 128 131 133 136 139 143 146 147 149 151 154 156 158 162 164 167 168 168 169 170 172 172 170 167 165 162 159 156 152 149 145 142 138 132 126 120 118 118 119 121 124 128 132 135 138 140 141 143 144 146 146 146 148 150 154 154 153 154 156 158 159 160 161 163 166 169 174 178 181 184 185 187 188 188 188 188 190 193 196 201 205 209 211 214 214 215 217 217 217 218 219 221 224 226 226 224 224 227 232 234 233 231 230 231 231 232 232 232 232 232 231 230 227 226 226 228 228 229 227 226 225 224 221 220 218 216 214 213 212 211 211 210 207 206 203 202 199 197 197 196 194 193 193 193 193 193 195 198 201 204 205 205 203 203 203 203 203 204 204 202 201 202 202 200 198 193 188 183 179 177 174 172 169 165 162 159 158 158 153 151 152 152 151 152 154 156 156 154 153 153 154 154 153 153 153 155 158 161 163 166 168 169 169 169 170 172 173
211 208 206 202 199 197 195 195 195 194 194 198 200 200 200 201 201 201 197 198 201 203 203 201 200 200 198 195 191 188 185 183 180 174 170 167 163 159 155 150 144 139 136 133 129 125 120 115 111 111 111 110 109 108 108 108 108 109 109 109 106 104 103 104 106 108 110 111 112 115 116 116 117 120 124 127 129 129 129 132 134 136 138 140 143 147 150 151 152 153 155 155 158 161 163 165 166 166 165 164 163 162 162 160 159 159 161 162 162 159 157 157 159 161 161 162 163 165 166 168 167 165 163 163 165 168 170 172 174 174 174 174 174 174 175 175 174 172 171 171 171 170 170 170 171 171 168 164 161 158 154 150 150 151 153 155 157 155 155 155 155 157 160 162 167 169 172 173 174 176 177 178 178 179 179 179 177 174 170 164 161 157 151 147 147 149 151 154 156 156 155 153 151 149 147 144 143 143 142 141 140 139 138 137 137 137 137 139 139 139 139 139 139 139 140 139 138 137 135 133 132 131 129 129 126 124 123 122 123 123 122 123 125 126 125 124 123 122 122 122 122 122 122 123 124 124 123 122 122 123 123 124 124 125 125 125 124 122 120 117 116 114 111 107 103 100 98 98 96 96 96 96 95 94 94 94 93 89 88 86 83 79 74 70 67 66 66 63 61 58 55 53 50 50 52 52 49 49 49 50 52 54 55 57 58 60 63 66 64 60 57 58 59 59 59 58 58 59 59 60 61 61 60 60 61 61 60 59 59 59 60 62 62 63 66 68 71 72 72 72 73 74 74 75 76 77 78 78 78 80 81 81 82 83 85 87 88 88 90 92 95 97 98 98 98 98 98 96 94 94 93 93 95 94 93 93 91 89 86 83 81 81 84 85 86 87 88 90 91 94 96 97 97 98 98 98 97 96 95 94 94 93 93 93 93 92 90 88 85 82 79 74 71 68 65 63 60 59 60 61 62 62 63 64 66 67 68 69 69 67 63 60 56 52 50 49 48 47 44 44 44 45 45 46 48 51 53 56 59 61 63 64 65 67 67 69 69 68 68 69 70 71 72 73 74 75 75 75 75 75 75 76 76 76 76 76 76 77 77 77 76 73 72 68 62 60 60 60 60 60 60 60 64 69 74 77 81 82 84 85 85 87 90 92 92 92 93 92 91 93 94 95 97 99 101 104 106 109 111 114 115 114 112 111 110 110 112 113 115 117 120 121 124 126 126 127 127 129 131 135 139 142 145 148 151 153 154 151 149 144 139 134 125 118 116 116 117 119 119 121 122 124 126 129 131 133 136 139 142 144 145 148 150 153 156 159 162 164 167 168 169 169 171 173 173 170 167 164 161 158 155 152 148 145 141 136 131 124 119 118 118 121 124 127 130 134 137 138 140 141 142 143 144 145 145 148 150 153 154 153 154 157 160 161 162 163 165 168 170 175 179 181 184 185 188 189 190 190 190 192 194 198 202 205 210 212 214 214 216 217 217 218 220 221 223 224 225 225 225 225 228 233 234 234 233 232 231 231 230 230 231 233 233 232 231 229 228 227 228 228 229 228 227 226 225 221 221 219 217 215 214 213 212 211 211 207 206 203 202 199 197 197 196 195 193 192 192 192 193 195 197 200 203 203 202 201 202 202 202 203 203 204 202 202 203 203 199 197 193 188 184 181 178 175 172 169 165 161 159 158 157 153 152 152 151 149 150 153 155 155 154 152 152 153 154 153 153 153 155 157 160 162 165 167 168 169 169 170 172 173
211 208 206 202 199 197 196 196 196 196 196 199 200 199 199 200 201 201 198 200 198 201 202 197 198 199 197 195 192 189 185 183 180 174 170 167 163 160 157 152 146 141 137 135 131 127 121 115 112 112 112 110 108 107 107 106 105 106 107 107 106 106 106 106 106 108 111 113 114 117 117 116 116 118 122 125 128 129 129 132 134 137 139 142 145 150 152 152 152 154 156 158 162 164 166 167 167 167 167 168 168 166 164 162 159 160 160 160 158 157 157 159 162 163 162 163 164 164 163 164 165 164 162 161 163 164 166 168 170 171 174 174 173 173 175 174 173 173 173 173 173 172 169 169 170 171 168 164 162 158 154 151 151 152 153 155 156 155 155 155 155 157 160 162 166 169 173 173 174 176 177 178 179 180 180 180 178 174 169 164 161 156 151 147 148 150 152 155 156 156 155 153 151 148 146 144 143 142 141 139 137 137 136 136 136 137 138 139 139 139 139 139 139 139 140 138 137 135 133 132 132 132 130 129 127 125 123 121 120 120 119 119 122 124 122 120 119 119 118 118 118 119 120 120 121 121 120 119 119 120 120 121 122 123 124 125 124 123 121 118 117 114 112 107 104 100 97 97 96 96 95 95 95 95 96 96 94 91 90 87 83 80 75 70 68 66 65 63 61 59 56 53 50 50 52 52 49 48 48 49 50 52 53 54 56 58 61 64 64 59 57 57 59 59 58 58 58 60 60 61 61 61 61 61 61 61 59 58 58 58 60 62 62 62 66 68 70 71 71 71 72 73 73 73 74 75 77 77 78 80 80 79 81 83 84 87 88 88 90 91 94 96 97 96 96 96 96 95 93 93 93 93 93 93 91 91 91 88 85 82 82 82 84 85 86 88 88 90 91 94 96 97 97 98 98 98 98 96 94 93 93 92 92 91 91 91 90 88 85 81 79 75 72 69 65 63 60 59 59 59 60 61 62 63 64 65 66 67 67 66 63 59 55 51 49 48 47 47 45 44 44 44 45 46 50 53 55 58 60 63 64 65 65 67 67 69 69 68 68 68 70 70 72 72 74 75 75 75 75 75 75 74 73 73 74 75 76 75 75 75 73 72 70 68 62 60 60 60 60 60 60 60 64 69 74 77 81 82 83 83 84 88 90 92 92 92 92 89 89 92 93 95 97 99 101 103 105 107 109 112 113 113 111 110 110 110 111 112 114 116 118 121 124 126 126 127 127 129 130 134 137 140 142 145 147 150 151 150 149 143 138 134 123 116 115 116 119 120 121 123 125 126 128 130 133 134 136 138 141 142 143 146 150 154 156 159 162 164 166 169 170 170 171 173 172 169 166 163 160 158 155 151 148 144 139 135 128 123 118 118 119 122 125 128 132 136 137 139 140 140 140 141 142 144 145 148 149 151 152 152 155 158 161 162 163 164 166 169 172 175 179 181 184 185 188 190 192 192 191 193 196 200 203 205 210 212 214 214 216 217 217 219 220 223 224 224 224 224 225 226 228 233 234 234 234 233 231 231 229 229 231 233 234 234 233 231 230 228 228 228 228 228 227 226 224 221 220 219 217 216 214 214 213 212 211 209 207 204 202 199 198 198 196 195 193 192 192 192 192 194 196 198 200 202 201 201 201 202 202 204 204 203 203 203 204 202 198 197 193 190 186 182 179 176 172 169 164 160 159 158 157 153 152 151 150 149 150 153 155 155 154 152 152 153 154 154 154 154 155 156 159 161 164 166 168 169 169 169 170 172
212 210 208 205 201 198 197 197 198 198 198 199 198 198 197 199 200 199 199 200 198 200 200 198 199 199 197 195 192 187 184 182 179 174 169 167 163 160 157 153 147 142 138 135 132 128 122 116 114 113 112 111 107 107 107 105 105 105 106 106 107 107 107 107 108 110 113 114 114 117 117 116 116 118 121 124 128 130 130 133 134 137 140 143 146 150 152 152 153 155 158 161 163 166 169 169 168 169 170 172 172 171 169 166 164 162 161 159 157 157 157 160 163 163 163 162 162 161 160 160 161 161 160 160 160 160 162 164 167 169 172 173 173 172 172 172 172 173 173 171 173 173 169 169 169 168 166 163 160 156 151 150 151 153 154 155 155 156 157 157 158 159 160 162 165 168 172 173 174 176 177 179 180 181 181 181 178 174 169 164 158 154 151 149 149 150 153 155 155 155 154 152 149 147 144 142 142 141 140 138 136 135 135 136 137 138 139 140 139 139 139 139 139 139 139 137 136 134 133 132 132 132 131 129 128 127 124 122 120 119 117 118 120 121 118 116 115 115 115 115 115 115 115 115 115 114 114 113 113 114 116 117 117 118 120 122 123 122 120 118 115 114 112 107 105 101 97 97 95 95 94 93 94 96 97 96 94 92 90 88 83 80 75 69 67 65 64 63 61 60 56 54 52 51 51 49 47 48 47 48 50 51 52 53 55 58 60 62 61 58 58 58 60 60 60 60 60 61 61 60 59 62 62 62 61 61 59 58 58 58 59 61 62 64 66 67 68 69 68 69 70 70 70 71 72 73 74 75 75 78 78 79 80 83 85 87 88 88 90 91 93 94 94 94 93 93 94 94 93 93 93 93 92 92 91 90 90 87 84 82 82 84 85 85 85 87 89 90 91 94 96 96 96 96 96 96 95 94 94 92 92 92 91 91 90 90 89 88 85 82 80 76 73 69 65 62 59 57 57 57 58 58 59 60 61 62 63 65 65 64 62 58 53 48 46 46 46 46 45 45 44 45 46 48 51 55 57 59 61 63 65 66 66 68 68 69 69 68 68 70 71 71 72 72 74 75 75 75 75 75 75 74 72 72 72 73 73 73 73 73 71 69 67 64 60 60 60 60 60 60 60 60 64 69 72 75 78 79 81 81 83 85 86 88 90 90 90 89 90 92 93 96 97 100 101 102 103 104 105 108 110 111 110 109 109 110 110 112 114 115 117 120 123 124 125 127 127 129 131 133 135 137 138 140 143 145 147 148 147 142 138 134 122 114 114 116 120 122 124 126 128 129 130 131 134 135 137 138 140 141 142 146 150 154 157 160 162 163 166 169 169 170 171 171 169 166 163 161 159 157 154 150 146 141 137 133 127 123 119 119 122 125 128 131 133 137 137 139 139 138 138 140 142 144 146 149 150 151 151 152 155 158 162 162 164 165 166 170 172 175 178 180 183 185 188 190 193 194 193 195 198 201 203 205 209 212 214 215 217 218 218 219 221 224 225 226 224 224 225 227 229 233 235 235 234 232 231 230 229 229 231 234 234 235 234 232 231 229 228 228 228 228 226 225 223 221 220 219 218 217 215 215 215 214 213 210 208 205 203 200 198 197 196 194 192 191 190 191 191 194 195 197 199 199 199 200 200 202 202 203 201 201 201 202 203 202 198 197 194 191 187 183 179 175 171 168 163 160 159 158 157 152 151 150 150 150 152 154 155 155 154 153 153 153 154 155 155 155 155 156 158 160 162 165 167 169 169 169 170 172
