ncols         745
nrows         32
xllcorner     -73.09917
yllcorner     42.7548
cellsize      1.0E-5
NODATA_value  -9999
774 770 765 760 756 753 750 746 743 741 738 736 735 734 733 732 731 729 727 726 725 724 725 725 725 725 725 725 723 722 720 718 717 716 714 712 710 706 700 700 702 704 705 705 704 703 701 700 701 703 704 704 703 701 700 697 695 692 689 685 682 678 674 670 668 666 664 665 665 664 664 663 664 667 671 675 678 682 685 689 693 695 696 695 690 685 680 675 670 664 660 657 653 651 650 650 651 651 649 646 643 640 638 635 632 631 630 628 627 626 627 629 630 632 635 639 642 644 645 645 645 645 644 643 640 636 632 626 622 618 615 612 609 606 603 600 595 589 584 581 580 580 580 579 580 587 592 597 603 610 616 624 633 640 644 648 651 653 654 656 652 645 639 636 632 628 625 621 616 608 606 608 610 613 617 620 623 626 629 633 636 640 642 644 645 645 645 646 645 644 642 639 634 629 625 623 619 616 613 609 605 601 597 591 586 578 572 568 562 562 567 573 577 581 583 585 587 590 592 596 599 603 607 610 613 615 617 619 621 623 624 625 626 627 628 631 634 637 638 639 639 637 642 649 655 659 662 664 666 668 669 670 670 671 672 672 674 675 675 676 677 677 678 681 684 685 686 690 695 700 703 707 709 712 714 716 718 719 720 721 721 720 719 717 715 713 712 710 709 707 705 703 702 701 700 697 696 694 691 688 685 681 678 677 681 686 691 695 698 701 705 708 711 714 719 724 728 730 731 732 732 731 729 725 722 718 714 710 708 705 702 698 694 691 687 685 684 682 680 677 675 676 678 679 680 681 684 685 687 688 689 693 697 699 701 704 707 709 711 712 712 711 709 707 706 703 699 694 688 679 667 654 641 631 619 604 597 591 586 581 579 576 573 570 567 565 561 557 557 556 554 551 549 546 543 540 537 534 532 530 529 527 526 525 523 522 520 519 518 517 515 512 509 505 501 498 495 491 487 484 482 483 485 488 493 496 499 503 505 506 503 498 491 485 481 475 471 470 471 472 471 469 466 464 463 471 478 483 487 491 493 496 501 507 513 516 516 517 517 517 517 517 517 517 516 515 514 512 509 510 511 512 512 512 512 512 512 510 508 509 511 511 510 510 509 508 507 506 503 500 495 491 488 481 475 468 461 455 454 454 454 454 454 454 454 454 454 454 454 454 454 454 454 454 454 454 454 454 454 454 454 454 454 456 454 454 455 455 456 459 463 467 471 476 479 482 485 489 492 493 493 491 490 489 491 493 495 497 499 502 503 504 504 502 507 514 517 521 525 529 532 534 536 538 541 546 550 553 554 554 552 550 546 543 538 532 527 525 522 520 517 515 516 514 510 506 507 512 519 525 532 539 545 551 554 553 550 546 542 538 535 537 540 542 544 546 547 547 548 549 549 550 552 556 562 568 572 576 581 586 591 597 603 613 620 620 617 612 604 598 594 587 581 580 580 580 581 584 587 589 593 595 598 601 605 608 611 614 616 617 618 619 620 621 621 621 621 621 621 621 620 618 615 611 605 596 586 578 572 569 568 567 568 570 574 579 583 589 594 595 596 596 597 597 596 596 595 595 596 598 600 600 598 595 593 592 593 597 600 604 606 607 608 608 608 609 609 609 609 609 610 610 609 607 605 602 598 595 591 586 581 577 574 570 568 567 567 567 568 569 570 570 570 569 570 573 575 576 577 577 578 577 577 576 572
772 768 764 760 756 752 749 746 743 741 738 736 734 732 730 728 727 725 724 723 722 721 722 722 722 722 722 722 721 719 717 716 714 713 712 711 709 706 700 699 700 701 702 702 701 700 699 698 698 700 701 701 701 700 699 696 694 691 688 685 683 680 676 671 669 666 667 669 669 668 667 666 666 669 672 676 681 684 688 692 695 698 699 698 692 687 680 675 668 663 659 657 653 651 651 652 652 651 649 646 643 640 637 633 633 632 631 630 629 630 632 635 637 641 644 647 649 650 651 651 651 651 650 649 648 644 641 636 631 627 624 621 617 612 609 606 601 596 590 584 581 578 578 578 580 584 588 593 598 606 612 619 625 631 636 639 643 644 647 649 649 644 639 636 633 629 626 622 617 609 605 605 607 610 613 616 620 622 625 629 632 635 638 640 641 641 641 642 643 643 641 638 633 629 625 623 619 616 613 610 605 601 597 592 587 581 576 571 564 561 562 569 573 577 580 583 585 587 590 593 597 601 604 608 610 612 614 616 618 619 620 621 621 621 623 627 629 632 634 635 635 633 639 646 652 656 659 661 663 665 666 666 667 666 667 668 669 670 670 671 671 671 673 674 677 679 684 691 695 699 702 706 708 710 711 713 714 715 716 716 716 715 714 712 710 708 707 706 705 703 701 698 697 696 695 694 693 691 688 685 682 679 675 677 681 685 690 694 697 701 704 707 710 714 719 725 729 732 733 735 736 735 733 731 728 724 718 714 712 709 706 702 699 695 691 690 689 687 684 682 680 682 684 685 685 687 689 690 692 693 695 698 702 704 707 710 713 714 715 715 715 714 712 709 707 704 700 697 692 684 674 662 649 637 624 610 600 594 588 583 580 578 574 570 567 566 563 563 562 560 557 554 552 549 546 543 540 537 536 534 533 530 528 527 526 524 522 522 521 520 518 515 512 510 505 502 499 495 492 487 484 481 480 482 486 489 493 498 502 502 500 496 489 484 481 475 468 466 466 465 465 463 460 459 457 459 467 475 481 484 487 491 497 503 509 512 513 514 516 517 517 518 519 519 518 517 517 515 513 513 514 515 515 515 515 515 515 514 513 513 514 514 514 514 514 513 512 510 507 504 500 497 494 489 483 476 468 459 454 454 454 454 454 454 454 454 453 453 453 454 454 454 454 454 454 454 454 454 454 454 454 454 454 454 454 454 455 455 456 459 463 466 469 473 476 480 484 488 491 492 492 490 489 488 490 492 494 496 498 500 502 503 502 501 507 514 517 521 524 527 530 533 535 537 540 546 550 553 555 555 553 550 546 543 538 533 528 525 521 519 517 513 512 510 507 506 508 514 521 528 535 541 548 553 554 553 551 549 545 542 539 539 542 545 548 549 551 552 554 555 556 556 557 558 562 566 571 575 581 585 590 596 603 613 619 620 619 615 609 600 595 588 581 580 580 580 581 584 587 590 594 597 599 603 607 611 615 618 620 620 619 619 619 617 617 616 614 613 610 608 607 606 605 602 595 587 578 570 567 567 568 570 572 574 577 580 585 590 594 596 596 596 596 596 595 593 592 592 593 595 597 597 596 594 592 591 592 596 600 603 605 606 607 607 608 608 608 609 609 610 610 610 610 608 606 603 598 594 590 586 581 578 574 570 568 566 564 565 566 567 568 568 568 568 569 571 574 575 576 576 577 577 576 575 571
769 767 763 759 755 751 748 745 742 740 738 736 734 732 728 725 724 722 721 720 718 718 719 719 719 719 718 718 718 717 715 713 711 710 710 709 707 705 700 698 698 698 698 698 697 697 696 695 696 698 699 699 699 698 697 694 692 689 686 683 682 680 676 674 670 667 670 674 674 672 670 668 668 671 674 678 683 686 690 694 697 699 700 698 693 686 679 674 668 662 660 657 656 654 654 654 654 652 649 646 642 639 636 634 634 633 634 634 635 637 639 642 645 649 652 653 654 655 656 656 656 656 656 655 655 653 650 646 641 636 633 630 626 621 616 613 608 603 597 591 586 582 579 578 578 581 584 587 593 600 608 613 617 623 629 633 637 638 639 642 645 643 639 636 634 631 627 623 619 611 605 602 604 607 610 612 616 618 621 625 628 631 634 635 636 637 637 638 641 641 640 636 632 629 625 623 619 616 613 610 605 602 598 592 588 584 579 574 570 563 561 564 569 573 577 580 583 586 589 592 596 600 602 605 608 611 612 614 615 616 617 617 617 616 618 622 624 626 628 630 630 630 636 643 649 653 656 659 661 662 663 663 663 663 662 663 664 665 665 665 664 666 667 669 671 675 685 691 695 698 701 705 707 709 710 711 711 712 712 712 712 711 710 708 706 704 704 703 702 700 697 693 693 693 692 691 690 688 684 681 678 675 673 677 680 685 689 693 697 700 703 707 710 714 720 726 731 734 736 738 739 739 737 735 733 729 724 720 717 714 711 707 703 698 696 694 693 691 688 686 686 688 689 689 690 691 693 695 696 698 700 702 706 708 711 713 714 715 715 714 713 711 709 707 705 701 697 694 691 686 677 667 654 640 627 614 603 596 590 584 580 578 574 570 569 569 568 567 565 563 561 558 554 551 549 545 542 540 539 538 536 534 532 529 528 526 525 524 523 522 520 518 515 513 510 507 503 499 495 491 487 484 480 479 479 483 489 495 498 498 497 493 487 484 480 475 470 465 462 461 460 458 456 455 454 454 456 464 471 477 483 487 493 498 503 507 508 510 513 516 516 517 518 518 518 518 517 517 516 516 517 517 517 517 517 517 517 516 516 516 516 516 517 517 516 516 515 513 510 507 504 500 497 494 489 483 475 466 458 454 454 454 454 454 454 454 453 453 453 454 453 453 453 454 454 454 454 454 454 454 454 454 454 454 454 454 455 455 455 458 462 464 467 471 475 479 483 487 490 491 491 489 487 486 488 491 493 496 497 499 501 501 499 499 506 513 516 520 522 525 527 529 533 536 541 546 549 553 556 557 554 551 546 543 539 533 528 525 521 518 517 513 509 507 505 506 508 514 521 529 535 541 545 550 550 550 549 548 547 545 542 541 545 548 551 552 554 556 558 560 562 563 563 563 564 566 570 574 580 584 589 595 602 612 618 620 621 618 612 603 597 590 581 580 580 580 581 585 588 592 595 598 601 605 609 614 618 620 620 619 617 616 615 613 612 609 607 604 602 601 600 599 598 593 586 579 573 567 567 568 571 573 576 577 579 582 586 591 594 595 595 595 595 595 594 593 591 590 590 592 593 594 594 592 590 589 590 595 599 602 604 605 607 607 606 606 607 608 608 610 611 611 611 609 608 604 599 594 590 585 581 578 575 570 568 566 564 563 564 565 566 566 566 566 567 569 572 574 575 576 576 576 575 573 569
765 763 760 757 754 750 747 744 741 739 737 736 733 731 728 725 722 719 718 716 715 715 715 715 715 715 715 715 714 713 712 711 709 708 707 706 706 704 700 697 695 695 694 694 694 694 693 693 695 696 696 696 696 695 692 689 687 684 683 682 681 679 677 676 672 669 672 676 677 675 672 670 670 672 675 680 684 688 691 695 697 699 700 697 692 686 680 674 668 664 663 661 660 659 658 657 656 653 650 646 643 638 637 637 637 637 638 640 642 644 647 651 654 657 659 660 660 660 660 661 661 661 661 661 661 661 660 657 653 647 641 638 634 630 625 620 615 610 604 598 593 588 584 580 578 578 579 582 587 594 602 607 613 619 624 630 634 635 636 637 640 641 639 636 635 632 628 624 620 614 607 602 602 605 607 609 611 614 617 620 623 625 628 630 631 632 633 635 638 639 638 635 631 628 625 623 619 616 613 610 605 602 599 592 588 585 581 576 573 568 563 561 563 568 574 578 581 584 587 591 594 598 600 603 605 608 610 611 612 613 614 614 613 611 612 616 620 622 624 625 625 627 634 641 646 649 653 656 658 659 660 660 659 659 658 659 660 659 659 659 658 661 664 667 672 678 685 690 694 698 700 703 705 707 708 708 708 708 708 708 708 707 706 705 703 700 700 699 698 696 693 689 688 689 688 687 686 684 680 677 674 672 672 676 680 683 688 692 695 699 703 707 710 715 721 727 732 736 739 741 742 742 741 739 737 734 730 726 723 719 715 711 707 702 700 698 697 694 692 690 691 692 693 693 694 695 697 699 700 702 704 706 709 710 711 712 711 712 711 709 707 704 702 699 697 693 689 687 686 684 678 668 654 640 627 616 606 598 592 586 581 578 574 572 572 572 571 570 568 566 564 561 558 554 551 548 545 543 542 541 540 538 535 533 530 528 527 527 526 525 523 521 518 516 513 511 508 503 499 495 490 487 483 480 477 478 486 491 493 494 493 490 486 484 480 475 471 467 464 462 460 457 456 454 453 453 453 456 460 469 476 481 486 492 496 499 501 504 509 512 515 516 516 517 517 517 517 517 517 517 517 518 518 518 518 518 517 517 516 516 516 517 518 518 518 518 517 516 513 510 506 503 500 497 493 488 481 473 464 456 454 454 454 454 454 454 454 454 454 454 453 453 453 454 454 454 454 453 453 453 454 454 454 454 454 454 455 455 455 457 461 464 468 471 476 479 482 485 487 489 489 487 486 485 487 490 492 494 496 497 498 498 497 497 504 512 516 518 520 522 524 526 531 537 542 546 550 554 557 557 555 551 546 543 538 533 529 525 521 518 516 513 509 506 505 505 508 513 521 528 533 537 540 542 543 544 545 545 545 546 545 544 547 550 553 555 556 559 562 565 566 567 568 568 569 569 572 574 578 582 588 594 601 610 617 620 621 620 615 606 599 592 584 580 580 580 582 586 590 594 597 600 603 607 611 617 621 622 620 617 613 611 609 607 605 603 601 598 596 595 594 593 589 584 578 574 570 567 567 569 572 576 577 579 580 583 587 592 595 595 595 595 594 593 592 591 589 588 587 589 590 591 591 590 589 587 587 592 597 601 603 605 607 607 605 604 606 607 608 610 612 612 612 610 608 605 601 595 590 585 581 578 575 571 568 566 564 561 561 562 563 564 564 564 566 567 569 572 573 574 574 574 573 571 568
762 760 757 755 752 749 745 741 739 736 733 732 731 729 727 725 722 718 716 713 712 712 712 712 712 712 712 711 710 709 709 708 708 707 706 704 703 702 700 697 694 692 690 689 691 691 691 691 693 694 694 694 693 691 684 681 680 679 679 679 679 678 677 676 675 670 674 676 676 676 675 672 671 674 678 682 686 690 692 695 696 698 698 695 692 686 681 675 670 668 666 665 664 663 662 661 659 655 651 648 644 639 638 638 639 642 644 647 650 653 656 659 662 664 665 666 666 666 665 665 665 665 665 666 667 667 667 666 665 660 652 646 641 636 632 626 621 616 610 604 599 594 589 584 580 577 577 579 582 589 595 601 610 617 623 628 632 633 634 636 637 637 637 636 634 632 628 625 621 616 610 602 601 602 604 605 607 609 612 615 618 621 623 624 625 627 629 631 634 635 635 633 630 627 624 622 619 616 613 610 605 602 599 592 588 585 582 578 575 571 564 561 559 561 571 576 579 582 585 588 591 595 599 601 603 605 607 609 610 611 611 610 609 606 605 609 613 616 618 620 621 627 633 638 643 646 650 653 655 656 656 656 655 654 653 654 655 654 654 654 656 660 664 668 673 680 686 690 694 697 700 702 704 706 706 706 705 704 705 705 704 704 702 701 699 696 695 694 693 692 689 686 684 685 684 683 681 679 676 674 671 670 672 676 680 683 688 692 695 700 703 707 711 716 722 728 733 736 740 743 745 745 745 744 742 739 736 733 729 725 720 716 711 707 705 703 701 698 696 695 696 696 696 696 697 699 700 702 703 705 708 709 709 710 710 709 707 706 704 702 697 694 692 689 686 683 680 678 679 678 674 664 651 637 626 616 607 599 593 586 581 578 575 575 574 574 573 572 571 569 567 565 562 558 554 550 548 546 545 544 543 541 539 536 533 531 530 529 528 528 526 524 521 518 516 514 511 508 504 498 493 489 485 481 476 478 483 486 488 489 488 487 485 483 481 477 472 469 467 465 464 462 460 456 454 453 453 454 454 461 470 475 480 485 489 491 493 497 503 508 511 513 515 516 516 516 516 516 516 516 517 518 519 518 518 517 517 516 515 515 516 517 518 518 518 519 517 517 515 511 507 504 501 499 495 491 485 479 470 462 455 454 454 454 454 454 454 454 454 454 454 454 454 454 454 454 454 453 453 453 454 454 454 454 454 454 454 455 455 457 461 465 468 471 475 478 481 483 484 486 486 486 485 484 485 488 491 493 494 496 497 497 494 495 503 509 513 516 517 519 522 526 531 538 542 547 550 554 557 557 555 551 546 542 537 532 529 525 521 517 515 512 508 504 504 505 508 513 520 526 531 534 536 537 537 538 540 542 544 547 547 547 549 552 554 556 559 562 565 568 569 570 571 572 573 575 576 578 580 582 588 594 600 608 614 618 621 621 618 609 600 594 586 580 580 581 584 588 593 596 600 603 607 610 615 620 624 622 619 614 607 605 602 600 599 597 595 594 591 588 586 584 580 576 572 570 567 567 567 570 574 577 578 580 582 585 589 593 595 594 593 593 593 592 590 589 587 585 583 585 588 589 589 589 587 585 586 590 595 599 602 604 606 607 604 601 603 605 606 609 612 612 612 610 609 607 602 596 590 585 580 578 575 571 568 567 564 561 558 559 561 562 562 562 563 565 567 569 570 571 572 572 570 568 566
759 757 754 752 750 747 744 740 736 733 728 727 727 727 726 724 722 718 715 713 712 712 712 712 710 710 709 708 707 706 706 706 705 705 703 702 701 700 699 696 693 689 686 686 688 689 689 688 689 690 690 690 689 686 679 678 678 678 678 678 678 678 676 676 675 672 674 675 676 676 675 674 674 677 681 684 687 690 692 694 695 696 696 695 692 687 683 677 674 672 669 668 667 666 665 664 660 655 651 647 644 640 640 641 643 647 651 655 658 661 664 667 669 671 672 673 673 673 672 671 671 671 671 672 673 675 675 676 675 673 665 656 650 643 639 633 627 622 616 610 603 599 594 589 584 580 577 577 579 583 589 596 609 617 623 626 629 631 633 633 633 633 633 634 633 632 628 624 621 617 612 604 599 599 601 602 604 605 608 610 613 616 618 620 621 623 624 627 630 632 632 631 628 626 623 621 618 615 613 609 605 602 598 592 588 586 582 578 576 572 567 562 558 557 566 574 578 581 584 586 589 592 596 598 600 602 604 606 607 608 608 606 605 601 598 602 605 609 613 615 620 627 632 636 640 643 647 650 652 653 652 652 651 650 649 649 649 649 650 653 657 662 666 669 673 680 686 690 693 696 698 700 702 703 703 703 702 701 701 701 701 700 698 697 695 692 691 691 689 688 685 682 681 681 681 680 677 675 672 670 668 669 673 677 680 685 690 693 696 701 704 708 711 716 722 729 734 737 741 744 746 747 748 748 746 744 741 739 735 731 727 721 715 711 709 708 705 702 699 699 700 699 699 699 700 702 703 705 706 708 708 708 708 707 705 704 701 698 695 692 687 683 681 679 677 675 672 670 671 670 667 657 645 633 624 614 606 599 593 586 580 578 577 577 577 576 576 575 574 572 570 568 565 561 557 554 552 550 548 547 546 544 542 540 536 533 532 532 531 530 529 527 524 521 519 516 514 511 508 502 496 491 487 482 476 478 481 483 484 484 484 484 483 483 481 480 475 472 470 468 466 464 463 461 456 454 454 454 454 456 464 470 474 479 482 485 487 491 497 502 506 509 511 514 514 514 514 514 515 516 517 517 518 518 518 517 516 516 515 515 515 516 517 518 518 519 517 517 515 511 507 504 501 499 497 493 488 482 475 470 462 456 454 454 454 454 454 454 454 454 454 454 454 454 454 454 454 454 454 454 454 454 454 455 455 455 454 455 456 458 462 466 468 471 474 476 478 480 482 484 484 484 483 483 484 487 489 490 492 493 494 493 491 494 499 505 510 513 515 518 524 528 533 539 543 547 550 554 556 556 554 550 546 541 536 532 529 525 521 517 514 510 506 503 503 505 508 513 519 525 528 531 533 534 534 535 538 541 545 547 548 549 551 553 555 557 560 564 568 570 571 572 573 575 576 578 580 582 584 586 590 594 600 608 614 618 620 621 619 611 601 595 589 581 580 582 586 591 595 599 603 607 610 614 618 622 625 622 618 610 604 601 597 594 593 592 590 587 584 580 577 574 572 570 568 567 567 567 568 571 574 577 579 581 583 586 591 594 594 592 589 589 589 588 587 586 584 582 580 582 586 587 587 586 584 582 585 590 595 599 602 604 606 606 602 598 600 603 604 607 611 612 612 610 608 606 602 596 591 585 581 578 575 571 568 567 565 561 558 556 558 559 559 561 562 564 565 567 568 568 569 568 567 566 564
759 755 751 748 746 744 742 737 734 729 724 722 723 724 725 724 722 719 716 713 712 712 712 712 712 711 710 708 707 706 706 705 704 702 700 699 698 697 695 693 689 686 683 683 683 685 684 682 683 684 685 685 684 680 677 678 678 678 679 679 680 679 677 676 675 674 675 676 676 675 675 675 675 678 682 684 688 689 691 692 694 695 696 695 693 688 684 681 678 675 673 670 669 667 665 664 659 654 650 646 642 641 643 645 649 654 658 662 665 668 671 674 676 678 679 680 680 680 679 678 678 678 678 679 680 682 684 686 687 686 679 668 660 653 646 640 634 627 622 615 609 604 598 593 588 584 580 578 576 579 583 591 607 616 621 624 627 629 630 629 629 629 629 630 630 630 627 623 620 617 614 607 600 597 597 599 600 602 605 607 609 612 614 616 617 619 620 623 626 628 629 628 627 625 623 620 617 615 612 609 605 602 598 592 589 586 582 579 577 574 569 564 559 557 558 569 575 578 581 584 587 589 592 595 598 600 601 603 603 604 604 602 600 596 594 597 600 605 611 616 621 626 630 633 637 640 644 646 648 649 648 646 644 644 644 646 647 648 650 654 658 663 667 670 674 680 685 689 693 695 697 698 699 700 700 699 698 697 697 697 697 695 694 692 691 688 687 687 685 683 681 678 677 677 677 676 673 671 668 666 667 670 674 678 683 688 692 695 699 703 706 709 713 716 722 729 734 737 741 744 747 748 750 753 752 751 748 744 741 738 734 728 722 718 715 712 709 706 704 704 704 703 702 702 702 703 704 705 707 707 706 706 705 701 696 693 690 687 684 680 677 673 669 668 668 667 664 661 662 661 657 647 638 629 620 611 603 597 591 586 581 581 581 580 579 579 578 577 577 575 574 571 569 565 561 558 556 554 552 551 550 548 546 544 540 537 535 535 535 534 532 530 528 525 521 519 516 513 511 506 500 495 489 482 476 474 479 480 480 480 480 481 482 482 481 480 478 473 471 469 467 464 462 461 458 454 454 454 454 454 456 464 469 473 476 479 481 485 491 495 499 502 506 510 511 512 512 513 514 515 516 517 517 517 517 516 516 515 514 514 514 515 517 518 518 518 517 517 514 510 506 503 500 498 496 493 488 483 480 477 471 462 455 454 454 454 454 453 453 453 453 453 454 454 454 454 454 453 453 453 454 454 454 455 455 455 455 456 457 459 464 467 468 471 473 475 476 478 480 481 481 481 480 481 483 486 487 489 490 490 490 489 490 491 497 502 508 513 516 521 526 531 535 539 543 547 550 553 555 555 553 549 544 539 534 531 528 526 522 517 514 509 504 501 502 505 510 514 518 523 526 527 529 531 532 534 538 542 546 549 550 552 553 554 555 558 563 566 569 571 572 574 575 577 579 581 583 585 588 592 594 597 603 608 614 618 620 621 618 611 601 596 590 584 583 585 588 593 598 603 607 611 614 618 622 625 625 622 614 606 601 598 593 589 586 585 583 579 577 574 571 569 567 567 567 566 566 566 569 572 574 578 580 583 586 590 594 596 595 591 585 582 583 583 583 582 581 578 576 580 584 585 584 583 580 579 584 590 595 599 602 604 606 606 601 595 597 600 602 604 608 610 611 609 607 605 601 596 592 586 581 578 574 570 567 567 565 561 557 555 554 555 557 558 561 562 564 564 565 565 565 564 563 562 560
759 755 750 746 743 741 739 735 731 724 721 722 722 722 724 724 723 720 717 714 712 712 713 714 715 715 714 713 711 709 707 707 706 703 700 698 696 694 692 690 687 685 684 682 678 678 678 677 678 679 680 680 678 678 678 679 679 680 681 682 683 683 682 681 681 679 678 677 676 675 675 675 676 679 682 684 687 688 690 691 693 694 695 694 693 690 686 683 680 677 674 672 670 667 665 663 657 652 647 644 642 643 646 650 656 661 664 667 670 674 677 680 683 685 685 685 685 685 685 684 685 685 685 686 687 689 692 696 698 698 694 683 670 661 654 647 640 633 626 620 614 607 602 596 591 588 585 581 577 577 580 586 604 613 619 622 625 626 626 624 624 625 626 627 628 628 625 621 619 617 615 609 602 597 595 596 596 599 602 604 606 608 611 612 614 616 618 620 623 626 627 626 625 623 621 619 616 614 612 609 605 601 598 593 590 587 583 580 577 574 569 566 562 557 555 562 571 575 579 582 585 587 589 592 594 597 598 600 600 600 599 597 595 592 592 597 601 606 612 617 621 625 629 632 635 639 642 644 644 645 644 641 640 641 643 646 648 649 652 655 659 663 668 671 674 680 684 688 691 693 695 696 697 698 697 697 696 694 693 693 693 692 691 689 688 685 683 682 681 679 677 674 674 674 674 673 671 668 664 665 668 671 675 680 685 690 694 697 701 705 708 711 715 718 722 728 733 735 739 743 747 749 751 755 756 756 753 751 747 744 740 735 729 725 721 718 714 711 709 707 706 705 704 704 704 705 705 705 705 704 703 702 699 693 686 682 679 676 673 671 667 663 659 659 659 658 656 652 652 651 646 639 631 623 615 608 600 595 589 584 582 583 583 582 581 581 580 580 579 578 576 574 571 567 565 563 561 559 556 555 554 552 550 548 544 540 539 538 538 537 535 533 531 527 524 521 518 515 513 509 503 498 492 485 479 474 473 475 476 475 475 478 480 481 481 480 479 474 471 470 468 464 460 456 455 454 454 454 454 454 454 457 464 468 471 474 476 479 484 488 492 494 500 505 508 510 510 511 512 514 515 516 516 516 516 515 514 513 511 512 513 514 516 518 518 518 517 516 513 509 504 501 499 497 494 492 488 484 483 482 477 470 459 454 454 454 454 453 453 453 453 453 454 454 454 454 454 453 453 453 454 454 454 455 455 455 455 456 457 459 464 467 468 470 471 473 474 476 478 479 479 479 478 479 482 484 485 487 488 488 487 486 488 492 498 505 511 514 518 523 528 532 536 539 542 546 549 552 553 553 552 547 541 536 533 531 528 525 521 517 514 509 503 500 501 505 510 515 518 521 525 526 529 532 534 537 540 543 547 549 552 553 554 555 556 559 563 567 569 572 573 575 577 578 580 582 585 588 591 594 596 600 606 610 615 619 621 621 617 610 601 596 592 587 588 590 591 595 601 606 610 614 618 622 624 626 625 620 611 604 599 596 591 584 579 577 576 574 572 569 568 567 566 566 566 565 564 565 569 572 575 578 581 584 588 592 596 598 595 589 582 576 575 577 578 577 576 574 574 579 582 583 582 580 576 577 583 590 596 600 602 604 605 605 600 594 593 598 600 602 604 607 608 607 606 604 601 596 592 587 581 578 574 569 567 566 565 561 557 553 552 553 555 558 560 561 562 562 562 562 561 561 560 559 557
759 754 749 744 741 738 735 731 728 722 721 722 722 722 724 724 724 721 718 715 714 715 716 718 719 720 720 719 717 715 713 710 709 707 704 701 697 694 691 689 687 686 685 683 680 678 677 677 678 678 678 678 678 678 679 680 680 682 684 687 689 689 689 689 688 685 681 679 677 675 675 675 676 680 682 684 685 687 688 690 692 693 694 693 692 689 686 683 681 678 674 672 669 667 665 660 654 648 645 643 644 646 651 657 662 667 670 673 676 681 684 686 688 690 690 691 691 690 690 689 690 690 690 691 694 697 700 704 708 711 707 697 682 668 661 654 646 638 631 624 618 610 604 599 595 592 589 586 581 576 578 583 600 610 616 619 621 622 621 621 621 621 622 623 625 625 623 620 619 617 615 612 605 599 594 593 594 595 598 601 604 606 607 609 611 613 615 617 620 623 624 624 623 621 620 618 616 613 611 608 605 602 598 595 593 589 585 582 577 574 569 566 564 558 555 556 565 572 576 579 582 584 586 589 590 592 595 596 596 596 595 594 592 588 591 597 602 606 611 616 620 623 627 630 633 637 640 642 642 641 640 639 639 641 643 646 648 649 652 656 660 664 668 671 675 680 684 686 689 691 693 694 695 695 695 694 693 691 690 690 689 689 688 686 684 682 679 678 676 675 673 671 671 672 671 670 668 664 663 665 669 673 676 681 686 691 695 698 702 706 709 712 716 719 722 727 731 735 738 742 746 749 752 755 757 758 758 757 755 751 746 742 737 733 728 724 720 716 713 711 709 708 706 705 705 704 704 703 702 701 700 697 693 687 681 673 669 666 663 660 658 655 652 651 651 650 648 644 644 641 636 630 623 615 610 604 597 592 587 585 584 585 585 584 584 583 583 582 581 580 578 576 573 570 569 567 565 563 560 559 558 556 554 551 548 544 544 543 542 540 538 536 533 530 526 523 519 517 514 511 506 502 497 492 487 480 472 469 469 468 466 470 477 479 479 479 477 474 471 469 468 464 459 454 454 454 454 453 453 453 453 453 457 463 467 469 471 474 477 481 484 488 493 499 503 506 507 508 510 513 514 515 516 515 515 514 513 511 509 510 512 514 516 517 517 517 516 514 511 507 502 499 497 494 492 489 486 484 484 485 482 476 465 455 454 454 453 453 453 453 454 454 454 454 454 454 454 454 454 454 454 454 454 455 455 455 455 456 457 459 463 466 468 469 470 472 473 474 475 476 476 476 476 479 481 483 484 485 486 486 485 485 488 494 501 508 513 516 520 525 528 533 537 539 542 545 547 550 551 551 549 544 538 534 531 529 526 523 520 516 513 510 502 500 500 506 511 515 518 521 525 528 532 535 538 541 543 545 548 551 553 555 556 557 558 560 564 568 569 572 574 576 578 580 582 584 587 590 593 595 598 601 607 612 617 619 621 619 616 609 601 595 593 592 595 596 596 599 603 609 613 618 622 624 626 626 623 616 607 602 598 594 588 581 574 572 571 569 568 567 567 566 566 565 565 564 563 562 568 572 575 579 582 586 590 594 597 598 594 587 580 572 568 570 572 572 570 570 573 578 580 581 580 576 573 575 582 590 596 600 602 604 604 603 600 593 590 594 597 600 602 603 605 605 604 603 600 596 592 586 581 579 575 570 567 566 564 560 556 552 550 551 554 557 559 559 559 559 559 559 558 558 557 555 553
756 752 747 743 739 736 732 727 724 722 722 722 722 722 724 725 725 723 718 716 717 718 720 723 725 725 725 725 723 721 718 715 713 711 709 706 701 697 693 691 690 689 688 686 683 680 678 678 678 678 678 678 679 679 680 682 683 685 689 692 694 696 696 696 694 690 686 681 678 676 675 676 677 680 681 683 683 685 687 689 690 691 691 691 690 688 686 683 682 678 674 671 668 666 663 658 650 645 644 646 649 653 659 664 667 672 675 679 683 687 689 691 693 695 696 697 697 697 696 695 695 694 695 696 699 703 706 710 717 724 718 706 693 676 666 660 651 643 636 628 621 614 607 603 600 597 593 588 584 578 576 581 596 607 613 616 617 617 617 617 617 617 617 617 619 622 621 620 619 617 615 614 608 602 595 591 591 592 594 598 602 603 604 605 607 609 611 614 617 620 622 622 621 619 618 616 614 612 610 608 605 603 600 598 595 592 588 584 580 575 569 567 564 559 555 554 559 567 573 576 579 581 583 586 587 589 590 591 591 591 590 589 586 583 590 596 601 606 610 614 618 621 625 630 633 636 639 640 640 639 638 637 637 640 642 645 648 649 653 657 661 664 668 671 675 679 683 686 688 689 691 692 693 693 692 692 690 689 687 686 686 685 684 682 680 677 675 673 672 670 668 667 668 669 668 666 663 661 663 667 671 675 678 683 688 692 696 699 703 707 711 714 716 721 724 727 731 734 737 741 746 749 752 755 759 760 761 761 760 757 754 749 745 741 736 731 727 722 718 715 713 711 709 707 706 705 702 701 699 698 696 692 688 681 676 668 663 659 656 653 651 650 648 647 646 644 642 639 637 632 627 620 612 607 603 599 595 591 588 587 586 587 587 586 586 585 585 584 583 582 580 578 575 573 572 571 570 567 565 564 562 560 558 555 551 549 549 548 547 545 542 540 536 532 528 525 521 518 516 513 511 507 502 497 492 487 480 472 469 467 464 462 468 473 475 475 474 472 470 468 467 464 457 454 454 454 454 453 453 453 453 453 454 457 462 466 467 469 471 475 479 483 488 493 497 499 501 503 507 510 512 513 514 514 513 512 511 508 507 509 511 513 515 516 516 517 515 513 510 506 501 498 494 491 489 486 484 483 484 486 485 481 473 460 454 454 453 453 453 453 454 454 454 454 454 454 454 454 454 454 454 454 454 455 455 455 455 456 457 458 462 465 467 468 469 470 471 472 473 474 474 474 473 477 480 481 482 483 484 484 483 485 489 496 504 510 514 518 521 526 529 533 537 539 541 543 544 546 547 547 544 540 535 532 530 527 524 522 518 515 512 509 502 499 500 508 513 517 520 523 527 531 535 539 543 545 547 549 551 552 554 556 558 559 561 562 564 568 570 573 575 577 579 581 583 585 588 591 594 596 598 602 607 613 618 619 620 617 613 608 602 596 596 598 601 602 602 603 606 612 617 621 624 626 627 626 621 613 605 600 595 592 586 580 572 568 566 566 566 565 565 565 565 565 564 563 560 559 565 572 574 579 583 588 592 596 597 597 593 584 577 569 563 562 563 564 564 567 572 576 577 577 576 572 570 574 581 589 595 600 602 603 603 602 600 593 587 589 594 597 599 601 602 603 602 602 599 596 591 586 581 579 575 570 567 565 563 559 556 552 550 551 553 556 557 557 557 557 557 556 555 554 552 551 550
754 750 747 743 740 736 731 726 722 722 722 722 722 722 724 725 725 723 719 719 720 722 726 729 731 731 731 730 729 727 723 720 717 714 712 709 706 701 697 695 694 692 690 688 684 681 678 678 678 678 679 680 681 682 683 685 688 691 695 698 699 701 702 702 699 695 691 684 679 677 676 676 678 681 681 681 681 683 685 687 688 689 689 689 688 687 685 683 681 677 673 670 667 664 660 656 648 646 648 652 655 660 665 669 672 676 680 684 688 691 693 695 698 701 703 705 704 704 704 703 702 702 702 702 704 706 708 712 719 728 724 709 697 683 670 663 655 646 639 632 623 617 611 608 604 601 596 589 586 580 575 580 593 606 610 612 613 613 613 613 613 613 612 612 614 617 618 620 620 617 615 614 610 605 598 590 589 589 591 595 598 600 600 601 603 605 607 610 613 617 619 619 619 618 617 615 613 611 609 607 605 603 602 599 597 594 590 586 582 577 572 568 564 560 557 554 555 561 568 573 576 578 580 582 584 586 586 587 587 586 585 584 579 580 588 594 599 604 608 612 616 619 624 629 632 635 637 638 638 638 637 636 636 638 641 644 647 649 653 657 661 665 668 672 674 679 682 684 686 687 689 690 690 690 690 689 688 686 684 683 683 682 681 679 676 674 671 670 669 667 666 664 665 665 664 662 659 661 664 667 672 675 680 685 690 693 697 700 704 708 711 714 717 721 724 727 730 734 737 741 746 749 752 756 759 761 763 764 764 763 760 757 752 748 743 738 733 728 724 721 717 715 712 709 707 706 703 700 697 694 691 687 682 676 671 665 660 656 652 651 649 647 646 645 643 640 638 634 632 625 620 613 608 603 600 597 594 592 591 589 588 588 588 588 587 587 586 585 585 583 582 580 577 576 575 574 573 570 569 567 566 564 562 559 555 553 553 552 551 549 546 543 540 535 530 526 522 519 517 515 513 510 507 502 496 491 486 481 477 474 470 464 458 462 467 469 469 468 467 465 464 461 455 454 454 454 454 454 454 454 454 454 454 454 457 462 464 466 468 472 476 480 484 488 491 494 496 497 503 507 509 510 511 511 510 509 508 505 504 508 510 512 514 515 516 516 514 511 507 503 499 495 491 487 485 483 481 482 484 486 486 485 477 466 455 454 453 454 454 454 454 454 454 454 454 454 454 454 454 454 454 454 454 455 455 455 455 455 456 458 461 464 466 467 468 467 468 470 471 472 472 471 470 474 478 480 481 482 482 481 481 485 490 497 506 512 516 519 523 526 529 532 536 538 540 541 541 542 543 542 539 536 533 530 528 525 522 520 516 513 510 507 502 499 500 509 515 520 522 525 530 534 538 542 546 549 551 552 553 554 556 557 559 561 563 565 567 568 571 574 576 578 580 582 584 587 589 592 594 596 599 603 607 612 617 619 617 614 611 608 603 599 600 603 606 607 607 609 611 615 620 623 625 626 627 624 619 611 603 598 592 590 585 579 572 566 563 563 563 564 564 564 564 564 562 560 556 556 563 571 574 579 584 590 593 596 597 596 590 581 574 568 560 556 555 556 559 565 569 573 574 573 570 567 568 573 581 588 595 599 602 603 603 602 600 593 586 584 589 593 596 598 599 601 601 600 598 595 590 585 581 578 574 569 567 565 562 559 556 552 550 550 552 553 554 555 555 554 554 553 551 551 550 549 550
755 751 748 744 740 735 730 726 723 722 722 722 722 722 724 724 724 723 722 723 725 727 732 736 738 738 736 735 734 732 728 725 722 719 715 712 709 705 702 698 696 693 690 689 686 681 679 679 679 679 680 683 684 686 688 691 693 697 700 703 704 706 707 707 704 700 694 687 680 678 677 677 679 681 681 681 681 681 683 685 686 687 687 687 686 685 683 682 680 677 672 669 666 662 658 654 649 650 654 658 662 665 670 673 677 681 685 689 691 694 697 700 704 708 711 712 713 712 712 711 710 709 708 707 708 708 708 709 714 721 722 710 697 686 671 662 654 647 641 634 626 621 617 613 608 603 598 591 586 580 575 580 591 605 608 609 610 610 610 610 609 609 609 609 611 614 617 620 620 617 615 614 611 607 600 592 587 587 589 592 595 596 597 597 599 601 604 606 610 614 616 616 617 616 615 613 612 610 608 606 605 603 602 600 599 595 592 588 583 579 574 569 565 562 558 554 553 555 562 568 573 575 577 579 581 582 583 584 583 582 581 578 574 578 585 591 597 602 606 609 613 618 623 628 632 634 636 637 637 637 636 634 636 637 640 644 647 649 653 658 662 665 669 672 674 678 681 683 685 686 687 688 688 688 687 687 686 684 682 681 679 678 677 675 673 671 668 667 666 664 663 661 661 662 660 657 658 662 664 667 671 676 681 687 692 695 699 702 705 708 712 714 717 720 723 726 730 733 736 740 746 749 752 756 760 762 764 766 768 768 767 763 759 755 750 744 739 734 730 727 723 720 716 713 710 708 706 703 700 696 691 687 681 674 669 663 658 654 651 648 647 646 645 644 642 639 636 633 630 625 621 617 611 607 602 598 596 595 594 592 591 590 590 590 589 589 588 588 587 585 584 582 580 579 578 577 576 573 572 571 569 567 565 562 559 558 558 557 556 554 551 547 543 538 532 528 525 522 519 517 515 512 510 506 501 495 490 486 483 479 475 470 459 457 459 461 463 463 462 461 460 456 454 454 454 454 454 453 454 454 454 454 454 454 454 459 461 464 466 470 473 477 480 484 487 489 491 492 498 503 506 507 508 508 507 506 505 503 502 505 509 511 512 514 515 514 512 508 504 500 496 492 488 484 482 479 479 480 482 484 485 485 479 470 458 454 453 454 454 454 454 454 454 454 454 454 454 454 454 454 454 454 454 454 455 455 455 454 455 456 460 462 464 465 465 464 465 468 468 469 469 467 467 471 475 477 479 480 480 479 479 485 491 497 507 513 517 520 523 527 529 532 534 537 538 538 538 539 540 538 536 534 532 529 526 523 520 518 515 512 509 504 500 498 500 507 513 520 522 526 531 536 540 544 548 551 553 555 556 557 558 559 560 562 565 568 570 571 574 575 576 579 581 583 585 587 590 593 595 597 600 604 607 611 614 616 614 612 610 608 604 603 605 608 610 611 612 614 617 620 624 625 626 627 627 623 616 608 601 596 590 588 583 578 571 564 560 558 560 562 563 563 562 561 559 556 553 554 561 570 574 578 585 590 594 596 597 595 587 580 575 569 562 554 550 550 556 561 565 567 568 567 564 562 566 573 580 587 594 599 602 603 603 602 600 594 585 581 584 588 592 594 596 598 599 598 597 593 589 584 581 577 574 569 566 565 562 559 557 553 549 548 549 551 551 551 551 551 550 549 549 548 548 548 550
755 751 747 743 738 734 730 726 724 723 722 722 722 722 724 724 724 724 725 727 730 733 738 743 745 745 742 739 737 734 732 729 724 721 719 715 711 708 704 700 696 693 690 688 686 682 681 681 680 680 682 685 688 690 693 696 698 702 705 707 710 712 713 712 709 703 697 691 683 679 679 679 681 681 681 681 681 681 682 684 684 685 685 685 684 682 681 680 678 676 672 669 666 662 657 653 652 655 659 663 666 669 673 677 681 685 688 692 695 698 701 706 712 717 720 722 723 723 723 721 720 719 715 711 710 707 706 703 707 713 716 708 696 685 669 660 653 647 642 636 630 626 622 617 612 605 599 592 586 580 575 580 591 604 606 606 606 606 606 606 606 606 605 606 610 614 616 619 618 617 615 614 611 608 601 594 587 585 586 589 591 593 593 594 595 598 600 603 606 610 612 613 614 614 613 612 610 609 607 605 604 603 602 600 599 597 593 590 585 581 576 571 567 564 560 556 552 553 557 563 568 571 574 576 578 579 580 580 580 578 576 571 570 576 582 588 594 599 603 607 611 616 621 625 630 632 634 635 636 635 634 632 636 637 640 643 647 649 653 658 662 665 669 672 674 677 679 682 683 684 685 686 686 686 685 684 683 681 680 678 676 675 674 672 670 668 665 663 662 661 660 658 657 658 656 653 658 661 664 667 671 677 682 688 693 697 700 704 707 709 712 714 716 719 721 724 728 731 735 739 745 750 752 756 760 763 766 768 770 772 772 770 766 762 756 750 745 739 735 732 729 726 722 719 715 713 710 707 704 701 696 692 688 681 673 666 659 654 651 648 647 646 644 644 643 640 638 635 633 630 626 622 616 613 609 604 601 599 597 594 593 593 592 592 591 591 590 590 589 587 586 585 583 583 582 580 579 576 575 574 573 572 570 567 564 563 563 562 561 559 556 552 548 541 534 530 527 525 522 519 517 514 512 509 505 499 493 489 486 482 479 475 467 459 456 455 457 457 456 455 455 454 453 453 454 454 454 453 454 454 454 454 454 454 454 455 458 462 465 468 471 474 478 481 484 485 487 488 493 498 501 503 504 504 503 503 502 501 500 502 506 509 511 512 513 512 510 505 500 497 494 490 486 482 479 477 477 478 479 481 482 482 478 472 463 454 454 454 454 454 454 454 454 454 454 454 454 454 454 454 454 454 454 454 455 455 454 454 454 455 458 460 461 462 461 459 462 465 466 466 465 463 465 468 472 474 476 477 477 477 480 485 492 497 507 514 517 520 523 526 528 531 533 535 536 534 533 533 534 534 533 531 530 527 525 521 519 517 514 510 506 501 498 497 498 505 511 517 522 526 530 536 541 545 549 553 555 557 558 560 561 561 562 564 567 570 572 574 576 577 578 580 582 584 586 588 591 593 595 597 601 603 606 609 611 611 611 610 610 608 607 607 609 611 613 615 617 619 622 624 626 627 628 628 627 621 613 605 599 593 589 586 582 577 570 564 558 553 554 558 560 560 559 558 556 552 549 551 559 568 572 577 584 590 594 596 597 595 588 583 579 574 566 556 548 546 550 555 558 560 561 560 557 559 566 572 580 585 592 598 601 602 602 601 599 593 584 578 579 584 587 590 592 594 595 595 595 592 588 583 579 576 573 569 566 565 561 559 557 553 549 546 547 548 547 547 547 547 547 547 547 546 546 548 551
754 749 745 740 736 733 731 729 727 725 723 722 723 723 724 725 725 726 728 731 735 739 745 751 753 752 747 744 740 736 734 731 726 723 721 717 713 710 706 701 696 693 690 687 685 683 683 684 683 682 684 687 690 693 697 700 703 706 710 713 716 718 718 717 712 705 699 693 685 680 680 680 681 681 681 681 681 681 681 683 683 684 684 683 682 680 679 678 676 673 671 668 666 662 657 654 655 659 664 667 670 673 676 680 683 687 690 694 698 701 707 714 720 725 731 732 732 733 732 731 728 726 718 713 710 707 705 699 701 705 709 705 696 684 670 661 654 649 643 638 634 631 626 620 615 608 599 593 585 579 574 580 590 603 604 603 601 601 601 600 600 600 601 605 610 614 615 614 614 615 614 613 611 608 602 595 588 584 584 586 588 589 590 590 591 593 596 599 603 606 609 610 611 611 611 610 609 607 605 604 603 602 601 600 599 597 594 590 587 582 578 573 568 564 560 557 552 551 553 558 563 566 569 572 574 575 576 576 575 573 570 566 568 573 578 584 589 595 601 606 610 615 619 623 628 631 633 634 634 633 631 630 635 636 639 643 647 649 654 659 662 665 669 672 673 676 678 679 681 683 683 684 684 683 682 681 680 678 677 675 672 672 671 669 667 665 662 660 659 658 656 654 653 652 651 652 657 660 665 668 672 677 683 689 694 698 702 706 708 711 712 714 716 718 720 722 726 730 734 739 745 749 752 756 761 763 767 769 772 774 776 776 773 769 764 757 751 745 740 738 735 731 727 724 720 717 714 711 708 704 700 696 693 688 681 672 665 659 656 653 650 648 646 644 644 643 641 639 638 635 632 626 621 618 614 609 605 602 599 597 596 596 595 595 594 593 593 592 590 589 588 588 587 586 585 583 581 579 578 577 577 576 574 571 570 569 569 568 567 565 561 557 551 545 538 533 530 527 525 522 519 517 515 512 508 504 497 492 488 485 481 478 472 467 462 455 454 453 454 454 453 454 453 453 454 454 454 454 454 454 454 454 454 454 454 453 455 460 464 466 469 472 475 478 481 483 484 486 489 493 496 498 499 499 499 500 500 499 498 499 502 506 508 509 510 510 507 502 497 494 491 487 484 480 478 476 474 475 476 477 477 477 476 472 465 457 454 454 454 454 454 454 454 454 454 454 454 454 454 454 454 454 454 454 454 454 454 454 454 454 455 456 457 457 456 455 457 461 463 463 462 461 463 466 469 471 473 473 473 476 482 487 492 498 507 514 517 520 523 525 527 529 531 533 533 531 529 528 529 530 529 529 528 526 523 520 518 517 515 510 505 500 497 496 498 504 510 515 521 526 531 537 542 546 550 554 557 560 561 563 564 564 565 566 569 572 574 576 577 578 580 581 583 585 587 588 591 593 595 598 601 603 605 607 609 609 609 609 609 608 609 610 611 614 616 619 622 624 625 626 628 628 628 628 625 617 608 602 596 591 587 584 580 575 568 562 556 550 549 552 556 557 556 553 551 547 546 549 557 566 571 576 582 590 593 596 597 596 590 586 582 579 571 560 549 542 543 547 550 553 553 553 552 557 566 573 579 584 590 596 600 601 601 600 597 592 584 576 574 579 583 585 587 589 591 592 592 590 587 583 577 575 572 569 566 565 560 557 556 552 548 545 545 545 544 544 544 544 545 545 545 545 546 549 552
751 746 743 740 738 736 734 733 730 728 726 725 725 726 727 727 728 729 733 737 741 745 750 756 759 757 751 747 742 738 735 732 728 724 722 718 715 712 708 703 698 694 691 687 685 684 686 687 687 685 686 689 692 695 700 703 707 711 715 719 722 724 722 718 713 707 699 694 687 680 680 680 681 681 681 681 681 681 681 682 682 682 682 681 680 679 677 675 673 670 669 667 665 661 658 658 659 663 668 672 674 676 678 682 685 688 692 696 701 706 713 720 726 733 740 743 742 741 739 735 730 727 719 714 710 707 704 699 696 698 701 700 693 681 670 661 656 651 646 641 637 633 628 623 617 610 601 593 585 578 573 580 589 602 602 601 599 598 597 596 596 596 600 606 610 612 612 610 610 611 611 610 610 607 601 596 590 585 584 584 585 586 587 587 588 590 592 595 599 602 605 607 608 609 609 608 607 606 604 603 602 601 600 599 598 596 594 590 588 583 578 573 568 564 560 557 554 550 550 553 559 563 565 568 569 570 570 570 569 567 565 563 565 570 575 580 587 592 599 604 608 613 617 621 625 629 631 632 632 630 627 629 634 636 640 643 647 650 654 659 662 665 668 671 673 675 676 677 679 680 680 681 681 680 679 678 677 675 674 672 669 667 666 665 663 661 659 656 655 653 652 650 649 647 648 651 656 660 665 668 673 677 683 689 694 699 703 707 709 712 714 715 716 718 718 720 723 727 732 738 744 749 752 755 761 764 767 771 774 776 779 780 778 776 770 765 758 751 746 744 740 736 733 729 726 721 718 715 712 708 704 700 697 692 687 679 673 668 663 659 655 652 649 647 647 647 646 645 643 641 637 632 626 623 619 614 610 606 602 600 600 600 599 598 597 597 595 594 593 592 592 591 590 589 587 586 583 582 581 580 580 580 578 576 575 575 575 574 572 570 566 561 556 550 544 538 533 530 527 524 522 519 517 514 510 506 502 496 490 487 484 481 477 472 467 460 455 453 454 454 453 454 454 454 454 453 453 453 454 454 454 454 454 454 454 453 453 457 461 465 467 470 472 476 479 481 483 485 487 489 491 493 494 495 496 498 498 497 496 496 498 501 503 506 507 506 503 500 495 491 488 484 481 478 476 475 472 473 474 475 475 475 474 471 466 460 454 454 454 454 454 454 454 454 454 454 454 454 454 454 454 454 454 454 454 454 454 453 454 454 454 454 454 454 454 454 454 458 459 460 459 458 461 464 467 469 469 470 472 478 484 488 493 498 507 514 517 519 522 524 526 528 529 530 530 529 526 524 524 525 526 526 525 524 521 520 518 518 516 512 506 500 495 495 500 506 513 517 522 527 534 540 544 548 552 555 560 563 565 566 567 568 568 569 570 573 576 578 579 580 582 583 584 586 587 589 592 594 596 598 601 603 604 606 607 607 608 608 608 608 610 611 612 616 618 622 624 626 627 627 628 628 627 625 619 610 604 599 594 589 585 582 579 573 566 560 554 548 545 547 552 553 553 549 546 543 545 549 556 565 570 574 580 587 592 595 596 596 592 588 585 581 576 566 552 542 539 541 545 547 548 548 549 555 566 573 578 582 587 593 597 599 599 598 595 590 583 575 570 574 578 580 582 584 585 587 588 588 586 582 577 573 571 568 566 564 560 555 554 551 547 544 544 544 544 544 544 544 544 544 544 545 547 550 552
748 745 744 743 741 740 739 737 735 731 729 729 729 730 730 728 730 733 737 742 746 751 756 760 762 761 754 749 744 740 736 732 728 725 722 718 716 713 709 704 700 696 693 689 685 686 688 689 689 688 688 690 693 697 702 705 710 716 721 725 728 728 723 718 712 707 700 694 688 681 680 680 681 681 681 682 682 682 682 681 681 680 680 679 678 677 675 672 669 667 666 665 664 661 661 662 663 667 672 677 679 679 681 684 687 691 694 699 704 710 716 723 730 738 747 749 749 745 740 734 727 724 717 713 709 707 702 699 693 690 694 695 690 679 669 664 660 656 650 645 640 635 630 625 619 611 602 593 586 578 573 580 589 600 602 599 597 596 595 594 594 595 602 606 610 609 607 605 605 605 606 606 606 603 600 595 590 586 584 583 582 583 584 584 584 586 587 591 595 598 602 604 606 606 607 606 605 604 603 602 601 600 599 597 596 595 593 590 587 583 578 573 568 564 560 557 554 550 548 549 554 558 561 563 564 565 565 564 563 562 561 561 563 567 573 579 585 590 596 602 607 610 614 618 622 626 628 629 629 626 625 630 635 638 641 645 648 651 654 659 661 664 668 671 672 675 676 676 677 677 677 677 677 677 676 675 674 673 671 669 667 664 663 661 659 657 655 652 651 650 648 647 645 645 648 652 657 661 665 668 673 677 683 688 693 699 703 707 709 713 715 716 716 718 718 718 720 725 731 737 743 748 751 755 760 764 767 771 775 778 782 783 783 781 777 771 765 757 753 749 745 741 738 734 731 726 723 720 717 713 709 705 700 696 693 689 683 677 672 666 661 658 654 651 652 651 651 651 649 647 643 638 633 629 623 619 614 609 605 603 603 602 601 601 600 599 598 597 596 595 595 594 593 592 590 588 586 585 584 583 583 583 582 580 579 580 580 579 577 574 571 566 560 555 549 543 537 533 530 527 524 522 519 516 512 508 504 499 493 490 487 484 480 476 471 466 460 456 454 454 454 454 454 454 454 453 453 453 454 454 454 454 454 454 454 453 453 454 458 462 466 469 472 475 477 480 482 484 485 487 488 489 490 491 494 495 495 495 494 493 495 496 498 501 502 501 500 498 494 489 486 482 478 476 475 473 470 470 472 472 473 473 472 469 466 462 455 454 454 454 454 454 454 454 454 454 454 454 454 453 454 454 454 454 454 454 454 453 454 454 453 453 453 454 454 454 454 454 455 456 455 455 459 462 465 466 466 468 473 480 486 490 494 498 507 513 516 519 521 523 524 525 527 527 527 526 522 520 520 521 522 522 522 521 519 518 517 517 516 512 507 500 495 495 500 508 515 519 524 529 536 542 546 550 554 557 562 566 568 570 571 572 572 572 573 575 577 579 580 582 583 584 585 586 588 590 592 594 596 598 601 603 604 605 606 607 607 607 607 607 609 610 612 616 620 622 624 625 625 625 625 624 623 618 611 605 601 597 592 587 583 581 576 570 563 558 551 546 542 544 548 550 549 547 542 541 545 549 555 562 568 573 577 582 589 593 596 596 594 591 588 584 579 571 558 545 537 537 540 542 544 544 546 554 565 572 578 581 585 589 593 596 596 594 592 587 581 574 567 569 573 577 579 580 580 582 584 585 584 581 577 573 569 567 565 563 559 555 552 549 546 544 544 544 544 544 544 544 544 544 544 546 549 552 554
748 748 747 747 746 745 744 742 740 737 735 735 735 734 733 731 731 735 741 746 751 756 761 764 764 761 755 751 746 742 737 733 729 726 722 718 716 714 709 705 701 697 694 690 687 688 690 690 689 688 688 691 694 698 703 707 713 720 726 729 732 729 723 716 712 707 701 696 690 684 682 681 682 683 684 685 684 682 682 680 679 678 678 677 676 674 672 669 666 665 664 663 662 662 664 667 669 672 677 681 682 682 684 687 690 693 697 701 707 712 718 725 733 742 748 747 746 744 736 729 723 720 714 711 707 703 699 696 691 686 687 691 688 679 673 670 667 662 655 649 643 638 632 626 620 613 604 595 586 577 572 580 588 598 600 598 595 594 593 592 592 595 600 603 606 605 604 602 600 600 600 599 598 597 597 594 590 587 584 581 580 580 581 581 582 583 584 587 592 595 599 602 603 604 605 604 603 602 602 601 600 598 596 594 594 593 591 588 586 582 577 572 567 563 559 556 553 550 547 547 550 554 557 559 560 561 560 560 559 558 559 561 562 565 572 577 582 588 593 599 604 608 611 615 619 622 625 625 623 621 627 632 637 639 643 646 650 653 656 659 663 665 668 671 672 675 676 676 676 675 675 675 675 675 674 673 672 670 669 667 665 662 659 658 656 654 652 649 647 646 645 643 642 645 649 653 658 662 665 668 673 677 682 687 692 698 702 706 709 713 715 717 717 718 718 718 718 724 730 735 741 746 751 755 760 764 767 772 776 780 784 786 786 784 782 778 771 763 759 755 751 747 743 739 735 731 728 724 721 717 713 709 705 701 698 695 692 686 682 676 670 665 659 656 656 656 656 656 655 654 650 645 640 635 628 622 618 613 608 606 605 604 603 603 602 601 600 599 598 598 597 596 595 594 592 590 589 588 587 587 587 586 585 583 583 584 584 583 581 578 575 571 565 559 554 547 541 536 532 529 526 524 521 518 514 510 506 503 498 493 489 486 483 479 474 469 465 461 457 454 454 454 454 454 454 454 454 454 454 454 454 454 454 454 454 453 453 453 455 460 464 468 471 473 476 478 480 482 483 485 486 487 488 490 492 493 493 493 492 490 491 493 494 496 498 498 498 496 493 489 484 480 476 474 472 470 466 468 469 469 470 470 469 466 464 463 458 454 454 454 454 454 454 454 454 454 454 454 454 453 453 453 453 454 454 454 454 454 454 454 453 453 453 454 454 454 454 454 454 454 454 454 457 460 462 463 464 469 476 483 487 490 494 499 506 512 515 518 520 521 522 523 523 524 524 522 519 516 516 517 519 519 519 518 517 516 516 516 515 512 506 499 495 495 500 509 515 520 524 530 537 543 547 552 555 560 564 568 572 574 575 575 575 575 575 577 579 581 582 583 584 585 586 588 589 590 593 594 597 598 601 602 603 605 605 606 606 604 603 605 608 609 612 616 619 621 622 622 622 621 619 618 615 610 606 602 598 594 589 585 581 578 573 566 560 555 549 543 540 541 545 547 546 544 539 538 544 548 554 560 565 570 575 579 585 590 594 595 595 593 590 587 581 575 563 549 538 534 536 537 539 540 544 552 562 571 576 580 582 585 590 592 592 590 588 584 578 572 565 565 569 573 574 576 576 577 580 582 582 580 577 573 569 566 564 562 558 554 551 547 544 544 544 544 544 544 544 544 544 544 544 547 550 554 556
751 751 752 751 750 749 749 747 745 743 741 740 740 739 736 734 734 738 744 750 755 760 765 766 764 761 756 751 747 743 738 735 730 726 722 718 716 714 709 705 701 698 695 691 688 689 690 690 690 690 690 692 695 699 703 709 718 724 729 731 732 728 721 715 712 707 703 698 692 688 685 685 686 687 687 687 685 682 682 680 677 676 675 674 673 670 668 665 664 663 662 662 662 662 667 672 674 678 682 683 684 685 687 689 693 696 699 703 709 714 720 727 735 742 742 741 740 738 731 724 717 715 710 706 703 698 695 691 688 684 682 685 686 682 679 676 672 667 660 654 646 640 634 628 621 615 606 596 587 578 572 580 586 596 598 597 595 594 592 590 590 592 595 597 599 599 599 598 598 596 594 592 591 591 591 591 588 586 584 581 578 578 578 579 580 581 582 583 588 592 597 600 601 602 602 602 602 601 601 600 598 596 593 591 591 590 588 586 583 580 575 570 566 562 558 554 550 548 546 545 548 550 552 554 556 557 557 556 555 557 561 564 565 565 570 575 580 586 590 596 601 605 608 612 615 618 619 618 616 621 629 634 638 640 644 648 652 655 659 662 666 668 671 672 673 675 676 676 675 675 674 674 674 673 672 671 670 668 666 664 663 660 657 654 652 651 648 646 643 642 641 640 641 645 649 653 657 661 664 668 672 676 681 686 691 697 701 705 709 712 716 719 718 717 717 717 718 722 728 733 738 744 750 754 759 763 767 772 776 780 785 790 791 789 787 783 776 769 765 761 757 752 748 744 740 736 733 729 726 721 718 714 710 707 704 700 697 693 691 686 680 674 667 663 662 662 662 661 661 659 657 653 648 641 634 626 621 616 611 609 608 606 605 604 603 603 602 601 601 600 599 599 598 596 595 593 592 592 591 590 590 590 589 587 587 589 589 588 585 582 579 575 570 564 558 552 546 540 535 531 528 525 523 519 515 512 509 507 503 497 491 488 485 481 477 472 467 464 461 457 454 454 454 454 454 454 454 454 454 454 454 453 454 454 454 454 454 454 454 458 463 467 470 472 474 477 479 480 481 482 484 485 487 489 490 491 492 491 490 489 488 489 490 491 494 495 495 494 492 488 484 480 475 472 470 467 464 465 466 466 467 466 465 463 462 461 459 454 454 454 454 454 454 454 454 454 454 454 454 454 453 453 453 454 454 454 453 454 454 454 454 454 454 454 454 454 454 454 454 454 454 454 456 458 459 461 464 472 479 484 487 491 495 499 505 512 515 517 519 520 520 521 521 521 520 519 517 514 512 513 515 516 516 515 514 514 515 514 514 510 505 498 494 494 500 508 515 520 525 531 539 544 549 553 557 561 566 570 575 576 578 578 578 578 578 578 580 581 582 584 585 585 587 588 590 591 593 595 597 599 601 602 603 604 604 604 603 599 598 602 605 607 609 613 616 617 618 617 616 615 613 610 608 605 601 598 595 591 587 582 578 575 569 563 558 552 546 541 538 539 542 544 543 540 536 536 542 547 552 557 563 568 573 577 581 587 591 594 596 596 593 589 583 577 567 553 541 533 532 534 535 538 542 550 559 568 573 577 579 582 586 588 588 587 585 580 575 570 564 561 564 568 571 571 571 573 578 580 580 579 576 574 569 564 563 560 555 552 550 546 544 544 544 544 544 544 544 544 544 544 545 548 552 556 558
756 757 758 756 755 755 755 753 752 749 747 745 744 742 739 736 736 740 746 752 758 762 766 766 764 762 758 754 749 745 740 737 731 726 722 718 716 713 709 706 702 698 695 692 690 690 691 691 692 692 692 693 695 699 704 712 720 725 729 730 730 726 720 715 711 707 703 700 694 690 689 689 689 689 689 687 685 682 682 679 676 673 671 671 669 667 664 663 662 661 661 661 661 665 671 676 679 682 684 686 686 687 689 692 696 699 702 706 711 715 721 728 734 737 735 732 732 731 726 719 712 710 706 702 698 694 690 687 685 682 678 680 683 683 683 681 676 671 664 657 649 642 637 630 624 617 609 599 590 580 572 578 584 593 597 597 595 593 591 589 588 589 590 592 593 594 595 596 596 594 591 589 586 585 586 586 585 584 582 580 579 578 575 576 578 579 580 580 584 589 594 597 599 600 600 600 600 600 599 597 595 593 591 589 587 586 585 584 581 577 573 569 565 561 556 551 547 546 545 545 546 548 550 551 552 553 553 553 554 559 564 567 568 568 569 573 577 583 587 592 598 601 605 608 611 613 614 613 615 623 630 635 639 641 646 650 654 658 662 665 668 671 673 674 675 676 676 676 675 673 673 673 672 671 670 669 668 666 664 662 661 658 654 651 649 647 645 642 640 639 638 638 641 645 648 652 656 660 663 666 670 674 679 684 690 694 699 703 706 710 714 718 719 716 716 716 717 720 725 731 736 743 748 753 758 762 767 772 776 781 787 792 795 794 792 787 782 775 771 766 762 757 753 748 745 740 736 733 729 726 724 720 716 712 709 705 701 698 696 693 688 683 677 671 669 669 668 667 667 665 664 661 656 648 641 630 624 619 615 612 610 608 607 606 605 605 604 603 603 602 601 601 600 598 597 596 595 594 593 593 593 593 592 590 591 593 594 593 590 586 582 578 572 567 561 555 549 543 538 533 530 527 524 521 517 514 511 509 507 502 494 490 487 483 479 474 469 466 463 459 456 454 454 454 454 454 454 454 454 454 454 453 454 454 454 454 454 454 454 456 462 465 468 470 472 475 476 478 479 480 482 484 485 487 488 489 489 488 487 486 484 485 486 488 491 492 493 492 490 487 484 480 475 472 468 465 462 461 463 463 464 463 461 459 458 458 456 454 454 454 454 454 454 454 454 454 454 454 454 454 454 454 454 454 454 454 453 454 454 454 454 454 454 454 454 454 454 454 454 454 454 454 455 456 458 460 465 474 481 484 487 492 495 499 504 511 514 516 518 518 518 519 519 519 518 517 516 512 509 510 512 513 513 512 511 512 513 512 512 509 503 497 493 494 500 507 514 520 525 532 539 544 550 554 557 561 566 570 576 578 580 580 580 580 580 580 581 582 583 584 585 586 587 589 590 591 592 594 597 599 601 602 602 602 602 601 599 595 593 596 599 602 604 607 610 611 612 611 610 609 607 605 603 601 598 595 592 588 584 579 573 570 564 560 555 549 544 540 537 536 538 540 539 536 533 534 540 546 550 555 560 565 570 574 578 582 587 591 595 599 597 592 585 577 569 556 545 534 530 531 533 536 541 547 555 562 569 573 574 578 581 584 584 583 580 577 572 567 562 559 560 563 566 567 567 571 576 578 578 578 576 573 568 563 561 558 553 550 549 546 544 543 543 544 544 544 544 544 544 544 545 549 554 557 559
762 765 767 765 763 762 762 760 758 756 753 750 748 746 742 737 737 741 747 754 761 763 765 765 765 763 760 757 752 747 741 737 731 725 721 717 715 713 709 706 703 698 695 693 692 692 692 692 692 692 693 694 696 700 705 714 720 725 726 727 726 723 719 714 709 706 702 699 695 691 689 688 688 688 687 685 683 682 681 678 675 671 668 666 665 663 662 661 661 661 661 661 662 667 673 677 681 684 686 688 687 688 692 696 699 702 705 709 713 716 720 726 730 730 727 724 724 722 720 715 710 707 702 698 694 690 686 683 681 679 676 676 678 681 683 682 678 673 666 659 651 644 639 632 626 619 613 603 593 584 572 574 582 589 596 597 595 592 590 588 586 587 588 588 589 591 592 594 594 594 592 590 586 584 583 582 581 581 579 580 579 578 573 573 575 577 577 577 580 585 590 594 596 597 598 598 598 597 596 594 592 590 588 586 584 583 582 581 578 574 571 567 563 558 553 549 545 544 544 544 545 546 548 549 549 549 550 552 555 560 566 569 570 570 571 573 576 580 583 588 593 597 600 603 606 609 610 611 617 625 631 636 640 643 647 652 656 660 664 668 671 673 675 676 676 676 676 676 674 673 672 672 671 670 669 668 666 664 662 661 658 655 651 647 644 643 641 639 638 636 636 638 641 644 647 652 655 659 662 665 669 673 677 682 688 692 696 700 703 707 710 715 718 716 715 714 716 719 724 730 736 743 748 752 757 761 767 772 776 781 788 794 798 798 796 792 788 783 777 771 766 762 758 754 749 744 740 736 733 731 729 726 722 717 713 710 706 702 700 697 694 691 686 680 677 676 676 675 673 672 670 668 664 656 647 636 627 622 618 614 612 610 608 607 606 606 605 605 604 603 602 602 601 599 598 598 597 596 595 595 595 595 594 592 593 595 598 598 595 590 585 581 575 569 564 558 553 547 541 535 531 528 525 521 517 514 512 510 509 506 499 491 488 484 480 475 471 467 463 460 456 454 454 454 454 454 454 454 454 454 454 454 454 454 454 454 454 454 454 454 459 464 467 469 471 473 474 475 477 479 481 483 484 485 486 487 486 485 484 483 481 482 483 484 486 489 490 489 487 485 482 479 475 471 467 464 460 458 459 460 459 458 457 455 454 454 454 454 454 454 454 454 454 453 454 454 454 454 454 454 454 454 454 454 454 454 454 454 454 454 454 454 454 453 454 454 454 454 454 454 454 454 454 455 459 462 467 475 481 484 487 492 495 498 503 510 514 515 517 517 517 516 517 517 517 515 513 510 507 507 509 509 510 509 508 509 510 511 510 507 502 496 492 493 499 506 513 519 524 531 539 544 549 553 556 561 565 569 574 580 582 582 582 582 581 581 582 583 583 585 585 586 587 588 589 590 591 592 594 597 600 601 601 600 599 597 595 590 587 590 593 595 598 601 603 604 605 605 604 603 601 599 598 596 594 591 587 583 578 573 568 565 561 556 551 546 542 538 535 534 534 536 535 534 531 533 537 543 548 552 557 562 567 571 575 579 584 588 592 598 599 594 585 577 569 557 548 537 529 528 531 534 539 544 550 556 562 566 568 573 577 579 580 578 576 573 569 565 561 557 557 559 561 563 564 568 574 576 576 576 574 572 567 562 559 557 551 548 547 545 543 543 543 544 544 544 544 544 544 544 545 549 554 558 561
769 774 776 775 773 772 770 769 766 763 759 754 752 748 744 740 738 742 748 756 762 764 765 765 765 764 763 760 755 750 743 737 731 724 720 717 714 712 709 706 703 698 694 694 694 694 693 693 693 694 694 696 698 702 707 713 718 722 722 722 722 720 716 712 708 704 701 698 694 691 689 687 687 686 685 683 681 680 679 677 675 671 667 663 663 662 661 661 661 661 661 663 665 669 673 678 682 685 688 689 689 690 694 698 702 705 708 711 714 716 718 722 724 723 722 719 717 714 713 711 708 706 701 697 693 689 685 681 677 675 675 675 675 678 682 682 679 674 667 661 653 646 641 634 629 622 615 606 596 586 574 571 578 585 591 595 593 590 588 586 584 585 586 586 587 588 590 592 592 593 592 592 589 586 584 582 578 578 577 577 577 576 573 572 572 574 575 575 577 582 587 589 592 593 594 595 594 593 592 591 589 587 585 583 581 580 579 578 574 571 568 564 560 556 551 547 545 544 544 544 544 546 546 547 547 547 548 551 555 560 567 571 572 572 573 575 576 579 583 587 591 594 598 600 604 607 611 614 619 626 633 637 642 644 649 654 658 662 666 670 673 675 677 678 678 678 676 676 674 671 671 671 670 669 667 666 664 662 660 658 654 651 647 643 640 639 638 637 636 634 636 637 640 643 647 650 653 656 660 663 667 671 675 680 685 690 694 697 700 704 706 710 713 713 712 712 715 719 724 730 737 743 748 752 757 762 767 772 776 781 789 796 800 802 800 796 793 789 783 777 771 767 763 759 754 749 744 740 738 736 734 731 727 722 718 714 711 707 703 701 699 697 693 688 685 684 682 681 679 677 676 674 670 664 655 644 633 626 621 617 614 612 610 609 608 607 607 607 606 605 604 603 602 601 600 600 599 598 597 597 596 596 595 594 595 597 600 602 600 594 588 584 578 572 566 560 555 549 543 537 533 529 525 521 516 513 512 511 510 508 503 493 489 486 481 477 473 467 464 461 459 456 454 454 454 454 454 454 454 454 454 454 454 454 454 454 454 454 454 454 456 462 465 467 469 471 472 472 475 477 479 481 482 483 484 484 483 482 481 480 478 477 478 480 482 485 486 485 484 482 480 477 474 470 466 463 458 455 455 455 455 454 454 454 454 454 454 454 454 454 454 454 454 453 454 454 454 454 454 454 454 454 454 454 454 454 454 454 454 454 454 454 454 453 454 454 454 454 454 454 454 454 454 456 459 464 468 476 481 484 487 491 495 498 502 509 512 514 515 516 515 513 514 514 514 512 510 507 504 502 505 505 506 505 506 507 508 508 507 505 499 493 491 491 498 505 512 519 524 530 537 543 547 551 554 558 562 566 571 578 581 582 583 583 583 583 583 584 584 584 584 585 585 586 587 588 588 589 591 594 599 601 601 597 594 591 589 585 582 583 586 589 592 594 596 597 598 598 597 597 595 593 592 590 588 585 582 577 572 568 564 561 557 553 548 544 540 537 534 533 533 533 533 532 530 532 535 540 545 549 554 558 563 568 572 575 579 584 589 593 596 593 585 577 568 557 548 539 529 526 528 531 536 541 546 550 555 558 562 569 574 575 575 574 572 569 566 562 559 556 555 556 558 559 561 566 571 574 574 574 572 570 565 561 559 555 550 546 546 544 542 544 545 545 544 544 544 544 544 544 545 549 555 558 561
776 782 786 787 785 784 781 778 773 770 765 758 755 751 747 743 740 743 749 758 762 764 765 765 766 767 766 764 759 752 745 737 730 723 718 716 713 711 708 706 703 698 694 694 694 695 694 694 694 695 697 699 702 705 708 712 716 718 718 718 719 717 713 709 705 701 699 696 693 690 688 687 686 685 683 681 678 677 676 675 674 671 667 664 663 662 661 661 661 661 661 666 670 673 676 679 682 686 688 690 691 692 696 701 704 708 711 713 715 715 715 717 718 718 717 715 712 709 708 709 708 706 703 699 695 690 686 681 677 675 675 675 675 677 680 680 678 673 667 661 655 647 642 637 632 625 618 609 599 588 577 570 573 579 585 590 590 588 585 584 583 584 585 585 585 586 590 591 592 593 593 593 590 588 586 584 580 578 575 574 574 574 574 571 570 571 572 573 575 579 583 585 587 589 590 590 590 589 588 587 585 584 582 580 578 577 576 574 571 568 565 561 557 553 548 545 544 543 543 543 543 545 546 545 546 547 548 551 555 561 568 571 572 573 574 575 577 581 586 590 594 597 601 603 608 612 615 619 625 630 635 638 643 645 650 655 659 664 668 672 675 677 679 679 679 678 677 675 673 670 670 670 669 668 666 665 663 660 656 652 648 644 642 639 636 635 635 635 633 633 636 637 639 642 645 648 651 654 658 661 665 669 673 678 682 688 692 695 697 700 703 706 709 710 709 712 716 720 725 731 738 744 748 753 758 762 768 772 776 783 790 797 803 805 804 802 799 795 790 783 777 771 768 764 759 754 749 746 743 740 737 735 731 727 723 718 714 711 707 705 703 700 698 695 693 692 690 688 686 684 683 680 676 670 663 652 639 630 624 619 616 613 611 610 609 608 608 607 607 606 605 604 603 602 601 601 600 599 598 597 597 596 596 596 597 598 601 604 603 598 592 587 581 574 568 562 557 551 545 539 534 530 525 521 515 511 509 510 510 508 503 494 489 486 481 477 473 468 465 463 462 458 454 454 454 453 453 453 454 454 454 454 454 454 454 454 454 454 454 454 454 461 464 467 468 470 471 471 473 474 477 479 480 481 481 481 480 479 478 476 475 474 475 477 479 481 482 482 481 480 478 475 471 467 463 460 456 454 453 454 454 454 454 454 454 454 454 454 454 454 454 454 454 454 454 454 454 454 454 453 453 453 453 454 454 454 454 454 454 454 454 454 454 454 454 454 454 454 454 454 454 454 454 458 461 465 468 475 480 484 487 490 494 497 501 506 511 513 514 514 513 510 510 510 509 508 506 505 501 498 500 501 502 502 503 505 506 506 505 502 497 491 490 491 497 503 510 516 522 527 534 540 544 547 550 553 557 560 565 572 577 581 582 582 581 582 581 582 582 582 582 582 582 582 583 583 583 584 587 592 598 601 600 595 590 586 582 579 577 578 580 582 584 586 587 588 589 589 589 588 588 587 585 583 581 578 574 571 567 564 559 558 555 551 546 542 539 536 533 532 532 532 531 530 529 531 533 537 542 546 550 553 558 564 569 573 577 581 585 588 590 588 583 575 565 555 547 539 530 525 525 528 532 537 542 546 549 552 556 563 569 571 571 570 568 565 562 560 558 555 553 553 555 556 558 563 568 571 572 571 570 567 562 558 557 554 549 543 543 541 540 545 547 548 547 546 544 544 545 547 548 551 556 559 562
783 790 795 796 795 793 790 786 781 775 770 763 758 754 750 746 743 744 750 758 762 764 766 766 768 770 770 768 763 754 746 737 729 722 717 714 712 710 708 705 702 697 694 696 697 697 697 696 696 699 701 704 706 707 709 712 714 715 716 716 716 714 710 706 702 699 697 694 692 688 687 686 685 683 682 679 676 674 673 672 672 670 668 664 663 662 661 661 661 661 663 669 673 676 679 681 683 686 688 691 693 694 699 703 706 710 713 714 714 714 713 712 711 712 711 710 707 704 705 706 706 705 702 699 695 691 688 683 679 676 675 675 675 677 678 678 676 671 666 660 656 649 643 639 634 628 620 611 601 590 581 572 570 574 580 584 586 585 583 582 582 581 582 582 583 586 590 591 591 592 592 592 590 589 588 586 584 579 575 572 572 572 573 571 568 567 569 570 572 576 579 581 583 584 585 585 585 584 583 583 582 580 579 577 574 573 572 571 568 565 561 557 553 549 546 544 543 543 543 543 543 545 545 545 546 547 548 551 555 563 570 572 573 574 574 575 577 582 588 592 597 600 604 608 612 616 619 624 630 635 638 641 645 647 652 657 660 666 670 675 678 680 681 681 681 679 677 675 673 670 669 668 667 666 664 663 661 657 651 645 642 639 637 635 633 633 633 632 631 633 636 637 639 641 643 646 648 651 655 660 664 667 671 675 679 685 689 692 694 696 700 703 705 706 708 712 717 721 726 732 739 744 748 753 758 763 768 773 778 785 792 798 805 807 808 807 804 801 796 790 783 777 773 768 763 759 756 752 748 745 742 738 736 732 727 723 719 715 712 710 708 705 703 700 699 698 697 695 693 693 691 687 682 675 668 659 647 635 627 621 618 615 613 611 610 610 609 608 608 606 605 605 604 603 602 602 600 599 599 598 597 597 597 597 598 598 602 605 605 600 596 590 583 576 570 564 559 553 547 541 535 530 526 521 514 509 505 507 507 505 501 493 488 484 481 477 473 469 466 464 462 459 454 454 454 453 453 453 454 454 454 454 454 454 454 454 454 454 454 454 454 460 464 466 467 469 469 470 471 472 474 476 477 478 478 478 477 476 474 473 471 470 472 473 475 477 478 478 478 477 475 471 467 464 460 456 454 453 453 454 454 454 454 454 454 454 454 454 454 454 454 454 454 454 454 454 454 454 454 453 453 453 453 454 454 454 454 454 454 454 454 454 454 454 454 454 454 454 454 454 454 454 455 458 462 464 467 473 478 482 485 488 492 495 499 504 509 511 512 512 511 507 505 505 504 504 503 502 498 495 495 497 499 498 500 502 503 503 502 499 494 490 490 491 496 502 508 513 519 524 529 534 538 541 544 546 549 553 556 561 566 571 574 576 576 577 577 577 576 576 576 576 576 576 576 577 579 582 587 595 600 602 600 595 589 583 577 574 572 572 574 575 577 578 579 579 579 580 580 580 579 578 577 575 573 570 568 566 564 561 558 557 554 551 548 544 541 536 533 532 530 530 529 528 528 529 531 533 538 542 545 550 555 560 566 573 577 580 584 586 586 585 581 572 563 553 545 538 530 525 523 524 528 532 536 540 544 545 550 558 564 566 566 565 563 561 560 558 556 553 551 551 553 554 556 560 565 568 569 568 567 564 559 555 555 553 549 541 538 537 540 545 549 550 551 550 547 546 547 550 552 554 557 560 562
789 797 801 803 802 801 798 794 787 780 773 767 762 757 753 749 746 745 751 758 762 764 766 767 770 774 774 770 764 755 746 737 729 721 716 714 711 709 707 704 700 696 696 699 700 700 700 700 701 703 706 708 710 710 710 712 712 713 713 714 713 711 707 703 699 697 695 693 691 688 686 685 684 683 681 677 674 672 670 670 670 669 667 664 663 662 661 661 661 662 665 671 675 678 681 683 685 687 690 693 695 697 701 705 708 711 713 715 714 713 711 707 706 706 706 705 702 700 701 703 703 702 698 696 694 691 688 684 680 678 676 674 674 675 676 676 674 669 664 660 655 649 645 641 636 631 623 613 605 595 586 578 571 570 575 579 582 582 580 580 580 578 578 580 583 586 588 587 588 589 590 591 590 589 588 587 585 581 577 573 570 570 570 569 568 566 565 566 569 573 576 578 579 580 581 581 580 580 581 580 579 578 576 573 571 570 569 568 565 561 557 554 550 546 544 543 543 542 542 542 542 545 545 544 545 547 548 551 556 565 570 572 575 575 575 575 577 583 588 594 598 602 606 610 614 618 622 628 634 638 642 645 648 650 655 660 663 668 673 678 681 682 682 683 682 680 677 675 672 670 669 668 666 664 663 662 659 654 646 640 635 633 632 630 631 632 631 630 630 633 635 636 638 639 641 643 646 649 653 659 662 665 669 673 677 681 685 689 691 694 697 700 702 704 708 712 717 722 727 732 739 745 749 753 758 763 768 774 779 786 793 800 806 809 811 811 809 806 802 797 789 783 777 771 767 764 761 757 753 750 747 743 739 735 731 728 725 721 718 715 712 710 707 705 704 703 701 699 698 698 696 693 689 680 672 664 652 640 630 623 619 616 613 612 611 610 609 609 608 607 606 606 605 603 603 602 600 600 600 599 597 597 597 597 598 598 602 605 605 602 598 593 585 578 571 565 560 553 548 542 536 531 526 520 514 509 503 502 503 501 496 491 486 482 479 476 472 468 465 463 460 456 454 454 454 453 453 453 454 454 454 454 454 454 454 453 453 453 454 454 454 459 463 466 467 469 469 469 469 470 471 472 474 475 475 475 474 472 470 468 466 467 468 469 472 473 474 474 474 471 469 466 462 459 456 454 454 454 454 453 453 453 454 454 454 454 454 453 453 453 454 454 454 454 454 454 454 454 454 454 454 454 454 454 454 454 455 457 458 458 455 455 454 454 454 454 454 454 454 454 454 454 455 458 461 463 467 470 475 479 482 486 490 493 498 502 507 509 510 510 509 503 500 500 501 501 500 498 494 491 492 494 496 496 497 498 499 499 497 495 492 489 489 491 495 500 504 510 515 519 522 526 529 532 534 537 540 543 545 547 551 555 560 564 567 569 569 569 569 569 569 569 570 572 575 577 581 586 592 597 602 602 601 596 589 583 574 570 567 567 568 569 570 570 571 571 571 572 572 572 571 570 570 569 567 565 564 563 562 560 558 558 557 555 553 549 544 538 534 532 529 528 528 527 527 528 530 531 534 537 541 547 554 559 565 572 577 580 584 585 585 583 579 574 565 555 547 540 534 527 523 521 523 527 530 534 538 539 546 554 559 561 561 561 560 559 557 556 554 552 549 549 550 551 554 557 560 563 564 564 562 559 555 553 553 552 549 541 536 536 540 546 550 552 553 552 550 548 550 552 555 556 558 561 563
797 803 807 809 809 807 805 799 792 784 776 771 766 761 756 752 748 747 751 758 762 764 766 767 772 775 775 771 764 755 746 737 728 720 715 712 710 708 706 703 699 697 699 702 702 702 703 703 705 707 710 712 713 713 711 711 711 711 711 711 711 708 704 699 697 695 693 691 689 687 685 684 683 682 679 676 672 670 669 669 669 669 667 665 664 663 662 662 663 664 667 672 676 680 683 685 687 689 692 695 698 700 703 707 709 711 713 714 714 712 709 705 702 701 701 700 698 697 697 700 699 697 695 693 692 690 687 684 680 678 675 674 673 672 673 674 673 669 662 659 654 649 645 642 638 634 627 618 610 601 591 583 574 569 572 575 577 577 577 577 577 575 576 579 582 583 582 581 582 584 586 587 588 587 586 586 584 582 578 573 571 569 567 566 566 565 562 562 566 570 573 575 576 577 577 577 577 578 578 578 577 576 574 571 568 566 564 563 560 556 553 549 546 544 543 542 542 541 541 541 542 544 544 543 544 546 548 551 558 566 570 572 574 575 574 575 577 583 589 595 600 604 608 612 616 620 625 632 637 642 645 649 651 654 659 663 667 671 676 680 683 684 685 684 683 680 677 675 672 669 668 667 666 664 663 660 657 651 643 637 630 629 629 628 629 630 629 629 629 632 634 636 637 638 640 641 645 648 652 656 660 663 667 670 674 678 682 685 688 692 695 697 699 703 708 712 717 723 728 732 739 744 749 753 759 763 769 774 780 788 795 802 808 811 814 814 814 811 808 803 796 789 783 776 772 769 765 762 759 755 752 748 745 740 737 733 730 728 724 720 716 713 712 711 709 708 706 704 702 701 700 698 694 686 676 667 656 644 634 625 620 617 614 613 611 611 610 609 608 607 606 606 605 604 603 602 601 600 600 599 597 596 596 596 597 598 601 603 604 603 600 595 587 578 571 564 559 553 548 543 537 531 526 519 513 508 502 499 498 496 493 489 484 480 477 474 470 466 463 460 456 454 454 454 454 453 453 453 454 454 454 454 454 454 454 453 453 453 454 454 454 457 462 465 467 468 467 467 467 467 468 469 471 471 471 471 470 469 466 464 463 463 464 466 467 468 469 469 468 465 462 460 458 455 454 454 454 454 454 453 453 453 454 454 454 454 454 453 453 453 454 454 454 454 454 454 454 454 454 454 454 454 454 455 456 457 460 464 465 465 462 461 459 457 455 454 454 454 454 454 454 454 454 456 459 462 464 467 471 475 479 485 489 492 497 501 505 507 507 507 506 500 495 496 497 497 497 494 490 487 488 490 492 494 495 495 494 493 492 491 489 487 488 490 494 498 501 506 510 513 516 518 520 523 525 528 532 535 536 538 540 543 548 552 557 561 562 562 563 563 565 567 569 574 578 581 586 589 594 598 602 602 601 596 589 582 574 568 565 562 563 564 565 565 565 565 565 565 565 566 566 565 565 564 563 562 561 561 561 560 561 560 560 559 557 553 547 540 535 532 529 527 527 526 526 527 528 530 532 535 540 546 553 559 565 571 577 580 584 585 585 583 581 577 571 561 553 546 540 533 526 520 519 522 525 528 531 534 542 550 555 557 558 558 557 556 555 553 552 550 547 546 547 549 551 554 557 559 559 559 557 554 551 550 552 551 548 540 534 534 541 547 550 553 554 554 552 550 552 554 557 558 560 562 563
806 812 814 815 815 813 811 804 797 789 781 775 770 763 758 754 750 748 751 756 761 763 765 767 771 775 775 772 765 757 747 737 728 720 714 711 709 707 704 701 699 700 702 704 704 705 705 706 708 710 713 716 718 717 714 712 710 709 709 709 708 705 701 696 694 693 691 690 688 686 684 683 682 680 676 674 671 670 670 670 670 671 671 670 669 666 664 664 666 668 671 674 678 681 684 686 688 690 694 697 700 703 705 707 710 711 712 713 713 711 708 704 699 696 696 696 695 693 694 696 695 694 692 691 690 688 686 683 680 677 675 673 671 670 669 671 671 668 662 658 653 649 646 645 642 638 632 623 615 606 597 588 579 570 570 572 574 574 573 573 573 572 573 577 578 577 576 574 574 576 578 580 581 582 582 582 581 579 576 573 571 569 567 566 565 564 560 560 563 567 570 572 573 574 574 575 575 576 576 576 575 574 572 568 564 561 559 557 555 552 549 545 543 542 541 541 541 541 541 541 541 542 543 543 544 545 547 552 559 566 570 572 572 573 573 574 577 583 589 595 601 605 609 613 617 622 629 635 640 645 649 652 656 659 663 668 673 677 679 683 686 687 687 686 684 680 677 675 672 669 668 666 665 664 662 659 655 648 640 633 628 628 628 628 628 628 629 629 630 632 634 634 635 638 639 640 643 647 650 654 658 661 665 668 672 675 678 681 685 689 692 695 697 703 708 712 717 723 728 732 738 744 749 753 759 764 769 775 780 789 796 803 809 813 816 817 817 816 813 808 802 795 789 784 779 775 771 767 764 760 757 753 750 747 743 738 735 732 729 725 721 719 717 716 714 712 710 709 707 705 703 700 697 691 679 670 660 648 638 628 622 618 615 613 612 611 610 610 609 607 607 607 606 604 604 602 601 600 600 598 596 595 594 594 596 597 600 602 602 603 601 597 590 580 571 564 558 553 548 542 537 531 525 518 512 506 500 496 494 493 490 486 482 478 475 472 467 461 459 456 454 454 454 454 454 454 454 454 454 454 454 454 454 454 454 453 453 454 454 454 454 456 461 464 466 465 464 464 463 463 465 466 466 467 467 466 466 464 462 460 460 460 460 460 462 463 464 464 462 460 457 455 454 454 454 453 454 454 454 454 454 454 454 454 454 454 454 454 454 454 454 454 454 453 454 454 454 454 454 454 455 456 459 461 464 467 470 473 474 474 472 471 470 467 462 458 455 454 454 454 454 453 453 454 456 459 461 465 468 473 479 485 488 492 496 499 502 505 505 505 503 497 491 490 492 492 492 490 486 484 485 488 490 492 493 493 492 490 487 486 486 485 486 489 493 496 499 501 504 507 509 511 513 516 519 521 524 527 529 532 536 538 542 545 550 553 556 557 559 562 564 568 572 577 581 584 588 591 596 598 601 601 599 594 587 580 573 568 564 560 558 560 560 560 560 560 560 560 560 561 561 561 562 562 561 560 559 559 559 562 564 563 563 562 560 555 549 542 535 532 529 526 525 525 524 525 526 529 531 534 539 545 551 557 564 569 575 580 583 585 585 585 583 580 576 569 560 551 545 538 530 523 517 518 521 524 526 530 539 547 551 554 555 555 555 554 553 551 550 548 545 543 544 546 549 551 553 554 554 554 553 550 547 547 549 549 545 537 531 532 541 547 549 552 553 553 553 552 553 556 558 560 561 562 564
815 820 822 822 821 820 817 811 802 794 785 778 772 765 759 755 752 749 751 754 759 762 764 766 769 774 775 773 766 758 748 737 728 720 713 710 708 705 703 702 702 704 706 706 706 707 708 709 712 715 719 721 723 721 717 713 710 708 707 706 705 702 697 694 692 690 689 687 685 683 681 680 679 676 675 674 673 673 674 674 675 675 675 675 674 671 669 668 670 672 673 676 680 683 685 686 688 692 694 698 702 705 707 709 710 711 712 713 712 709 706 702 697 694 691 691 691 689 691 692 693 692 690 688 687 686 684 682 679 677 675 672 671 670 668 667 668 667 662 658 653 650 649 647 646 639 633 625 618 610 602 592 583 572 568 569 570 570 569 568 568 568 569 571 570 569 568 566 565 569 570 572 574 575 576 575 575 574 573 571 570 568 567 566 565 563 560 560 561 563 566 569 570 571 571 572 573 574 574 574 573 571 569 565 561 557 554 552 549 547 544 543 541 540 540 540 540 540 540 540 540 541 541 542 543 545 547 553 560 565 569 571 571 572 571 572 576 583 589 595 601 606 610 614 619 624 631 637 643 648 652 657 662 666 670 675 680 683 685 689 691 691 689 687 684 680 677 674 671 668 667 665 664 662 660 657 652 644 637 631 627 627 627 627 627 628 629 630 630 632 633 634 635 637 638 640 642 645 649 651 655 659 663 667 670 672 675 679 682 686 689 693 697 703 707 711 717 723 728 732 738 743 749 753 759 764 769 775 781 790 797 804 810 815 818 819 819 818 817 813 807 801 795 791 786 781 776 772 768 764 760 757 755 752 749 743 738 735 733 730 726 724 721 719 718 715 713 711 709 707 705 702 699 693 682 672 662 650 640 630 623 619 616 614 612 612 610 610 609 607 607 607 606 604 604 603 601 600 600 597 595 594 593 593 594 595 599 601 602 603 602 600 593 583 573 566 559 554 548 542 536 531 524 517 511 504 498 494 491 490 487 483 479 476 473 470 465 457 454 454 454 454 454 454 454 454 454 454 454 454 454 454 454 454 454 453 453 453 453 454 454 455 460 463 464 462 461 459 458 458 460 462 463 463 464 463 462 461 459 457 456 455 455 455 457 459 460 459 457 455 454 454 454 454 454 453 454 453 453 454 453 453 453 454 454 454 454 454 454 454 454 454 454 453 454 455 455 455 456 458 461 465 468 471 474 476 477 479 480 481 481 481 480 478 474 468 461 457 454 454 454 453 453 454 454 456 459 463 467 472 479 484 487 491 494 497 499 502 503 502 501 496 489 485 486 487 487 485 482 480 482 485 487 489 490 491 490 487 484 483 484 484 486 488 491 494 497 498 500 503 505 507 510 513 515 518 521 523 527 532 538 541 543 545 547 549 552 555 557 561 564 569 574 579 583 585 589 593 596 598 600 600 596 591 585 578 571 567 563 559 556 555 556 557 557 556 556 556 556 557 558 559 559 559 559 557 556 557 559 563 567 568 568 566 563 557 551 543 535 532 530 526 525 523 522 523 526 528 530 531 536 542 549 555 561 567 573 578 582 585 585 586 584 582 579 573 565 556 549 543 535 526 518 514 516 520 522 526 534 543 548 550 552 553 552 551 550 549 548 546 543 539 541 543 546 548 550 550 550 550 548 546 544 544 546 546 541 534 528 532 541 547 549 552 553 553 554 553 555 556 558 560 561 562 564
825 828 829 829 828 826 822 816 807 796 787 779 773 766 759 755 752 749 750 752 756 760 762 764 766 771 773 771 766 758 749 738 729 720 713 709 707 704 704 705 706 707 708 708 708 709 711 713 716 720 724 726 727 723 719 713 710 707 704 703 701 698 695 692 690 688 687 686 683 682 681 679 678 677 678 679 679 679 679 679 680 680 679 679 678 676 674 673 673 675 675 677 681 684 686 687 689 692 695 699 702 706 707 709 710 710 711 711 710 706 703 700 696 692 689 687 687 686 689 690 691 690 688 686 684 683 682 681 678 676 674 672 670 669 666 663 665 664 662 658 654 651 651 649 645 638 632 626 619 612 604 595 585 576 570 568 566 566 565 564 564 564 563 563 562 562 560 559 558 561 562 566 568 569 570 569 569 569 569 568 568 567 566 565 565 563 561 560 560 561 563 566 567 568 568 570 571 571 572 572 571 568 565 561 558 554 551 548 545 544 542 541 540 539 539 539 539 540 540 540 540 541 541 541 543 545 547 553 559 564 568 569 570 570 568 569 576 582 588 595 601 607 611 615 620 626 633 639 646 651 657 664 670 674 678 683 688 691 693 695 697 696 693 689 685 680 677 673 670 668 666 664 662 660 657 654 648 641 635 629 626 626 626 626 626 627 629 630 630 631 633 634 635 637 637 639 641 643 646 649 653 658 662 665 668 670 673 677 679 683 687 692 696 702 707 711 716 723 728 732 737 743 748 752 759 764 770 775 781 791 799 806 812 817 820 822 822 821 820 816 812 807 802 797 792 787 782 776 772 768 765 762 759 756 753 748 742 737 734 733 730 728 726 724 721 718 715 713 711 709 707 704 700 695 684 674 664 652 642 633 625 621 617 615 613 612 610 610 609 607 606 606 605 604 604 603 601 600 600 597 595 594 592 592 592 593 597 600 601 604 604 602 597 588 577 568 561 555 549 543 536 530 524 518 511 505 498 492 489 487 484 481 477 474 471 467 463 455 454 454 454 454 454 454 454 454 454 454 454 454 453 454 454 454 454 454 454 453 453 454 454 454 458 460 462 460 456 455 454 455 455 457 459 460 461 460 459 457 455 454 454 454 453 454 454 455 456 455 454 454 454 454 454 454 454 454 454 453 453 454 453 453 453 454 454 454 454 454 454 454 454 454 454 456 457 460 462 463 464 469 472 475 477 479 481 482 482 484 484 486 487 487 486 485 483 479 472 465 459 455 454 453 453 453 454 455 457 462 466 472 477 482 486 489 492 494 495 498 499 499 498 496 489 483 481 482 483 481 479 477 479 482 483 485 486 486 486 484 482 482 484 485 486 488 490 493 496 497 499 503 505 509 512 515 517 520 522 527 533 539 544 547 548 548 549 550 552 554 558 561 565 570 575 580 584 585 589 592 596 598 598 597 593 588 582 575 570 565 562 558 555 552 551 552 553 553 552 552 552 554 555 556 557 557 556 555 553 554 558 563 569 571 572 569 565 559 552 544 535 532 530 526 524 522 521 521 524 527 528 528 532 539 546 553 558 564 570 576 581 584 586 586 585 583 581 575 569 561 553 547 540 531 522 514 511 515 517 522 531 539 545 547 549 550 550 549 548 547 546 543 540 536 536 539 543 545 546 546 546 546 544 541 539 541 543 541 535 528 527 532 541 547 549 552 553 553 553 555 556 556 558 559 560 562 563
832 834 835 835 834 831 827 820 810 798 788 779 773 765 759 755 751 748 748 750 753 757 760 762 763 766 768 767 764 756 748 739 729 721 713 709 707 705 706 707 708 708 709 709 710 711 714 718 722 726 729 730 730 726 720 713 708 705 701 699 697 695 693 691 689 688 688 687 687 686 685 685 685 685 686 686 686 686 685 685 685 685 684 684 683 681 680 678 677 678 678 680 682 685 687 689 691 693 697 700 704 707 707 708 709 709 708 707 706 703 700 697 694 690 687 685 683 683 686 688 689 688 686 683 681 681 680 679 677 675 673 671 670 668 664 661 660 660 660 658 656 652 652 650 644 637 632 626 620 614 605 597 589 583 578 574 570 568 565 563 563 562 560 560 559 560 559 556 555 555 556 559 562 565 565 565 565 565 565 565 565 564 564 563 562 561 560 560 559 559 560 562 563 564 565 567 568 568 569 569 567 565 562 558 555 551 549 546 543 542 541 540 539 539 538 538 538 539 539 539 540 540 540 541 543 545 547 553 558 563 566 567 568 567 565 569 576 582 588 594 601 606 610 615 620 628 634 641 649 655 663 671 678 681 686 691 695 697 699 701 703 701 698 692 685 680 676 672 669 667 665 663 660 658 654 651 644 638 632 627 625 625 625 626 626 627 628 629 630 630 632 634 635 637 637 638 639 641 643 646 652 657 661 664 666 668 671 674 677 681 686 692 696 701 706 710 716 722 727 731 736 742 747 752 759 765 771 776 783 792 800 807 814 819 823 825 826 825 823 820 817 812 807 802 797 792 787 781 776 772 770 767 763 760 756 751 744 738 735 733 732 731 727 726 724 719 716 714 712 709 707 703 700 695 686 674 665 654 644 635 626 621 618 615 613 613 610 610 609 607 606 606 605 603 603 602 601 600 599 597 595 593 591 591 591 592 595 599 601 604 605 604 600 591 579 570 562 556 549 543 537 531 526 521 515 509 502 494 488 483 481 478 475 471 468 464 460 454 454 454 454 454 454 454 453 453 453 454 454 454 453 454 454 454 454 454 454 454 454 454 454 454 455 457 458 457 454 453 454 454 454 454 455 456 456 456 455 455 454 454 454 454 453 454 454 454 454 454 454 454 454 454 454 454 454 454 453 454 454 454 454 454 454 454 454 454 454 454 454 454 454 455 458 461 464 468 471 474 475 478 481 482 484 486 487 487 487 488 489 491 492 492 491 490 488 485 481 475 467 459 455 453 453 453 454 454 457 461 465 470 475 480 484 487 489 491 492 494 495 496 495 493 489 483 478 477 478 478 476 474 475 478 480 480 481 480 480 480 482 484 485 486 488 491 492 495 497 499 502 507 511 515 517 519 521 524 528 534 540 545 549 552 553 553 554 555 557 558 561 563 568 572 577 581 584 585 589 591 594 595 595 593 589 584 578 573 568 563 560 557 554 551 549 548 548 549 548 548 549 551 553 554 554 555 554 553 551 552 557 563 569 572 572 570 565 559 552 544 535 531 529 526 523 521 520 520 522 524 526 526 528 535 543 550 555 560 567 573 578 582 586 587 587 585 583 578 571 563 557 550 543 535 526 517 510 510 513 519 527 535 540 544 546 547 547 547 546 544 543 540 537 532 533 536 538 540 541 541 541 541 538 535 534 537 537 535 528 523 526 532 541 547 549 551 552 552 553 555 556 556 557 558 559 561 562
839 839 838 837 836 835 830 822 812 800 789 779 772 764 758 755 750 748 748 748 750 754 757 759 760 761 763 762 760 753 747 739 729 721 714 709 707 707 708 708 709 710 710 711 712 714 718 723 727 731 734 735 734 730 723 717 711 707 702 699 696 695 694 693 691 692 692 692 693 693 693 693 694 693 693 693 692 692 691 691 690 690 689 688 687 686 685 683 682 681 682 683 684 686 688 691 693 696 699 702 705 706 707 707 707 707 706 704 703 700 697 694 692 689 686 683 681 681 684 685 686 685 683 681 679 679 678 677 675 674 671 670 668 666 663 660 658 658 658 658 657 654 652 650 646 639 635 629 623 616 609 602 596 590 586 582 578 574 570 566 567 566 563 565 566 565 564 562 558 555 553 553 556 559 562 562 562 561 561 562 562 561 561 560 559 558 558 557 557 557 557 558 559 561 562 563 564 565 564 563 561 559 556 553 550 548 546 543 542 540 539 539 539 538 537 537 537 539 539 539 540 540 540 541 543 544 547 552 557 561 564 565 565 563 562 569 576 582 587 594 601 606 610 615 620 628 635 643 652 660 669 678 685 688 694 698 700 702 704 706 708 706 702 694 686 680 675 671 668 666 664 661 657 654 650 646 641 634 630 626 623 623 625 625 625 626 628 628 628 630 632 634 635 636 636 636 637 638 640 644 649 655 659 662 664 666 669 672 676 680 686 691 696 701 705 709 715 721 726 730 736 741 746 752 760 766 771 777 784 793 802 809 816 821 825 828 829 828 827 825 821 818 813 808 803 797 791 786 781 777 773 771 767 763 759 753 745 739 735 733 732 729 727 725 723 719 716 714 711 708 706 702 699 695 686 674 665 655 645 637 628 623 618 616 614 613 610 610 609 607 606 605 604 603 603 602 600 599 598 596 593 591 589 589 589 591 593 598 601 603 606 606 602 595 582 573 564 557 551 545 539 532 528 523 518 512 506 498 490 483 479 476 474 469 465 461 457 454 454 454 454 454 454 454 453 453 453 454 454 454 454 454 454 454 454 454 454 454 454 454 454 454 454 454 454 454 453 453 454 454 454 454 454 454 454 454 454 454 454 454 454 454 453 453 453 453 453 453 454 454 454 454 454 454 454 454 453 453 453 454 454 454 454 454 454 454 454 454 454 455 458 462 466 469 474 476 480 482 483 484 487 489 490 492 492 492 492 493 494 496 497 497 496 495 492 490 487 482 475 467 458 454 454 454 453 453 456 460 464 468 472 477 481 484 486 488 489 490 492 493 493 491 489 483 476 474 475 475 474 472 472 473 475 476 476 476 477 480 484 487 488 489 490 493 496 499 502 504 509 513 517 518 521 523 525 529 534 540 545 549 553 555 557 558 559 562 564 565 566 567 571 574 578 581 584 585 588 590 592 592 592 589 586 580 575 570 565 562 558 555 553 550 547 545 545 546 545 545 546 548 550 552 552 553 552 551 549 552 556 562 567 570 571 570 565 559 553 543 535 531 528 526 522 521 519 519 520 522 524 524 526 531 539 547 552 557 562 567 573 580 586 589 590 588 584 580 573 565 559 553 546 538 530 520 510 507 509 517 524 530 535 540 542 544 544 544 543 541 539 537 533 529 528 532 534 535 537 537 537 535 532 529 529 532 532 528 523 520 524 532 541 546 548 550 552 552 553 555 555 555 557 557 558 559 560
844 841 840 838 836 836 830 821 811 800 789 779 771 762 757 753 748 747 747 747 748 751 754 756 758 758 758 758 755 751 745 737 728 721 714 709 708 708 709 709 710 710 711 712 715 719 723 728 732 735 739 740 738 733 728 723 717 714 710 706 703 700 698 698 697 697 698 699 699 700 700 701 701 700 699 698 698 697 697 696 696 695 694 693 691 690 689 688 687 686 686 687 687 687 690 692 695 698 701 702 704 705 706 706 706 705 704 703 701 698 694 692 689 686 684 682 679 679 682 682 682 681 680 678 676 676 676 675 674 672 670 667 665 663 661 659 658 657 657 657 656 654 652 651 648 643 638 633 628 621 615 608 602 597 593 589 585 581 577 572 572 571 569 572 573 571 569 567 562 557 554 552 552 554 557 558 558 558 558 558 559 558 558 557 556 555 555 554 555 555 555 554 555 557 558 558 558 559 558 557 555 553 551 548 546 544 542 540 540 539 538 538 538 538 537 537 537 539 539 539 540 540 540 541 542 543 545 551 555 559 561 562 562 560 561 569 575 580 587 592 599 605 610 615 620 629 636 645 655 665 675 685 692 695 700 703 705 707 709 711 712 710 704 696 687 680 673 669 666 663 661 658 654 649 645 641 637 631 627 624 622 623 624 625 625 626 628 628 628 630 632 633 634 634 635 635 635 636 639 642 647 652 656 660 663 665 668 671 675 680 685 690 695 700 704 708 714 719 725 730 735 740 746 752 760 766 771 777 785 794 804 811 817 823 827 831 834 833 832 830 826 823 818 813 808 802 796 791 786 782 778 774 770 766 762 754 745 739 735 733 730 726 724 722 720 717 713 711 708 706 703 700 698 694 684 674 664 654 646 638 630 623 619 616 614 613 610 610 608 606 605 605 604 603 602 601 600 599 597 594 592 590 587 587 587 588 590 595 600 603 605 606 603 598 587 576 567 560 553 547 541 535 530 525 520 515 510 502 495 488 481 477 474 468 462 456 454 454 454 454 454 454 454 454 454 454 454 454 454 454 454 454 454 454 454 454 454 453 454 454 454 454 454 454 454 454 454 454 453 453 453 454 454 454 454 454 454 454 454 454 454 453 453 453 453 453 453 453 454 454 454 454 454 453 453 453 453 453 453 454 454 454 454 454 454 454 454 454 455 459 465 470 475 477 481 483 486 488 489 490 493 495 496 498 498 498 498 498 500 500 501 502 501 500 498 495 491 487 482 474 463 455 454 454 453 453 455 458 462 465 469 474 477 481 483 484 485 487 488 490 490 489 487 482 474 471 472 472 471 471 471 471 472 472 473 475 479 483 487 490 491 492 493 495 499 502 506 509 514 517 519 521 524 526 528 533 538 542 547 551 555 557 559 561 564 567 569 569 570 571 573 575 578 580 583 584 587 588 589 589 588 586 581 576 572 567 563 559 555 552 550 548 546 544 544 544 544 544 544 545 547 549 550 550 549 548 548 551 555 560 564 568 571 571 566 560 552 542 534 530 528 525 522 521 518 517 518 520 522 523 524 527 534 542 549 553 558 562 568 578 585 589 593 590 586 581 574 566 559 554 548 541 532 522 513 507 507 514 521 526 531 535 538 539 540 539 539 538 536 534 530 526 525 527 530 531 532 532 531 529 527 525 525 527 527 523 519 517 522 531 540 546 547 550 552 552 553 554 555 555 556 556 557 558 559
845 842 839 837 836 834 827 818 809 799 788 778 769 760 754 750 747 746 746 746 747 749 751 753 755 756 756 755 752 749 742 735 727 720 714 709 709 710 710 711 711 712 712 715 719 723 728 732 736 740 743 744 741 738 733 729 724 722 718 715 711 708 705 704 703 703 703 704 704 705 705 706 706 705 705 704 703 703 702 702 701 700 699 698 695 694 693 692 691 691 691 690 690 690 691 693 696 699 701 702 703 704 704 703 703 702 702 701 699 696 692 689 686 683 681 679 676 677 680 680 678 678 676 675 673 674 674 673 672 670 667 664 662 660 659 658 658 658 657 656 655 653 652 652 649 646 641 636 631 626 620 615 609 604 599 595 591 587 583 579 577 574 576 577 578 576 573 569 564 559 555 552 551 552 553 553 554 554 554 555 555 555 555 554 553 552 551 551 552 552 552 551 551 553 553 553 553 552 552 551 549 548 546 544 542 540 540 539 539 539 538 538 538 538 537 537 537 538 539 539 540 540 540 540 541 543 545 550 554 557 559 559 558 555 559 567 574 580 586 591 598 604 609 614 620 630 637 646 657 669 680 690 697 700 705 707 709 710 711 714 714 711 705 696 688 680 672 666 663 660 658 655 650 646 640 637 633 628 625 622 620 621 623 624 625 625 628 628 628 631 631 631 632 632 632 632 634 636 638 640 646 650 654 660 662 665 667 671 675 679 685 690 694 698 702 707 712 717 723 728 734 740 746 752 760 765 771 778 786 794 805 813 819 825 830 834 837 839 838 835 832 827 823 818 813 807 802 797 793 788 783 778 774 769 764 756 747 739 734 730 727 723 720 717 714 712 709 706 704 702 700 697 695 691 681 672 662 653 646 638 631 624 620 616 614 613 610 609 608 606 605 604 603 602 601 600 599 598 595 592 590 588 586 585 585 586 588 592 597 601 603 605 603 599 590 579 570 562 555 549 543 537 532 527 522 517 512 506 498 490 483 477 475 470 464 454 454 454 454 454 454 454 454 454 453 453 453 454 453 453 453 454 454 454 454 454 454 453 454 454 454 454 454 454 454 453 453 453 453 453 453 454 454 454 454 454 454 454 454 454 454 453 453 454 454 454 454 454 454 454 454 454 454 453 453 453 454 454 454 454 454 454 454 454 454 454 454 456 461 466 472 478 481 484 487 490 493 495 496 497 500 502 504 504 504 504 503 504 505 506 507 507 507 506 504 501 496 491 487 480 468 458 455 454 454 454 454 456 459 462 466 470 473 477 479 479 481 483 485 487 488 487 485 479 473 470 468 469 469 470 470 470 471 472 474 477 482 486 490 493 495 495 496 498 501 504 508 513 517 520 522 524 526 528 531 535 540 544 548 552 556 558 561 564 567 569 571 571 571 573 574 575 577 579 581 582 584 585 586 585 584 581 577 573 569 564 560 556 552 549 547 546 545 543 543 543 543 542 542 543 545 546 547 547 546 545 546 550 554 558 561 565 569 570 566 560 550 540 533 530 527 524 522 520 518 516 516 518 519 520 521 523 528 535 543 548 553 559 566 577 584 589 593 592 588 581 574 567 560 554 550 543 534 524 515 508 506 511 517 523 527 530 533 535 536 536 535 534 533 531 528 525 522 522 525 526 527 527 526 524 522 521 522 523 522 520 517 515 521 530 539 545 547 549 551 552 552 554 555 555 555 556 556 556 557
