ncols         856
nrows         30
xllcorner     -71.7219022222
yllcorner     42.01549
cellsize      1.0E-5
NODATA_value  -9999
150 149 147 145 143 140 139 137 134 131 128 125 124 120 117 114 112 112 110 109 108 106 105 102 100 98 95 94 93 91 91 96 100 101 101 100 95 94 94 94 94 94 94 94 94 95 95 98 100 101 103 103 106 106 107 108 108 109 109 110 110 111 111 112 116 119 121 125 127 129 129 129 132 135 137 140 141 143 143 144 146 148 149 150 150 150 150 150 150 150 147 145 142 140 138 136 134 132 130 129 129 128 126 125 125 125 125 125 125 125 125 125 125 125 125 125 125 125 125 125 128 132 135 139 140 142 142 142 142 141 140 137 134 133 131 130 129 130 130 130 131 130 130 130 130 130 129 129 129 128 127 124 121 119 119 119 119 119 119 120 119 119 118 118 118 119 119 119 119 119 121 122 124 127 128 132 134 138 142 145 149 150 151 153 153 155 155 156 159 159 161 162 163 166 167 168 171 172 173 175 176 177 179 179 180 180 180 180 180 179 177 174 170 170 170 172 174 174 174 174 174 173 172 170 168 165 162 159 158 156 157 158 156 154 149 146 145 142 142 142 143 144 145 146 147 150 153 155 155 157 159 161 164 165 167 169 174 176 179 181 182 184 184 184 183 183 181 180 178 176 175 171 168 165 163 164 165 164 163 161 158 156 154 155 159 164 168 170 171 171 171 169 166 163 160 157 153 150 146 144 142 140 139 138 135 130 125 123 122 122 122 122 124 127 128 126 124 121 118 114 114 113 113 113 113 113 113 113 113 113 113 113 113 113 115 120 123 124 126 129 131 132 130 127 124 121 117 113 110 108 106 106 106 107 111 110 106 101 101 101 101 101 101 101 101 101 101 101 101 103 107 109 111 113 114 116 118 120 121 124 126 129 130 131 132 132 133 133 135 138 141 144 146 149 152 154 155 155 156 156 156 156 157 157 156 153 151 150 149 147 144 142 140 140 139 137 134 130 129 126 123 120 117 113 112 110 109 108 107 107 107 107 107 107 107 107 107 107 107 107 107 108 109 110 111 110 108 109 111 113 113 114 115 115 117 117 118 119 119 117 116 116 118 118 119 120 120 119 118 116 116 116 116 116 117 116 116 116 116 117 118 119 119 121 121 121 122 122 123 123 124 125 126 127 128 129 131 133 135 137 138 140 142 143 144 145 146 148 148 150 150 152 152 152 154 154 155 155 156 157 158 159 160 160 162 163 163 163 163 163 162 162 161 160 160 158 157 156 154 153 151 149 147 144 143 142 141 141 141 140 140 139 139 138 138 137 137 137 137 137 137 134 132 132 131 130 129 127 126 124 123 121 119 119 116 115 112 107 104 101 98 93 91 92 92 91 89 85 85 88 86 82 81 79 79 79 79 79 79 79 80 82 82 82 81 79 79 79 82 83 83 80 80 79 79 79 79 78 78 79 81 83 78 73 72 72 74 77 78 77 77 78 79 81 83 85 87 88 88 87 87 87 86 84 86 87 84 82 80 78 77 77 78 79 79 84 92 102 106 107 107 106 105 103 101 98 95 94 92 91 91 93 94 95 95 92 91 90 91 92 92 91 90 89 88 87 87 86 86 86 86 86 86 85 83 83 83 84 85 87 89 91 93 94 95 97 99 100 102 103 104 104 104 105 105 105 105 104 104 103 102 101 100 99 98 96 94 93 93 92 89 87 85 83 82 81 81 82 83 80 75 70 67 66 65 63 62 61 59 58 59 59 58 57 56 57 59 58 57 56 56 56 56 56 57 58 58 58 59 59 62 65 66 64 63 62 62 63 63 64 65 65 65 64 61 59 58 62 65 68 71 73 72 69 66 66 63 62 61 61 62 65 69 71 72 73 74 74 73 70 70 67 63 61 59 53 51 49 49 50 50 50 47 46 47 50 51 51 51 51 50 50 51 51 51 50 50 50 49 49 49 50 50 48 47 47 48 48 49 51 52 55 56 58 60 60
151 150 147 145 144 141 139 137 134 132 129 126 125 120 118 115 112 112 110 110 109 106 105 102 100 98 95 95 93 91 91 94 98 99 99 98 95 94 94 94 93 93 94 94 94 95 95 97 99 100 103 104 106 106 106 108 108 109 109 109 110 110 111 112 114 118 120 123 126 127 127 128 131 135 136 139 141 141 143 144 146 148 149 151 151 152 152 152 152 152 150 147 144 141 139 137 135 133 132 131 130 129 128 127 126 125 125 125 125 125 125 125 125 125 125 125 125 125 125 125 127 130 134 138 140 143 144 144 144 142 141 139 137 134 133 132 132 131 131 131 131 130 130 130 130 130 129 129 129 127 127 124 121 119 119 119 119 119 121 121 119 119 118 118 118 119 119 119 119 120 121 122 124 127 129 132 134 138 141 145 148 150 151 152 152 154 155 156 159 159 161 163 164 166 167 169 171 172 174 175 177 179 180 181 181 182 182 182 181 180 178 174 170 170 171 173 175 174 174 173 173 172 170 167 165 162 159 158 158 159 160 160 156 153 148 145 144 142 141 141 144 144 145 146 148 152 154 156 158 159 162 163 165 166 168 170 174 176 179 181 182 184 184 184 183 183 181 180 178 176 175 171 168 166 162 162 162 161 160 159 156 154 152 153 157 162 166 168 169 170 170 168 165 162 160 156 153 148 146 144 143 142 142 141 138 131 126 124 122 122 122 122 124 128 129 128 126 123 119 114 114 113 113 113 113 113 113 113 113 113 113 113 113 113 117 121 123 125 126 130 131 132 130 126 123 120 116 112 110 108 106 106 106 109 111 108 103 101 101 101 101 101 101 101 101 101 101 101 101 104 107 110 111 114 116 119 120 121 123 125 127 129 130 131 132 132 134 134 136 140 144 147 148 151 154 155 156 157 157 157 157 158 159 160 157 152 150 149 148 147 144 142 140 138 138 136 134 130 127 125 122 119 115 113 111 109 108 108 107 107 107 107 107 107 107 107 107 107 107 107 107 107 109 110 111 110 109 109 111 113 113 114 115 116 117 118 118 119 119 118 117 117 118 118 120 120 120 119 117 116 116 116 116 116 116 116 116 116 117 117 118 118 119 121 121 122 122 122 123 123 125 126 126 128 129 130 132 134 136 137 139 141 142 143 145 145 146 148 148 150 150 151 152 152 153 153 154 155 155 156 157 157 159 160 161 162 162 162 162 162 163 163 161 160 160 158 157 156 154 154 152 150 148 145 144 143 143 143 143 142 141 141 140 139 139 139 138 138 138 138 138 136 135 134 133 132 131 129 127 125 123 121 119 119 116 115 112 109 106 103 100 96 94 95 95 94 92 88 87 88 86 84 83 81 80 79 79 79 79 79 80 82 82 81 81 80 80 80 81 83 83 80 80 79 79 79 79 79 79 80 82 83 80 76 76 76 79 80 79 77 76 78 81 82 84 87 90 93 93 92 91 90 89 87 90 91 87 85 83 80 77 77 78 79 79 83 92 99 102 103 105 104 104 102 100 97 94 94 92 90 90 92 93 94 93 91 89 89 91 92 92 92 91 90 88 88 87 86 86 85 85 85 84 84 83 83 83 84 84 86 87 89 91 93 94 96 97 98 100 101 102 102 103 103 103 103 103 104 103 103 101 101 100 98 98 97 96 96 96 94 92 90 88 86 84 84 84 84 85 84 79 73 70 69 68 67 65 62 61 60 60 60 59 59 59 59 59 58 57 56 56 56 56 56 57 58 58 58 58 58 60 62 64 64 63 62 62 62 62 63 64 64 64 64 62 59 58 60 64 67 70 70 69 67 66 65 63 61 61 61 61 63 67 70 70 70 70 72 71 69 69 66 62 60 57 53 51 50 50 51 51 50 48 46 47 49 50 51 51 51 51 51 51 51 51 50 50 49 48 48 47 48 48 47 47 47 48 48 49 50 51 54 56 57 59 59
152 151 148 146 144 141 140 138 135 133 130 127 125 121 118 115 113 112 110 110 109 107 105 103 100 98 95 95 93 91 91 92 95 96 97 97 95 95 95 94 93 93 93 93 94 95 95 96 97 100 103 104 105 105 106 107 107 108 108 108 109 109 110 112 112 116 119 121 124 125 126 127 130 134 136 139 140 141 143 144 146 149 150 151 152 153 153 154 154 154 152 149 146 143 140 139 137 135 134 132 131 130 129 128 127 126 126 126 126 126 125 125 125 125 125 125 125 125 125 125 125 129 133 137 140 144 144 145 145 144 143 142 140 138 135 133 133 133 133 132 132 131 131 129 129 129 129 128 128 127 127 124 122 119 119 119 119 122 122 121 119 118 117 117 118 119 119 119 119 119 120 122 125 127 129 132 133 137 140 144 147 149 150 151 152 154 155 157 159 159 161 163 164 167 167 169 171 173 175 176 177 180 181 182 182 183 183 183 182 180 178 174 171 170 171 173 174 173 173 172 171 170 167 164 162 159 158 158 159 162 163 161 156 152 147 145 143 141 141 142 144 144 145 146 149 153 155 157 159 161 164 165 166 167 168 171 174 175 179 181 182 185 185 184 184 183 181 180 178 175 174 171 169 166 162 160 160 158 158 156 154 152 150 151 156 160 163 165 166 168 169 168 165 162 159 156 153 149 147 146 144 144 144 143 140 132 127 124 122 122 122 123 124 128 130 130 127 124 120 115 113 113 113 113 113 113 113 113 113 113 113 113 113 113 118 122 124 125 126 130 131 132 129 125 122 120 115 112 110 109 107 106 106 108 107 103 101 101 101 101 101 101 101 101 101 101 101 101 101 104 107 109 111 114 117 120 121 123 124 126 128 129 130 131 132 132 134 134 137 142 146 149 150 152 155 156 157 159 159 158 158 158 161 162 159 155 150 147 145 144 142 141 140 137 135 136 135 131 126 123 121 118 114 111 110 109 108 107 107 107 107 107 107 107 107 107 107 107 107 107 107 107 108 110 111 111 110 110 111 113 114 115 116 117 118 119 119 118 119 118 118 118 119 119 120 120 120 118 116 116 116 116 116 116 116 116 116 117 117 117 118 118 119 121 121 122 122 122 123 124 125 126 126 129 130 130 133 134 136 138 139 141 142 144 145 146 146 148 148 149 149 151 152 152 153 153 154 155 155 156 156 157 158 159 161 162 161 161 161 162 162 162 161 160 159 157 156 155 154 154 152 150 148 146 145 145 145 144 144 143 142 142 141 140 140 139 139 139 139 139 139 137 136 135 133 132 131 129 128 126 125 123 120 119 117 115 112 110 107 105 101 99 97 98 98 96 93 89 88 88 87 86 84 83 81 80 79 79 80 80 80 82 82 81 81 80 80 80 80 82 82 80 80 79 79 80 80 80 80 81 83 83 82 81 81 83 85 83 78 76 76 79 82 84 86 89 94 97 98 98 95 93 92 90 93 95 91 88 85 81 79 78 78 79 79 82 90 96 99 100 101 102 101 100 99 97 94 93 91 89 89 90 91 92 92 90 89 89 91 93 93 93 92 91 89 88 87 86 86 85 85 84 83 83 83 83 83 83 84 85 86 87 89 91 92 93 94 96 97 99 100 101 102 102 102 103 103 103 102 102 101 100 100 98 98 98 98 98 98 97 96 93 91 88 86 86 86 86 86 85 82 76 71 70 70 70 69 66 62 60 60 60 59 59 59 59 59 59 57 56 56 56 56 56 57 57 57 57 58 58 58 60 63 63 62 61 61 61 62 62 63 63 63 63 62 59 57 59 63 66 67 67 67 66 65 64 62 60 60 61 61 62 65 68 69 67 67 69 69 67 66 63 61 58 56 53 51 50 50 52 53 52 48 45 45 46 49 50 51 51 51 51 51 51 51 50 50 48 47 47 47 47 47 47 47 47 48 48 49 49 50 53 54 56 58 59
152 151 149 146 144 141 140 138 135 133 130 127 126 122 119 116 113 112 110 110 109 107 106 103 101 99 95 95 94 93 91 91 92 95 97 97 96 95 95 94 93 93 93 93 94 94 94 95 96 99 104 104 104 105 106 107 107 107 108 108 109 109 110 112 112 115 118 120 122 123 124 126 130 134 136 138 139 140 143 145 147 149 151 152 153 154 155 155 156 155 154 151 147 144 141 140 138 137 135 134 133 132 130 129 128 128 127 127 127 127 126 125 125 125 125 125 125 125 125 125 125 127 131 135 139 143 144 146 147 146 146 144 142 141 139 137 136 136 135 135 133 132 131 129 128 128 128 128 128 127 127 124 123 120 119 119 121 122 122 120 119 118 117 117 118 119 119 119 119 119 120 122 125 127 129 132 133 136 138 141 145 147 149 151 153 155 156 157 159 160 161 163 165 167 168 169 172 173 175 177 178 181 182 183 184 185 185 185 183 180 179 175 172 170 170 171 171 171 170 170 169 167 165 164 160 158 157 158 162 165 164 161 156 151 146 144 142 141 141 142 146 145 145 147 150 154 156 159 162 163 165 166 167 168 169 171 174 176 179 181 183 185 185 185 184 183 181 179 178 175 174 171 169 166 161 158 157 156 156 154 153 151 149 149 154 158 160 161 163 166 168 167 165 162 158 155 153 152 151 148 146 146 146 146 140 132 126 124 122 122 122 123 125 129 132 132 129 125 121 116 113 113 113 113 113 113 113 113 113 113 113 113 113 114 119 123 124 126 127 130 131 132 128 124 120 118 114 112 112 111 108 106 106 107 103 101 101 101 101 101 101 101 101 101 101 101 101 101 103 105 106 108 110 115 117 121 122 123 125 127 128 129 129 129 132 133 134 136 140 145 149 151 152 153 155 156 157 160 161 159 158 158 161 162 161 157 153 149 145 142 139 137 137 135 133 133 134 130 125 121 118 116 114 111 110 109 107 107 107 107 107 107 107 107 107 107 107 107 107 107 107 107 107 109 112 112 111 111 112 113 115 116 116 117 119 120 119 118 118 118 118 118 119 119 120 120 120 117 116 116 116 116 116 116 116 117 117 117 117 117 118 118 119 121 122 123 123 123 124 124 125 126 127 128 129 130 132 133 136 137 139 141 142 144 146 146 147 148 148 149 149 151 152 152 153 153 153 154 154 155 156 156 158 159 160 160 160 160 161 162 162 162 161 159 159 157 156 155 154 154 152 151 149 147 146 147 146 146 145 144 144 143 142 141 141 140 140 140 140 140 140 138 136 135 134 132 130 129 129 127 126 125 123 121 120 117 114 111 108 106 104 102 100 100 99 96 94 90 90 90 88 86 84 83 82 81 80 80 80 80 80 82 82 81 81 80 80 80 80 80 80 80 80 80 80 81 82 80 80 81 83 82 82 84 86 88 88 84 77 76 76 81 86 88 89 92 97 100 102 101 98 96 95 93 96 99 96 91 88 84 80 79 79 80 80 80 87 93 96 97 98 99 99 99 98 96 94 93 90 89 89 89 90 91 91 90 89 89 92 94 95 94 94 92 90 89 87 86 86 85 85 84 83 83 83 83 83 83 83 84 85 86 87 88 89 90 91 93 95 97 98 100 101 101 101 103 103 103 102 102 101 100 100 99 99 100 100 101 101 101 99 97 94 91 90 90 90 89 88 86 84 78 73 72 73 73 72 69 66 62 60 60 59 59 58 57 58 59 58 56 56 56 57 57 57 57 57 57 57 57 57 59 61 62 61 61 61 61 62 62 62 62 62 62 62 59 57 57 61 64 65 66 66 65 64 62 60 60 60 61 61 62 63 67 68 66 66 66 67 64 63 60 58 57 56 52 52 51 51 53 56 54 48 45 45 46 47 49 50 50 51 51 51 51 51 50 49 48 47 47 47 47 47 47 47 47 48 48 49 49 49 51 53 54 56 57
153 152 149 146 145 142 141 138 136 133 131 128 126 123 120 117 114 113 110 110 109 107 106 103 101 99 96 95 94 93 93 91 91 94 97 97 96 95 95 94 93 93 93 93 93 94 94 94 95 99 103 103 103 104 105 106 106 106 107 107 109 109 110 112 112 114 117 119 121 121 124 126 130 133 136 137 139 140 143 145 147 150 151 153 154 155 156 156 156 156 155 153 150 146 143 141 139 138 137 135 134 133 132 131 130 129 128 128 128 128 127 126 125 125 125 125 125 125 125 125 125 126 129 133 138 142 144 146 148 148 148 146 144 143 142 141 140 139 138 138 136 134 132 130 128 128 127 127 127 126 126 124 123 121 119 120 121 122 121 120 118 118 117 117 118 119 119 119 119 119 120 121 125 127 129 132 134 136 138 142 145 148 150 152 154 155 157 158 160 161 162 164 165 167 168 170 172 173 176 178 179 182 183 185 186 187 187 186 184 181 179 176 173 170 170 170 169 169 169 169 168 167 165 163 160 157 156 159 163 165 164 160 155 149 145 142 141 140 140 142 146 145 145 148 152 156 158 160 162 164 166 167 168 169 170 172 174 176 178 181 183 185 185 185 184 183 180 179 177 175 174 171 169 166 161 157 155 155 154 153 151 150 148 147 152 156 157 158 160 164 166 166 164 161 158 156 155 155 154 151 146 146 147 146 139 132 126 124 122 122 123 124 126 129 133 134 131 126 122 117 113 113 113 113 113 113 113 113 115 116 115 113 113 115 120 124 125 126 127 130 131 131 127 123 118 115 112 112 113 112 108 106 105 103 101 101 101 101 101 101 101 101 101 101 101 101 101 102 106 106 106 108 110 115 118 121 123 124 126 127 128 128 128 128 132 135 136 138 142 147 151 152 153 154 155 157 158 161 162 161 158 158 160 162 161 159 155 151 147 143 138 135 134 134 132 130 130 128 124 120 117 114 113 111 110 109 108 107 107 107 107 107 107 107 107 107 107 107 107 107 107 107 107 109 112 113 112 112 113 115 116 116 116 117 119 120 120 119 119 119 119 119 119 119 120 120 120 118 117 116 116 116 116 116 117 117 117 117 117 118 118 118 120 122 122 123 123 124 125 125 125 126 127 128 129 130 131 132 135 136 138 141 142 144 146 146 148 148 149 149 150 151 152 152 153 153 153 154 154 155 156 156 157 158 159 159 159 160 161 162 162 162 160 159 159 157 156 155 154 154 153 151 150 148 148 148 147 146 146 145 144 144 143 142 142 141 141 141 141 141 141 140 138 137 135 133 131 130 129 127 127 125 123 123 121 119 116 113 110 107 106 105 103 101 99 96 93 90 92 93 90 87 85 84 83 82 82 82 81 80 80 82 82 81 81 80 80 80 80 80 80 80 80 80 80 81 83 83 81 80 82 80 79 83 86 87 85 80 75 76 80 86 89 91 92 95 99 102 102 102 101 98 97 97 100 103 99 94 89 85 80 80 80 82 81 80 84 90 93 95 96 97 97 97 97 96 94 93 90 89 88 89 89 90 90 90 89 89 93 95 96 96 95 93 91 89 88 87 87 86 85 84 84 84 83 83 83 83 83 84 85 85 87 87 87 89 89 91 92 94 98 100 101 101 101 103 103 103 102 102 101 100 100 100 101 102 103 104 105 104 103 101 98 97 97 96 94 93 92 89 85 80 76 75 75 75 74 72 69 65 61 60 60 60 58 56 58 59 59 58 56 56 56 56 57 57 57 57 57 57 56 57 59 60 60 61 61 61 61 61 61 61 62 62 61 60 57 57 58 62 64 65 65 64 62 59 59 59 60 61 61 62 63 66 67 65 65 65 65 63 62 59 57 56 54 52 51 51 51 53 55 53 48 46 46 46 46 47 49 50 50 50 50 51 51 49 48 47 47 47 47 46 46 46 46 47 48 48 48 48 49 50 52 53 54 55
153 152 149 146 145 142 141 139 136 134 131 128 127 123 120 117 115 113 111 110 109 107 106 103 102 100 97 96 95 93 93 92 92 93 96 97 95 95 95 93 93 93 93 93 93 94 94 94 94 98 101 102 103 103 104 104 104 105 106 107 109 109 111 112 112 113 115 118 120 121 124 125 128 132 135 136 139 141 144 146 148 150 152 154 155 156 158 158 158 157 156 154 152 148 145 142 140 139 138 136 135 134 133 132 131 130 130 129 129 129 128 128 126 126 126 125 125 125 125 125 125 125 128 131 136 141 144 146 148 149 149 148 147 145 144 144 143 142 141 140 138 136 134 131 129 128 127 127 127 126 126 124 124 122 122 122 121 121 121 120 118 118 117 117 118 119 119 119 119 119 120 122 125 127 129 132 134 138 140 143 146 149 151 153 154 156 157 159 161 161 163 165 166 167 169 170 172 174 176 178 180 182 184 186 188 188 188 187 185 181 179 176 174 171 170 170 171 171 170 170 169 166 163 160 158 155 154 158 162 163 162 158 152 147 144 141 140 138 138 142 145 145 145 150 154 158 160 162 164 165 167 168 169 170 171 173 175 176 178 181 183 186 186 185 184 182 180 178 177 174 173 171 168 166 161 157 154 153 153 151 150 149 147 147 149 153 154 155 158 162 164 164 163 161 158 158 158 157 156 153 147 146 147 144 138 131 126 124 124 124 124 125 127 131 134 135 131 127 122 118 114 113 113 113 113 113 113 114 117 119 118 117 115 117 122 124 125 127 128 130 131 130 126 123 117 113 112 112 113 111 108 105 102 101 101 101 101 101 101 101 101 101 101 101 101 101 102 105 109 106 106 108 111 116 119 121 124 124 126 126 127 127 126 128 133 136 138 141 145 149 151 153 154 154 156 157 159 162 162 161 158 157 159 161 162 160 157 153 149 145 140 135 131 131 131 128 126 125 122 119 116 113 113 110 110 109 109 108 107 107 107 107 107 107 107 107 107 107 107 107 107 107 107 108 112 114 115 114 115 116 117 118 118 118 119 119 119 119 119 119 119 119 119 119 120 120 120 119 118 117 117 116 116 117 118 119 119 119 119 119 119 119 120 122 122 124 125 125 125 125 126 127 128 128 129 130 131 131 133 135 138 140 142 143 146 146 148 149 149 150 150 151 152 152 153 153 153 153 153 154 155 155 156 157 157 157 158 159 161 162 162 161 160 159 159 156 156 155 154 154 153 152 151 150 150 149 148 147 146 146 145 144 144 143 143 142 142 141 141 141 142 142 141 139 138 136 134 131 130 128 127 125 124 124 121 120 117 113 111 107 106 106 103 101 98 95 93 93 94 94 91 88 86 85 85 85 85 84 81 79 80 82 82 81 81 80 80 80 80 80 80 80 80 80 79 79 80 82 81 79 79 77 76 78 82 81 79 76 75 76 83 89 92 94 95 97 99 102 102 102 103 100 99 100 103 105 101 95 89 85 80 80 80 84 83 80 82 87 90 92 94 95 95 95 95 96 94 92 89 89 88 89 89 90 90 90 89 89 93 96 97 98 96 94 91 89 88 87 87 86 86 86 85 85 83 83 83 83 83 84 85 85 87 87 88 89 90 91 92 95 98 99 102 102 104 105 104 104 102 102 101 101 101 102 104 105 105 107 108 108 107 105 103 103 103 102 100 98 95 91 87 83 80 78 78 77 76 75 73 69 64 62 61 61 58 56 56 57 58 59 58 56 56 56 57 57 57 57 57 57 56 56 57 59 60 61 61 62 61 60 60 60 61 61 60 59 56 56 57 60 63 64 64 63 61 59 59 59 60 61 61 62 62 64 65 64 63 64 65 63 62 58 56 55 53 51 51 49 49 50 51 51 48 47 47 46 46 46 47 48 49 49 50 50 50 49 47 47 47 47 47 46 46 46 46 47 47 47 48 48 48 49 50 51 53 54
154 153 150 147 145 142 141 139 136 134 131 128 127 124 121 118 115 114 111 110 109 107 106 103 102 101 98 97 95 94 94 92 92 92 94 95 95 94 94 94 94 93 92 92 92 93 93 94 94 97 101 102 102 103 104 104 104 105 106 107 109 110 111 111 111 112 114 117 119 121 124 125 127 130 133 136 139 141 144 146 148 151 153 156 156 157 159 159 159 158 157 155 153 150 146 144 141 139 139 137 137 136 134 133 132 131 131 130 130 129 129 129 127 127 126 125 125 125 125 125 125 125 127 130 134 139 143 145 148 148 150 149 149 147 147 146 145 145 143 142 140 138 136 132 129 128 127 127 126 126 126 125 124 123 122 122 121 120 120 119 119 118 117 117 118 119 119 119 119 119 121 122 126 127 129 132 134 138 141 143 147 149 151 153 154 157 157 159 161 161 164 166 166 168 169 170 173 174 178 180 181 184 186 188 189 189 189 188 185 182 180 177 174 174 172 173 173 173 172 170 168 164 160 157 155 152 151 155 159 160 159 155 149 145 142 139 139 138 138 141 144 144 145 151 155 159 161 163 165 166 167 169 169 171 172 173 175 176 178 180 183 186 186 186 184 182 179 178 176 174 173 170 168 166 162 157 154 152 152 149 149 149 147 146 148 150 151 153 157 159 162 162 163 161 160 161 161 159 157 153 148 146 145 141 135 128 125 125 125 125 126 127 128 132 134 135 131 127 122 118 114 113 113 113 113 113 113 116 119 120 120 120 118 119 123 124 126 127 128 130 130 128 125 123 116 112 112 111 110 108 105 103 101 101 101 101 101 101 101 101 101 101 101 101 101 101 103 107 110 107 107 108 112 117 120 121 124 124 125 125 125 125 125 129 133 136 139 141 145 149 151 153 154 154 156 158 159 162 162 161 159 157 157 160 162 161 158 154 151 147 142 137 132 130 130 127 126 124 120 118 115 113 113 111 111 110 109 109 107 107 107 107 107 107 107 107 107 107 107 107 107 107 107 108 112 114 116 116 116 117 118 119 119 119 119 119 119 120 119 119 119 119 120 120 120 121 121 119 119 119 117 116 116 117 118 119 119 119 119 119 119 119 120 122 122 124 125 125 126 126 126 128 128 130 130 130 131 131 133 135 136 139 141 143 146 146 148 149 149 150 150 151 152 152 153 153 153 153 153 154 154 154 156 156 156 157 157 159 161 162 161 161 160 159 159 156 155 155 154 154 153 152 151 151 151 149 148 148 147 147 146 145 145 144 143 143 142 142 142 142 142 143 143 141 138 137 134 132 131 129 129 128 125 124 122 120 117 113 111 108 107 106 103 100 98 94 93 95 96 95 91 88 87 88 88 87 86 83 80 79 80 82 82 81 81 80 80 80 80 80 80 81 81 80 79 79 79 79 79 78 78 76 76 76 77 77 76 75 75 77 84 90 94 95 96 97 99 102 102 102 104 103 100 101 104 105 101 95 89 84 80 80 82 85 84 81 81 85 88 89 91 92 93 93 94 96 94 92 89 89 88 89 89 90 90 90 89 89 93 97 98 99 98 96 92 89 88 88 88 87 87 87 86 85 83 83 83 83 83 84 85 86 87 87 88 91 92 93 94 95 98 100 103 105 106 107 107 105 102 102 101 101 101 104 106 107 108 109 111 111 110 108 107 108 108 106 105 102 98 93 88 85 82 81 80 79 78 77 76 72 67 65 61 61 58 56 56 56 57 59 59 57 56 56 57 56 56 56 56 56 56 56 56 59 59 60 61 62 61 60 59 59 59 60 60 59 56 56 57 58 62 64 64 63 61 59 59 59 60 61 61 61 61 61 62 62 63 64 65 63 61 58 55 54 52 51 51 48 47 47 48 48 48 48 47 47 47 46 46 46 47 47 49 50 50 48 47 47 47 47 47 46 46 46 46 46 47 47 47 47 47 49 49 51 52 53
154 153 150 147 145 142 141 139 136 134 131 128 127 124 122 118 115 114 111 110 109 107 105 103 102 101 99 97 95 93 93 92 92 92 94 95 95 94 94 94 94 94 93 92 92 93 93 94 94 96 100 101 102 103 104 104 104 105 106 108 110 111 111 111 111 111 114 116 118 121 123 124 126 130 133 136 139 142 145 147 149 152 154 156 157 158 160 160 159 159 157 156 153 150 147 144 142 140 139 138 138 136 135 134 133 132 132 131 131 130 129 129 128 128 126 125 125 125 125 125 125 125 126 129 134 138 142 145 147 148 150 150 149 148 147 147 146 145 144 142 140 139 136 133 130 129 127 127 125 125 125 124 124 124 122 122 120 120 120 119 119 118 117 117 118 119 119 119 119 119 121 122 126 127 129 132 133 138 141 143 147 150 152 154 155 157 158 159 162 162 164 166 167 169 170 171 173 175 178 180 182 185 187 188 189 189 189 188 185 182 180 178 175 174 173 174 174 173 172 170 167 163 159 156 152 149 149 153 157 158 156 153 148 144 141 139 138 138 138 140 143 143 146 151 155 159 161 164 166 167 168 169 170 171 172 174 175 176 178 180 183 186 186 186 184 182 179 178 176 174 173 170 168 167 162 157 154 151 151 149 149 148 147 145 147 149 150 153 156 159 161 162 162 161 161 162 162 160 158 154 148 145 144 138 133 128 126 126 126 126 127 128 129 133 134 134 131 126 122 118 115 113 113 113 113 113 113 117 120 121 121 121 120 120 123 125 127 127 129 129 129 127 125 122 116 112 111 109 108 106 104 103 101 101 101 101 101 101 101 101 101 101 101 101 101 101 104 108 110 108 107 108 113 118 120 122 124 124 124 124 124 124 125 129 134 137 139 141 144 148 151 153 154 154 156 158 159 162 162 161 159 156 156 159 162 161 158 155 152 148 142 138 132 129 129 127 125 124 121 118 116 113 113 112 112 111 110 109 108 107 107 107 107 107 107 107 107 107 107 107 107 107 107 109 113 114 117 117 117 117 118 119 120 120 119 119 119 120 119 119 119 119 120 120 121 122 122 120 120 119 118 116 116 117 118 120 120 120 120 119 119 119 121 123 123 124 125 126 126 126 126 128 129 130 131 131 131 132 134 135 136 138 141 143 145 146 148 149 149 150 150 151 151 151 152 152 152 152 152 153 153 154 155 156 156 156 157 159 160 161 161 161 160 159 158 156 155 155 154 154 153 153 152 152 152 150 148 148 147 147 146 145 145 144 144 144 143 143 142 142 143 143 143 142 139 137 134 133 132 130 130 128 126 125 123 120 117 114 111 108 107 106 104 100 98 95 94 95 96 94 91 88 87 87 88 87 85 82 80 79 80 82 82 81 81 81 80 80 80 80 80 81 81 80 80 79 78 78 78 78 78 76 76 76 77 77 76 75 75 78 85 91 95 95 97 98 99 102 101 101 104 104 101 101 104 105 101 95 89 83 80 80 83 85 83 81 81 84 87 89 90 91 92 92 94 95 93 92 89 89 88 89 89 89 90 90 89 89 92 97 99 100 98 96 93 89 89 88 88 87 87 87 86 85 83 83 83 83 83 84 86 86 87 88 89 91 93 94 95 96 98 101 103 105 107 108 108 106 103 102 101 101 102 104 107 108 109 110 111 112 111 110 111 112 112 109 107 104 100 94 89 86 83 82 81 80 79 78 76 72 68 65 62 61 58 56 56 56 57 59 59 58 57 57 57 56 56 56 56 56 56 56 56 58 59 60 61 62 61 60 59 59 59 59 59 58 56 56 56 58 61 64 64 62 60 59 59 59 60 60 61 61 60 60 61 61 62 63 64 62 60 58 56 54 52 51 50 48 46 46 47 47 48 48 48 47 47 46 46 46 47 47 48 49 49 48 48 47 47 47 47 46 46 46 46 46 47 47 47 47 47 48 49 50 52 53
154 153 150 148 145 143 142 139 136 135 131 129 128 124 122 119 116 114 111 110 109 106 105 103 102 101 99 98 95 92 92 92 92 92 93 95 94 93 93 93 93 95 96 94 92 92 92 93 94 95 98 99 102 103 104 104 104 106 108 109 111 111 111 110 110 110 112 113 117 120 122 123 125 130 134 137 140 142 145 147 150 153 156 158 158 160 160 161 161 160 159 157 155 152 149 146 143 141 140 139 139 137 136 135 134 133 132 132 131 130 130 130 129 129 128 127 125 125 125 125 125 125 125 128 132 136 140 143 146 148 149 150 150 150 149 148 148 147 146 144 142 140 138 135 131 129 127 126 125 124 124 124 124 124 122 121 120 119 119 119 119 118 117 117 117 118 118 118 118 119 121 122 126 127 129 132 134 138 141 144 148 150 152 154 155 157 158 160 162 163 165 166 167 169 170 171 174 176 179 181 183 185 188 189 190 190 190 188 186 183 181 178 176 175 175 175 174 173 172 169 166 161 157 152 148 145 145 148 151 153 152 149 145 142 139 137 137 137 137 139 140 142 146 151 155 159 162 165 167 168 169 170 171 172 173 174 176 177 179 180 182 185 186 186 185 182 179 178 176 174 173 170 168 167 162 157 154 150 149 148 148 148 147 145 145 146 148 152 155 157 159 160 161 161 162 163 164 163 159 154 148 144 140 135 130 127 126 127 127 127 128 129 131 133 134 133 130 125 122 118 115 113 113 113 113 113 115 119 122 124 124 124 122 122 124 126 128 129 130 129 128 126 124 120 115 111 109 106 105 104 103 103 101 101 101 101 101 101 101 101 101 101 101 101 101 103 107 110 111 109 107 110 114 118 120 122 123 123 124 124 123 122 125 130 135 137 139 140 142 147 151 153 153 154 155 158 159 161 162 161 159 155 154 157 161 161 159 155 151 147 142 138 132 128 126 126 124 123 121 120 118 116 115 114 113 112 111 110 109 108 107 107 107 107 107 107 107 107 107 107 107 107 107 110 113 114 117 119 119 119 119 120 122 123 121 120 120 120 119 119 119 120 121 120 121 122 122 120 120 120 118 117 117 118 119 121 121 122 121 121 120 120 121 123 123 124 126 126 126 126 126 128 129 131 131 132 133 133 134 136 137 138 140 142 144 146 147 148 148 150 150 151 151 151 152 152 152 152 152 153 153 153 155 155 155 156 156 158 159 160 161 160 159 159 158 155 155 155 154 154 154 153 153 152 152 151 149 149 147 147 146 145 145 145 144 144 144 143 143 143 144 144 144 143 141 138 135 133 132 130 130 129 127 125 124 122 119 115 111 109 108 107 105 101 99 97 95 95 95 93 91 87 86 86 88 86 82 79 79 79 80 82 82 81 81 81 80 80 80 80 80 81 81 81 80 80 78 77 77 77 77 76 76 76 76 76 76 76 76 80 87 93 95 96 98 99 100 101 101 101 104 105 102 101 103 104 101 95 88 82 80 80 83 83 83 81 81 83 85 86 88 89 89 89 91 93 93 92 89 89 88 88 88 89 89 89 89 90 92 97 100 101 100 98 94 90 89 88 88 88 88 87 86 85 83 83 83 83 83 84 86 86 88 89 91 93 95 97 98 98 100 102 104 107 109 110 110 109 105 103 102 102 103 106 109 111 111 112 113 114 113 115 117 119 119 115 111 109 103 96 91 88 85 83 84 83 81 79 76 72 69 68 65 62 59 56 56 56 56 58 58 58 57 57 56 56 56 55 55 55 56 56 56 58 58 60 60 61 61 60 59 59 59 58 58 57 56 56 56 57 60 63 63 62 59 59 60 60 60 60 61 60 58 58 58 59 60 61 62 61 60 58 56 55 52 51 49 46 46 46 46 46 47 47 48 48 48 48 47 46 47 47 47 48 48 48 48 47 47 47 47 46 46 45 45 46 46 46 47 47 47 48 48 50 51 52
155 153 151 148 146 143 142 139 136 134 131 129 128 125 123 120 116 114 111 110 109 106 106 103 101 101 99 99 97 93 92 92 92 92 92 94 94 93 92 92 92 93 97 96 92 92 92 92 92 93 95 98 101 102 103 103 103 106 108 109 110 110 110 109 108 109 109 112 116 119 122 123 126 131 134 137 141 143 146 148 151 154 157 159 160 161 162 162 162 161 159 158 157 154 151 148 145 142 141 140 139 138 137 136 135 133 133 132 132 132 132 132 131 131 130 128 126 125 125 125 125 125 125 127 130 134 138 142 145 147 148 150 151 150 150 150 149 149 147 145 143 141 139 135 131 128 126 125 124 123 123 123 123 123 122 121 119 119 119 118 118 118 117 117 117 118 118 118 118 119 121 122 126 127 129 132 134 138 142 144 148 150 152 154 156 158 159 160 163 163 166 167 168 170 170 172 174 177 179 182 184 187 188 190 191 192 190 189 187 183 181 178 176 176 175 175 174 172 171 169 165 159 154 149 145 142 142 143 146 148 147 145 143 140 138 136 135 136 137 138 140 142 145 150 154 158 162 165 167 168 170 172 173 174 174 175 176 177 179 180 181 185 186 186 185 183 180 178 177 174 173 170 169 167 161 158 154 150 148 147 148 147 146 144 143 144 147 151 154 156 157 158 158 161 163 164 167 164 159 153 147 142 137 132 128 128 128 128 129 129 130 131 132 133 133 132 128 125 121 118 115 113 113 113 113 113 117 120 123 125 126 126 125 124 125 127 129 130 131 129 126 124 121 117 113 109 106 104 104 104 103 103 102 101 101 101 101 101 101 101 101 101 101 101 101 106 109 110 112 112 110 111 114 118 119 121 122 122 123 122 122 122 126 131 135 136 137 138 142 148 151 152 152 152 153 156 158 160 161 161 158 153 153 156 159 160 158 154 150 146 142 137 132 127 125 123 123 122 121 121 120 119 117 115 114 112 111 111 109 108 107 107 107 107 107 107 107 107 107 107 107 107 108 111 113 114 117 119 119 119 119 121 124 124 122 122 121 120 120 120 120 120 122 122 122 122 122 120 120 120 118 118 118 118 119 121 122 122 123 123 122 122 122 123 123 125 126 126 127 127 127 129 130 131 133 133 134 134 135 137 138 139 140 141 143 145 146 148 148 149 150 151 151 151 152 152 152 152 152 153 153 153 155 155 155 156 156 157 158 159 160 160 159 158 158 155 155 155 154 154 154 154 154 152 152 151 150 149 148 148 147 146 146 145 145 145 144 144 144 144 144 144 144 144 142 140 137 134 133 131 130 129 127 127 125 123 121 118 114 110 109 108 106 104 101 98 97 95 93 91 90 86 85 85 85 83 79 78 79 79 80 81 81 81 82 82 80 80 80 80 80 81 81 81 80 80 79 77 77 77 77 77 77 77 76 76 76 76 77 83 89 93 95 96 98 100 101 101 101 101 103 105 102 101 102 101 99 93 86 82 80 80 83 84 84 82 82 82 84 85 86 86 86 86 88 90 92 92 90 89 88 88 88 89 89 89 89 90 92 98 101 102 102 100 97 92 89 89 89 88 88 87 86 85 83 82 82 83 83 84 86 86 88 89 92 94 96 98 99 100 101 103 105 108 110 112 113 112 108 106 104 104 104 107 111 112 113 113 114 116 116 119 122 125 125 121 117 114 107 100 94 90 87 86 87 86 83 79 75 71 69 69 67 65 60 57 56 56 56 57 57 57 56 56 56 56 56 55 55 55 56 56 57 58 59 60 61 61 61 61 59 59 59 57 57 57 56 56 56 57 60 62 62 60 59 59 61 60 60 59 59 59 58 58 57 57 57 59 61 61 59 58 56 55 52 51 49 46 46 46 46 46 47 47 48 48 48 49 49 47 47 47 47 48 48 47 47 47 47 47 47 46 45 45 45 45 46 46 46 47 47 48 48 50 51 51
155 154 151 149 147 143 142 140 137 134 130 128 128 125 123 120 117 114 112 110 109 107 106 102 101 101 99 99 97 93 92 92 92 92 92 93 93 92 92 92 92 92 94 95 92 92 92 92 92 92 94 96 99 101 101 103 103 106 107 108 109 109 109 108 107 107 109 113 117 120 123 125 127 132 134 138 141 143 146 149 152 155 157 160 161 161 163 163 163 161 160 159 157 155 153 149 147 144 142 141 139 139 138 137 135 134 134 133 134 134 133 133 132 132 131 129 128 126 125 125 125 125 125 126 128 131 136 140 143 145 147 149 151 151 151 151 150 150 149 147 145 142 139 135 131 127 125 124 123 122 122 122 122 123 122 121 119 119 119 118 118 118 117 117 117 117 117 118 119 120 121 122 126 127 129 132 134 139 142 144 148 150 152 155 156 158 159 161 163 164 166 167 168 170 171 172 175 177 180 182 184 187 189 191 192 192 191 189 186 183 181 178 175 175 174 174 173 172 170 168 163 157 151 146 142 139 139 140 142 143 143 142 140 138 135 135 135 136 137 139 141 143 146 150 154 158 162 164 167 168 170 172 173 175 175 176 177 178 179 181 181 184 185 186 184 183 181 178 177 174 173 170 169 166 162 158 155 150 148 146 148 147 145 144 142 142 145 149 152 154 154 155 158 162 164 167 167 164 158 151 144 139 135 130 128 128 129 129 130 131 132 133 133 133 133 130 127 124 121 117 115 113 113 113 113 115 119 123 125 126 127 127 128 128 127 129 130 130 130 127 124 121 117 114 110 107 105 104 104 104 103 103 102 102 102 101 101 101 101 101 101 101 101 101 102 106 108 109 112 111 111 113 115 118 119 121 121 121 122 121 120 122 127 131 134 134 134 138 142 147 150 151 151 150 150 153 155 158 159 159 156 151 150 154 158 159 157 153 149 145 141 136 131 128 125 123 121 120 120 120 119 119 119 117 114 113 112 111 110 109 108 107 107 107 107 107 107 107 107 107 107 107 110 112 113 114 116 119 119 119 120 121 123 124 122 122 122 121 122 122 121 121 121 121 121 122 122 120 120 120 118 118 118 118 119 121 122 123 124 124 124 123 123 123 124 125 126 127 128 128 128 129 130 132 133 134 135 135 136 137 138 140 141 142 143 144 146 147 148 148 149 150 151 151 151 151 152 152 152 153 153 153 155 155 155 155 155 156 157 158 159 159 159 158 157 155 155 155 155 155 154 154 154 153 153 152 151 149 148 148 148 147 146 146 145 145 145 144 144 144 144 144 144 144 142 141 138 136 133 131 130 129 127 127 125 124 122 119 116 113 112 111 109 106 103 99 97 96 93 91 88 86 85 84 83 80 79 78 79 79 80 81 81 82 83 83 83 82 80 80 80 81 81 81 81 81 80 78 77 77 77 77 77 77 76 76 76 76 77 83 88 92 94 95 99 101 101 101 101 101 102 104 102 101 100 98 96 93 86 82 80 81 85 87 87 84 82 83 84 84 85 86 86 86 86 89 92 92 90 89 88 88 88 89 89 89 90 90 93 98 101 102 102 101 99 94 89 89 89 88 88 87 86 85 83 82 82 83 83 84 86 86 88 90 92 95 96 99 100 101 103 104 106 109 111 114 115 114 112 109 107 105 105 107 112 114 115 115 116 117 119 122 126 128 128 126 123 120 112 104 97 92 89 88 89 88 83 78 74 73 73 73 71 68 63 59 57 56 57 57 57 57 56 56 56 56 56 55 55 55 55 55 57 59 60 61 62 62 62 61 59 59 59 57 57 56 56 56 56 57 59 61 61 59 59 59 60 59 59 59 58 58 58 58 56 56 57 58 59 59 59 58 56 55 52 50 49 46 46 46 46 46 47 47 47 47 47 48 49 47 47 47 47 47 47 47 46 46 46 46 47 46 45 45 45 45 45 45 46 46 47 47 48 49 50 51
156 155 152 149 147 144 142 140 137 134 129 127 127 125 123 120 118 115 112 111 109 107 106 102 101 101 99 99 98 94 92 92 92 92 92 93 93 92 92 92 92 92 92 92 92 92 92 92 92 92 93 94 97 100 100 103 104 106 106 107 107 107 107 107 107 107 110 113 117 120 124 125 127 132 135 138 142 144 147 149 153 156 158 160 162 162 163 164 163 162 161 159 157 156 154 151 148 145 143 142 141 140 138 138 136 135 135 135 135 135 134 134 133 133 132 130 129 127 126 125 125 125 125 126 126 129 133 137 141 144 145 148 151 153 153 153 153 153 152 150 146 142 138 134 129 126 124 123 122 121 121 121 121 122 121 120 119 119 119 118 118 118 117 117 117 117 118 120 120 120 122 122 125 127 129 132 134 139 142 144 149 150 152 155 156 159 160 162 164 164 166 168 168 170 171 172 175 177 180 183 185 188 190 192 193 193 191 189 186 183 180 177 174 173 173 173 172 171 168 166 162 155 149 143 140 137 136 137 139 139 140 139 137 136 134 135 135 136 138 140 143 146 149 153 157 161 163 165 168 168 170 173 173 175 176 176 178 178 179 181 182 184 184 184 183 183 181 179 177 175 173 171 169 166 162 159 156 151 149 144 145 146 144 143 141 141 143 147 150 150 151 154 159 163 165 167 166 162 155 147 140 136 133 130 129 129 130 130 130 132 134 135 135 133 132 130 126 123 120 118 116 113 113 113 113 117 121 124 126 128 128 129 129 130 130 130 130 129 128 125 122 118 114 111 109 107 105 104 104 104 103 103 102 102 102 101 101 101 101 101 101 101 101 101 102 105 107 108 110 110 111 114 115 118 119 119 118 119 120 119 119 123 128 131 132 132 134 138 142 146 149 150 150 148 148 150 152 155 157 157 153 149 149 153 156 157 156 151 147 144 140 136 132 129 127 124 121 118 118 118 118 118 118 117 115 114 112 112 111 111 109 107 107 107 107 107 107 107 107 107 107 108 110 112 113 114 116 119 120 120 121 122 122 122 122 122 122 122 123 124 123 122 121 121 121 122 122 121 121 120 118 118 118 119 119 121 122 123 124 125 125 125 124 124 124 126 126 127 129 128 128 129 130 133 134 134 136 136 137 138 138 141 141 142 143 144 146 146 146 148 149 150 150 150 151 151 152 153 153 154 154 154 155 155 155 155 155 156 156 157 158 158 159 158 157 155 154 154 154 154 155 154 154 153 153 152 151 151 149 149 148 147 147 146 146 146 146 146 145 145 145 145 145 144 142 141 139 137 135 132 130 129 127 127 125 124 122 119 117 114 113 112 110 107 104 101 99 97 94 92 89 87 84 83 83 81 81 80 80 79 80 80 81 82 83 84 83 82 80 80 80 81 81 81 81 81 80 80 78 77 77 77 77 77 76 76 76 76 77 82 87 91 94 96 100 101 101 100 100 101 101 102 101 99 99 96 95 93 88 84 81 83 87 89 90 85 83 83 84 84 85 85 85 86 86 89 92 92 91 90 90 89 89 89 89 89 90 90 93 98 101 103 103 102 100 95 90 89 89 88 88 87 86 86 83 82 82 83 83 84 86 86 89 90 92 95 96 99 101 102 104 105 107 109 111 115 117 117 115 113 110 108 106 109 113 115 117 117 117 118 120 125 129 131 131 128 127 124 118 109 101 95 91 88 88 85 81 79 80 81 80 80 76 71 66 61 58 58 58 57 57 57 56 56 56 56 56 55 55 55 55 55 56 59 61 63 63 63 62 61 59 59 59 57 57 56 56 56 55 56 58 59 60 60 59 58 57 58 58 58 58 58 58 58 57 56 57 58 58 59 59 58 56 55 52 50 49 47 47 46 46 46 47 47 47 47 47 47 47 47 46 46 47 47 47 46 46 45 44 45 46 46 45 45 45 45 45 45 45 45 45 46 47 49 50 50
156 155 152 150 147 144 142 140 137 134 130 126 126 124 123 120 118 115 112 111 109 106 106 103 100 100 99 99 98 94 92 92 92 92 92 92 92 92 92 92 92 92 92 92 92 92 92 92 92 92 92 93 94 97 100 103 104 106 106 106 106 106 106 106 106 108 110 113 117 120 124 125 128 132 135 138 142 144 147 150 153 157 159 161 162 163 164 165 164 163 162 160 159 157 155 152 150 147 145 143 141 140 139 138 137 136 136 136 136 136 135 135 134 133 132 131 130 128 127 125 125 125 125 125 125 127 130 134 138 142 143 147 151 153 153 155 156 157 154 152 147 142 137 132 128 125 124 122 121 120 120 120 121 121 120 120 118 118 118 118 118 118 117 117 117 118 119 120 120 121 122 122 125 127 129 131 134 138 141 144 149 150 152 155 157 159 160 162 164 165 166 168 169 171 171 173 175 177 181 184 185 188 190 193 193 193 191 188 185 182 179 175 173 173 172 172 171 168 165 163 159 152 146 142 138 135 134 135 136 137 137 136 135 134 133 135 136 138 140 142 144 148 152 156 158 163 165 167 169 169 171 173 174 176 176 177 178 179 180 181 182 184 184 183 183 182 180 179 177 176 175 173 169 166 162 158 156 151 149 143 143 143 143 143 140 140 141 144 146 147 150 155 160 164 165 165 162 158 150 143 137 134 133 132 131 130 130 130 131 133 135 136 135 133 131 129 125 123 121 120 117 114 113 113 115 119 123 124 126 128 128 128 128 128 130 129 129 129 127 123 119 115 112 111 109 107 106 104 104 104 103 103 102 102 102 101 101 101 101 101 101 101 101 101 104 106 108 109 110 111 111 114 115 117 118 117 117 118 118 118 119 125 129 131 131 131 134 138 142 145 147 148 148 146 146 147 149 152 155 154 151 147 148 151 154 155 155 151 148 144 141 137 134 130 128 124 121 118 115 115 115 116 117 116 115 114 112 112 111 111 110 109 107 107 107 107 107 107 107 107 107 109 110 111 114 117 119 120 121 121 123 122 122 122 122 122 122 122 122 124 123 122 121 121 121 121 121 120 120 120 118 118 118 119 120 122 122 123 125 125 126 126 125 125 125 126 126 127 129 129 129 129 130 133 134 135 136 136 137 138 139 141 141 142 144 144 146 146 146 148 148 150 150 150 151 151 152 153 153 154 155 155 155 155 155 155 155 155 155 156 157 158 158 158 157 154 153 153 154 154 155 155 155 153 153 153 151 151 150 149 148 148 147 147 146 146 146 146 145 145 145 145 145 144 142 141 139 138 136 134 132 130 128 127 126 124 122 119 117 115 114 113 111 109 106 103 100 99 97 93 89 86 85 84 83 84 84 84 82 79 80 80 80 82 83 84 83 82 80 80 80 80 80 80 80 80 80 80 78 77 77 77 77 77 76 76 76 76 76 82 87 92 95 98 102 102 101 100 99 100 100 100 99 98 96 94 94 93 88 84 83 85 89 91 92 87 83 83 84 84 85 85 85 86 86 90 93 93 91 91 90 89 89 89 89 89 91 91 93 97 101 104 104 104 102 97 91 89 89 88 88 87 86 86 83 82 82 83 83 84 86 86 89 90 92 94 96 99 101 102 105 105 107 108 111 115 118 119 118 116 113 111 109 110 114 115 117 117 118 118 121 127 131 132 132 131 130 127 121 112 104 97 92 89 87 83 83 86 89 90 88 87 83 75 69 63 59 58 58 57 57 57 56 56 56 56 56 55 55 55 54 54 55 58 61 63 63 63 61 60 59 58 58 57 57 56 55 55 54 55 56 58 59 60 59 58 56 56 57 57 57 58 59 59 57 56 57 58 58 59 59 58 56 55 52 50 50 49 48 46 46 46 46 46 47 47 47 47 47 47 46 47 47 48 47 47 46 45 44 44 44 45 44 44 44 44 44 44 44 44 44 46 47 48 49 49
157 155 153 150 148 145 142 140 137 135 131 127 125 123 122 120 118 116 113 111 109 106 106 103 101 99 99 99 98 94 92 92 92 92 92 92 92 92 92 92 92 92 92 92 92 92 92 92 92 92 92 92 94 95 98 102 104 105 105 104 105 104 104 106 106 108 110 113 117 120 124 126 128 132 135 139 142 144 148 150 153 158 159 161 163 163 165 165 165 164 163 161 159 158 155 154 151 149 146 144 143 141 140 139 138 138 138 138 137 137 136 136 134 134 133 132 131 128 127 126 125 125 125 125 125 125 128 131 135 138 140 145 149 151 153 155 158 159 156 152 145 139 134 130 126 124 123 121 120 119 119 119 120 120 119 119 118 118 118 119 119 118 117 117 117 118 119 121 121 121 122 122 125 126 128 131 133 137 141 144 149 151 153 155 157 160 161 163 165 165 167 168 169 171 172 173 175 177 181 184 185 188 190 193 193 193 191 187 184 180 177 173 172 172 171 170 168 164 162 160 156 149 143 139 135 134 134 134 134 135 135 134 133 132 133 135 137 138 141 143 147 151 154 157 160 164 166 167 169 169 172 173 174 176 176 177 179 179 180 181 183 184 184 183 182 180 180 178 177 176 176 173 169 165 161 158 156 151 149 144 142 141 142 142 139 138 140 142 143 146 151 155 160 163 164 162 158 154 146 139 135 135 134 134 133 132 131 131 132 133 136 137 135 132 130 127 124 123 121 121 118 114 113 113 117 122 124 125 126 127 127 126 126 125 127 128 128 128 125 120 116 112 111 110 108 107 106 104 104 104 103 103 103 102 102 101 101 101 101 101 101 101 101 103 107 109 111 111 111 112 112 113 114 115 116 116 115 116 117 118 120 126 129 131 130 131 136 138 141 144 145 146 146 144 144 146 147 149 152 152 149 146 147 150 151 152 153 151 148 145 141 140 135 131 127 124 120 118 114 113 113 114 115 115 114 113 112 111 111 111 111 109 108 107 107 107 107 107 107 107 107 108 110 112 116 121 122 122 122 123 124 122 122 122 123 123 122 122 122 124 123 123 122 122 121 121 121 120 120 120 119 119 119 119 120 122 122 123 125 125 127 127 126 126 126 126 127 127 129 129 129 129 130 133 134 135 137 137 138 138 139 141 141 142 144 144 146 147 147 148 148 150 150 150 152 152 152 153 154 155 155 155 156 156 156 155 155 154 154 155 157 157 157 157 156 154 153 153 154 154 156 155 155 154 154 153 152 152 150 150 149 148 148 147 147 147 146 146 146 145 145 145 145 144 142 142 139 138 137 135 132 130 129 129 126 125 122 120 118 116 115 114 112 110 108 105 102 100 98 95 90 86 85 85 85 86 86 87 85 83 82 80 80 83 83 84 83 82 81 81 81 80 80 80 80 80 79 78 77 77 77 77 77 77 77 76 76 76 77 82 88 93 96 99 103 103 101 99 99 99 100 99 97 97 95 93 93 93 89 85 84 85 89 93 93 88 84 84 84 84 85 85 85 86 87 91 93 93 92 92 92 90 89 88 88 89 91 91 92 97 100 104 106 105 103 98 92 88 88 87 87 87 86 86 83 82 82 83 83 84 85 86 88 89 91 94 96 99 101 102 106 106 107 107 110 114 118 120 120 118 116 114 111 112 114 115 117 117 118 118 121 127 131 133 133 134 133 128 120 112 105 98 95 94 91 87 90 93 95 95 93 92 89 82 73 67 61 59 59 57 57 57 56 56 56 56 56 55 55 55 54 54 54 56 59 61 62 63 61 59 59 58 58 57 57 57 55 55 54 54 55 57 58 59 59 58 56 56 56 57 57 58 59 59 57 56 56 58 58 59 58 57 55 54 52 50 49 48 48 47 46 46 46 46 46 47 47 46 47 47 47 47 50 51 51 49 48 46 45 44 43 43 43 44 44 44 44 44 44 44 44 45 46 48 49 49
158 156 153 151 148 145 143 140 138 136 132 128 126 123 121 119 118 116 113 111 109 106 105 103 101 99 98 98 98 94 92 92 92 92 92 92 92 92 92 92 92 92 92 92 92 92 92 92 92 92 92 92 94 94 97 101 104 104 103 102 103 103 104 106 106 108 110 113 117 120 124 126 128 132 135 139 143 144 148 151 154 158 159 162 163 163 165 165 166 164 163 161 160 158 156 154 152 150 148 145 143 142 141 140 139 138 138 139 138 137 137 136 135 135 134 132 131 129 128 126 125 125 125 125 125 125 126 128 131 134 136 141 145 147 149 153 156 158 156 148 141 135 132 128 125 122 121 121 119 119 119 119 120 120 118 118 117 117 117 118 118 118 117 117 118 119 119 120 120 121 122 122 125 127 129 132 134 137 141 144 149 151 153 156 158 160 161 163 165 166 167 168 170 172 172 173 176 177 181 184 185 188 190 192 192 192 190 186 183 179 175 173 172 172 172 170 166 161 158 157 153 147 142 138 134 134 134 134 134 133 133 133 132 132 134 137 138 140 142 144 148 152 156 159 161 164 166 167 170 170 172 174 174 177 177 178 179 179 181 182 183 184 184 183 182 179 178 177 176 176 176 173 169 165 160 157 156 151 150 144 142 140 140 139 138 137 138 139 141 146 151 155 159 160 160 158 154 147 140 136 136 139 138 137 136 134 132 132 132 133 137 137 134 132 129 126 123 123 122 122 118 114 113 115 119 122 125 126 126 126 126 125 124 123 125 126 125 125 121 117 113 112 111 109 107 106 105 104 104 104 103 103 103 103 103 101 101 101 101 101 102 101 102 105 108 111 112 112 113 113 113 113 113 113 114 114 115 116 117 118 120 125 128 130 129 130 135 138 141 143 144 145 144 142 143 144 144 147 148 148 147 144 146 147 147 149 150 149 147 145 141 140 135 131 127 123 120 118 115 113 112 112 112 114 113 112 111 110 110 110 111 110 110 108 107 107 107 107 107 107 107 107 109 112 116 122 124 123 123 123 123 122 123 126 128 127 125 122 122 123 123 123 123 122 122 121 121 121 121 120 119 119 119 119 120 122 123 124 125 125 127 127 127 127 127 127 127 128 129 130 130 130 130 133 135 135 138 138 139 139 139 141 141 142 143 144 146 147 147 149 149 150 150 151 152 152 153 154 155 155 156 156 156 156 156 155 154 153 153 154 156 157 157 156 156 153 152 152 154 154 155 155 155 154 154 153 153 152 151 151 150 149 148 148 147 147 146 146 146 146 146 145 145 144 142 142 139 138 138 135 133 131 129 129 126 125 123 120 119 118 116 115 113 111 109 106 104 101 100 98 93 89 86 86 86 87 88 88 88 88 86 80 80 82 83 84 83 83 82 81 81 80 80 79 79 79 78 78 77 76 76 76 76 77 77 76 76 76 77 84 90 95 98 100 103 104 103 100 99 98 99 98 97 96 94 92 92 92 89 86 84 84 88 95 94 88 84 84 85 85 85 85 85 86 87 90 92 92 92 92 91 90 90 88 87 88 90 90 92 96 100 105 107 107 104 99 92 88 87 87 86 86 86 86 83 82 82 83 83 84 85 86 87 88 90 94 96 100 101 103 106 107 107 107 109 113 117 120 122 121 118 116 113 113 114 115 117 117 118 118 120 125 131 133 135 135 133 127 119 111 104 98 98 99 96 93 96 96 98 98 96 96 94 88 80 72 65 61 59 58 58 57 57 57 56 56 56 55 55 55 54 54 54 55 56 58 62 62 60 59 59 58 58 57 57 57 56 55 54 54 54 55 57 58 58 57 56 56 56 57 57 58 58 58 57 55 55 56 57 58 57 56 55 54 52 50 48 47 47 49 47 46 46 46 46 47 47 46 46 46 46 48 50 54 54 53 51 49 47 45 43 43 43 43 43 43 43 43 44 44 44 45 46 48 48 48
159 156 154 152 149 145 144 141 138 136 132 129 128 124 121 119 117 116 113 111 109 106 105 103 100 99 97 97 97 94 93 92 92 92 92 92 92 92 92 92 92 92 92 92 92 92 92 92 92 92 92 92 94 94 96 98 102 102 100 100 101 102 105 106 106 109 110 113 117 120 124 126 128 132 135 139 143 145 149 152 155 158 159 162 163 163 165 165 166 164 164 161 160 159 157 155 153 151 149 146 145 144 141 140 140 140 140 140 139 138 137 137 135 135 134 133 132 130 128 127 125 125 125 124 124 124 124 126 128 131 133 137 140 142 144 149 153 155 152 144 137 133 130 126 123 122 121 121 119 118 118 119 119 119 118 117 116 116 116 118 118 117 116 116 117 120 120 120 120 121 123 123 126 128 131 134 136 138 141 145 149 150 153 156 158 161 162 164 166 166 168 169 170 172 172 174 176 177 181 184 185 188 189 191 192 191 188 184 181 177 174 173 173 173 172 171 167 160 156 154 151 145 140 137 134 134 134 134 134 133 132 132 131 131 134 137 138 141 143 145 149 153 157 160 161 164 166 167 170 170 173 174 175 177 177 178 179 180 181 182 183 184 184 183 181 178 176 175 175 175 175 173 168 164 159 154 155 151 150 144 142 139 137 137 136 135 136 137 140 145 151 154 158 158 157 153 148 141 136 136 139 141 142 141 138 136 134 133 133 133 135 135 133 130 127 126 124 124 124 123 119 115 114 116 120 123 125 126 126 126 125 124 122 121 123 124 123 123 118 115 112 111 110 108 106 105 104 104 104 104 103 103 104 104 103 101 101 101 101 102 105 104 105 108 110 112 114 115 116 115 114 113 113 113 114 115 116 117 117 118 119 124 127 128 127 129 135 137 140 142 143 144 143 141 141 142 143 145 146 146 144 143 144 145 145 146 148 148 146 144 141 140 136 132 129 125 122 120 118 115 112 111 111 112 112 110 109 109 109 109 110 111 111 109 108 107 107 107 107 107 107 107 108 111 114 120 122 122 121 121 123 124 126 129 132 131 129 124 123 124 124 124 123 123 122 122 122 121 121 120 119 119 119 120 121 122 123 124 126 126 127 128 128 128 128 128 128 128 130 130 131 131 131 133 135 136 138 139 140 140 140 141 141 142 143 144 146 147 147 149 149 150 151 151 153 153 153 155 155 156 157 157 157 157 156 155 154 153 153 153 155 156 156 156 155 153 152 152 153 154 155 155 155 155 155 154 153 152 151 151 151 150 149 148 148 148 147 147 146 146 146 145 145 144 142 141 139 138 138 135 134 131 129 129 127 126 124 120 120 118 117 115 113 112 110 107 105 102 102 100 97 93 89 87 87 88 88 89 89 89 87 83 80 81 82 84 83 83 82 82 81 80 80 79 79 79 78 78 78 76 76 76 76 77 76 76 76 76 77 85 92 96 100 101 104 106 104 102 99 98 97 96 96 95 93 91 91 90 88 85 82 82 87 96 96 88 85 85 86 86 86 86 86 86 86 90 92 92 91 91 91 90 90 87 87 87 89 90 91 95 100 106 108 108 104 99 93 88 87 86 86 86 85 85 83 83 83 83 83 84 84 85 87 88 90 94 96 100 102 103 105 107 106 106 108 111 115 120 122 121 118 116 114 114 114 115 116 116 119 119 121 125 129 132 134 133 131 125 118 110 103 98 98 100 101 98 97 97 99 100 99 98 96 93 85 75 69 65 62 61 59 58 58 57 57 56 56 56 55 55 55 55 55 55 55 56 59 61 60 59 59 58 58 58 58 57 56 56 54 54 54 54 56 56 56 56 55 55 55 56 57 57 57 57 56 54 53 54 55 56 56 55 54 53 51 50 47 47 47 50 49 46 46 46 46 47 47 46 46 46 46 49 51 53 53 53 53 51 50 48 46 44 43 43 43 43 43 43 44 44 44 45 46 47 48 48
161 158 156 154 150 145 144 142 138 137 133 130 129 125 121 118 116 115 113 111 109 106 105 102 100 99 96 96 96 94 92 92 92 92 92 92 92 92 92 92 92 92 92 92 92 92 92 92 92 92 92 92 94 94 94 96 97 98 98 98 100 103 105 106 107 109 111 114 117 120 125 127 129 132 135 140 143 145 149 152 155 159 159 162 163 163 165 165 165 165 164 162 161 160 157 156 154 152 151 148 146 144 142 141 140 140 141 141 140 139 138 137 136 136 135 133 132 130 128 127 125 125 125 124 124 124 124 124 126 128 130 133 136 139 142 145 149 149 146 138 133 130 128 125 121 121 120 120 119 118 118 119 119 118 117 116 116 116 116 118 118 116 116 116 117 119 119 119 120 121 123 124 127 130 133 136 138 140 142 145 149 151 153 156 158 161 162 164 166 166 168 169 170 172 173 174 176 177 181 184 185 188 189 190 191 189 186 182 180 177 175 173 173 173 172 171 167 160 154 151 148 144 140 136 134 133 133 133 133 132 132 131 130 131 134 137 139 142 143 145 149 153 157 160 161 164 166 167 170 170 173 174 175 177 177 178 180 180 182 183 184 184 184 183 181 178 174 173 173 173 172 170 165 162 157 152 153 151 149 144 141 138 135 135 135 134 134 136 140 145 150 153 155 155 152 148 141 137 136 138 142 144 145 144 141 139 136 134 134 134 133 133 131 128 127 126 125 125 125 123 119 115 114 116 120 123 124 125 126 125 124 122 121 120 121 122 122 120 115 113 112 111 109 108 105 104 104 104 104 104 103 103 104 104 103 101 101 101 102 104 107 108 108 110 112 114 116 117 118 118 117 115 115 115 115 116 117 118 119 119 120 122 125 125 126 130 135 137 139 142 143 143 142 140 140 140 141 142 143 143 141 140 141 142 142 144 146 146 145 143 141 139 137 135 132 128 125 122 119 117 112 111 110 110 110 109 109 108 108 109 110 111 110 109 108 107 107 107 107 107 107 107 107 110 114 116 117 119 119 121 125 126 128 129 132 132 131 127 124 124 124 125 124 123 123 122 122 121 121 121 119 119 119 120 121 123 123 124 126 126 128 128 129 129 129 128 128 129 130 131 131 131 131 133 135 136 139 140 141 141 141 141 141 142 143 143 146 147 147 149 149 151 152 152 153 153 153 155 155 156 157 157 157 157 156 154 154 152 152 152 154 155 156 155 154 152 152 152 153 153 154 154 154 154 154 154 153 153 152 152 151 150 150 149 148 148 147 147 146 145 145 144 144 143 142 141 139 138 137 135 134 132 130 130 127 126 124 121 121 118 117 116 113 112 110 107 105 103 103 101 98 95 91 87 86 88 90 90 89 88 87 85 81 81 81 83 83 83 83 82 81 80 80 79 79 79 78 78 78 77 78 77 77 77 76 76 75 76 78 85 93 97 100 103 106 108 107 105 102 98 97 96 94 94 92 91 90 88 86 84 82 82 86 95 95 88 86 86 86 86 86 86 86 87 87 90 92 92 91 91 90 90 90 88 86 86 87 89 90 94 100 106 109 109 104 100 94 88 86 85 85 85 85 84 83 82 82 82 82 83 83 84 86 87 90 93 96 100 101 102 104 106 105 105 107 110 115 120 122 120 117 115 113 113 114 114 115 117 120 121 123 126 129 131 132 131 128 123 116 109 101 98 98 102 104 100 97 97 100 103 102 100 98 95 89 81 72 68 66 64 62 60 59 58 57 57 57 56 55 55 55 55 55 55 55 55 57 59 59 59 59 58 58 57 57 57 56 56 54 54 53 53 54 55 55 55 54 54 55 56 56 56 56 56 56 54 53 53 53 54 55 54 54 53 51 49 47 47 47 49 49 49 47 47 48 49 49 46 46 46 48 52 53 53 53 53 53 52 50 50 48 45 43 42 42 43 43 43 44 44 44 45 45 46 47 47
161 159 156 154 151 146 144 142 139 137 133 131 130 126 123 119 116 114 112 111 109 106 104 102 100 99 96 95 94 93 92 92 92 92 92 92 92 92 92 92 92 92 92 92 92 92 92 92 92 92 92 92 94 94 94 96 96 97 98 98 101 103 105 107 107 110 111 114 117 120 125 127 129 133 136 140 143 146 150 153 156 159 159 161 162 163 165 165 165 165 165 163 161 160 158 156 155 153 151 148 147 145 143 142 142 142 142 142 142 141 140 139 137 136 135 133 133 130 129 128 126 125 125 124 124 124 124 124 125 125 127 130 133 136 139 142 144 143 138 133 131 128 126 123 121 121 120 119 119 118 118 118 118 118 116 116 116 116 116 117 117 116 116 116 117 118 118 119 119 120 123 125 128 131 134 137 139 142 144 146 149 151 153 156 159 161 163 165 167 167 169 170 170 173 173 174 176 177 181 184 185 188 189 189 189 188 184 182 180 177 176 175 174 173 171 170 166 160 154 150 146 142 139 136 134 133 133 133 133 132 131 130 130 131 135 137 139 142 144 145 148 152 157 160 162 164 166 168 170 170 173 174 175 177 177 179 181 181 182 184 185 186 185 183 181 178 174 171 170 170 169 166 163 160 155 150 151 150 148 143 139 136 134 134 133 133 133 135 138 143 148 151 152 151 147 142 137 136 137 140 144 147 148 147 145 141 138 136 134 133 132 131 129 128 127 126 127 127 127 123 119 116 116 116 119 122 123 124 124 124 123 121 119 118 120 120 119 118 113 112 111 111 108 108 106 105 104 104 104 104 103 103 103 103 102 101 101 102 104 104 106 108 110 112 114 117 119 120 121 120 119 117 117 116 116 117 119 120 121 121 121 122 123 123 126 131 135 137 139 141 142 143 141 140 139 139 140 140 141 140 139 138 138 139 140 142 143 144 143 142 140 139 138 137 135 129 126 123 119 116 112 111 109 109 109 108 108 108 108 109 110 110 110 109 108 107 107 107 107 107 107 107 107 110 114 115 116 118 118 123 126 128 129 128 131 132 131 128 126 126 126 126 124 124 124 123 123 122 122 122 120 120 120 121 121 123 123 124 126 127 128 128 129 130 130 129 129 130 131 131 132 131 131 133 135 137 139 140 142 142 142 142 142 142 144 144 146 147 148 149 149 151 152 152 153 153 154 155 155 156 157 157 157 157 155 154 153 152 152 152 154 155 155 154 153 152 152 152 153 153 153 153 153 154 154 154 153 153 152 152 151 150 150 149 148 148 147 147 146 145 145 144 143 143 141 141 139 138 137 136 134 132 130 130 127 126 124 121 121 119 117 116 114 113 110 107 106 103 102 100 98 95 92 88 86 89 92 92 90 87 86 85 82 81 81 83 84 84 83 83 81 80 80 80 80 80 79 79 80 79 79 78 77 77 76 76 75 75 79 87 93 99 103 106 109 111 110 108 104 100 98 97 94 94 92 90 89 88 85 84 82 82 85 92 93 88 85 85 85 85 86 87 87 89 89 91 92 92 91 90 90 89 89 88 86 86 86 87 90 93 99 106 110 110 104 100 95 89 86 85 85 84 84 84 83 82 82 82 82 82 83 83 85 86 89 93 95 99 100 101 103 104 104 104 105 108 113 119 121 119 116 114 112 112 112 112 115 120 123 124 125 128 129 130 129 128 124 119 113 107 100 98 100 104 106 102 98 97 103 105 104 102 100 97 93 86 76 71 69 67 64 62 61 59 58 57 57 56 56 56 56 56 55 55 55 55 55 57 59 59 59 58 58 57 57 57 57 57 54 53 53 53 53 55 55 55 54 54 54 55 56 56 55 55 54 53 53 53 53 53 53 53 53 52 50 48 47 47 47 48 50 51 50 49 50 52 51 47 47 48 52 54 55 53 53 52 52 52 51 51 48 47 43 42 42 43 43 43 44 44 44 45 45 46 47 47
161 159 156 154 150 146 144 142 140 137 134 132 131 127 124 121 117 114 111 110 108 105 104 101 99 98 96 95 94 92 92 92 92 92 92 92 92 92 92 92 92 92 92 92 92 92 93 94 92 92 92 92 94 94 95 96 96 97 98 99 101 103 105 107 107 110 112 115 118 121 125 127 130 133 136 140 143 146 150 153 156 158 159 160 162 163 165 165 165 165 165 163 162 160 159 158 156 154 152 150 148 146 145 144 144 143 143 143 143 143 141 140 138 137 136 133 133 131 129 129 127 126 125 124 124 124 124 124 124 124 125 127 130 133 136 139 138 137 134 131 129 126 124 122 121 121 119 118 118 117 117 117 118 118 117 116 117 116 116 116 116 116 116 116 117 118 118 119 119 120 123 125 129 131 134 137 139 142 145 147 149 151 153 157 159 162 163 165 167 167 169 170 171 173 173 174 176 177 181 183 185 187 188 188 188 186 183 181 179 177 177 175 173 172 171 169 166 160 155 151 146 141 138 135 133 133 133 133 133 132 131 129 129 131 135 137 139 142 143 145 148 151 157 161 162 165 167 168 171 171 173 174 175 177 177 179 181 181 183 185 186 186 186 183 181 179 174 171 167 166 165 163 161 158 153 148 148 147 145 141 138 135 133 133 132 132 132 133 136 140 145 149 149 146 142 137 135 136 138 142 147 150 151 151 149 143 139 137 134 133 131 129 129 128 127 128 129 128 127 123 120 118 117 117 119 120 122 123 124 123 122 120 118 117 118 119 117 115 113 111 111 111 110 110 109 107 105 104 104 104 103 104 104 103 102 101 101 103 104 104 106 109 112 115 117 120 122 123 123 122 121 120 119 119 118 119 121 122 123 121 121 122 123 124 127 131 135 137 139 141 141 142 141 140 139 138 138 139 139 138 137 135 136 137 138 140 141 142 141 141 139 139 138 137 134 129 125 122 119 115 112 111 109 108 108 107 107 107 108 108 109 109 109 108 108 107 107 107 107 107 107 107 107 110 114 116 117 118 121 126 127 128 130 128 129 130 129 128 126 126 126 126 125 125 125 124 123 123 123 122 120 120 120 121 122 123 124 125 126 127 129 129 129 130 130 130 129 130 132 132 132 131 131 133 135 137 140 141 142 142 142 142 142 143 144 145 146 147 149 150 150 151 152 152 153 153 154 155 155 157 157 157 156 156 155 154 153 152 152 152 153 154 154 153 152 151 151 152 152 152 153 153 153 153 153 153 153 153 152 152 151 151 151 149 149 149 147 147 146 145 145 143 143 142 141 141 139 138 138 136 135 133 130 130 127 126 124 121 121 119 117 116 114 113 110 108 106 103 102 100 96 94 92 88 87 90 92 93 91 87 84 83 82 82 82 83 84 84 84 84 83 81 80 80 80 80 80 80 80 79 79 78 77 77 76 76 75 75 80 87 93 101 106 109 113 115 115 112 107 103 99 97 95 94 92 89 89 87 85 84 82 82 83 89 91 87 85 85 84 84 84 85 86 88 89 91 92 92 90 90 90 88 88 87 86 86 86 86 90 93 98 105 110 110 104 99 95 90 87 85 84 84 83 83 82 82 82 81 81 81 82 82 84 85 88 92 95 97 99 101 102 102 102 102 104 105 110 116 118 117 115 113 111 110 111 112 117 121 125 126 128 130 129 128 127 125 121 116 110 104 97 98 102 105 107 103 99 99 106 108 105 103 101 99 95 90 80 73 73 70 66 64 63 61 59 58 58 57 57 57 56 56 55 55 55 55 55 55 58 59 58 58 57 56 56 56 56 56 54 53 53 53 53 54 54 54 54 54 53 54 55 56 55 55 53 53 53 53 53 53 53 53 52 52 50 47 47 48 48 48 50 51 52 51 50 52 52 49 50 53 54 55 56 53 53 52 52 52 50 50 48 48 45 43 43 43 43 43 44 44 44 44 44 46 47 47
160 159 156 153 149 146 145 143 140 138 135 132 131 128 125 122 118 115 111 109 106 105 103 101 99 98 96 95 94 92 92 92 92 92 92 92 93 94 94 95 94 94 94 94 94 94 97 97 93 92 92 92 94 95 96 96 97 98 100 102 103 104 106 107 108 111 112 115 119 122 126 128 130 134 137 140 144 146 150 153 155 158 158 159 161 162 164 165 166 165 165 164 162 161 160 158 157 155 154 152 151 149 147 146 146 145 145 145 145 144 142 141 139 137 136 133 133 132 130 129 127 126 125 124 124 125 126 125 124 124 124 126 128 131 133 134 133 133 132 129 127 124 122 120 120 120 118 117 116 116 116 116 117 117 118 119 120 118 116 116 116 116 116 116 117 118 118 119 119 119 122 125 129 131 134 138 140 143 146 148 150 152 154 157 159 162 164 166 167 167 169 171 171 173 173 175 177 177 181 183 184 187 187 187 186 183 181 180 178 177 176 174 173 172 170 168 164 159 154 151 146 140 136 134 133 133 133 133 133 132 130 129 129 130 134 136 139 141 142 144 148 153 158 161 162 165 167 168 171 171 173 175 175 177 177 179 181 182 184 185 186 186 186 183 182 179 175 171 165 162 161 160 159 156 151 146 143 143 141 138 136 134 132 131 131 132 132 132 134 137 142 146 145 141 137 134 134 137 140 144 149 153 154 154 152 145 140 138 134 132 130 129 129 129 129 130 131 130 128 124 121 120 119 119 121 121 122 123 123 122 121 119 117 116 117 117 115 113 113 111 111 111 112 113 110 108 106 104 104 104 104 105 104 102 102 101 101 102 103 103 107 111 115 118 121 123 125 125 125 124 123 123 122 122 121 122 123 124 124 122 122 123 125 126 127 131 136 137 138 140 141 142 141 140 138 137 137 137 137 137 135 132 133 135 137 139 139 140 139 139 139 139 136 135 131 127 123 120 117 114 111 110 109 107 107 107 107 107 108 108 108 109 109 108 108 107 107 107 107 107 107 107 107 111 115 116 117 120 125 129 129 128 131 130 129 129 128 128 128 127 126 126 125 125 125 124 124 123 123 122 121 121 121 122 122 124 124 125 127 128 129 130 130 130 130 131 131 131 132 132 132 132 132 133 136 138 140 141 143 143 143 143 143 143 144 146 147 149 150 151 151 152 153 153 154 154 155 156 156 157 157 157 156 156 155 154 154 152 152 151 152 153 153 152 150 150 151 151 152 152 152 152 152 153 153 153 153 153 152 152 151 151 151 150 149 149 147 147 146 145 145 143 143 141 140 140 139 138 138 136 135 133 130 130 127 126 124 121 121 118 117 116 114 113 111 109 106 104 102 100 95 93 91 89 89 91 92 91 90 87 84 83 82 82 82 83 84 84 84 84 84 82 81 81 82 81 81 81 81 79 79 78 78 77 76 76 76 76 81 87 94 102 108 110 115 116 116 114 110 106 102 98 96 94 92 90 89 87 86 84 82 82 81 85 89 87 86 85 84 83 83 83 84 86 88 89 90 91 90 90 90 88 88 87 86 86 86 86 89 92 97 103 108 109 104 99 95 90 87 84 84 84 83 83 82 82 82 81 81 81 81 81 83 85 87 90 94 96 98 100 100 101 100 100 102 103 107 112 115 116 114 112 110 109 109 111 116 121 124 126 130 131 128 125 124 121 117 113 107 99 94 97 101 106 107 103 99 101 107 110 107 106 103 101 97 92 83 75 73 71 67 65 64 63 61 60 59 57 57 57 56 56 55 55 55 55 55 55 57 58 58 57 57 56 56 56 56 56 55 54 53 54 54 54 53 53 53 53 53 54 56 56 55 55 53 53 53 53 53 53 53 53 53 53 51 47 47 48 48 48 50 51 52 51 50 51 53 52 53 54 56 56 55 53 53 52 52 51 50 50 49 48 47 44 44 43 43 43 44 44 44 44 44 45 46 47
160 158 155 151 148 146 145 143 140 138 135 133 132 129 126 122 119 115 112 109 106 103 102 100 99 98 95 95 94 92 92 92 92 92 92 92 95 98 99 99 98 98 98 98 98 98 99 97 93 92 92 92 94 96 97 98 99 100 102 104 105 106 107 107 108 111 113 115 119 122 126 128 130 134 137 140 144 146 151 153 155 157 157 159 160 161 163 165 165 165 165 164 163 162 160 159 159 157 156 154 153 152 150 149 148 148 147 146 146 145 144 142 139 138 136 134 134 132 131 130 127 126 125 123 123 125 126 126 124 123 123 125 126 129 131 132 131 131 130 127 124 122 120 119 120 120 117 117 116 116 116 116 116 117 119 120 122 120 116 116 116 116 116 116 117 118 118 119 119 119 121 125 129 131 135 138 141 144 146 148 151 153 155 157 159 163 164 166 168 168 170 171 172 173 174 175 177 177 180 183 184 186 186 185 184 181 179 178 177 176 175 173 172 172 169 167 163 158 153 150 145 140 134 132 132 132 132 133 133 132 129 128 129 130 133 135 137 139 142 145 150 155 159 161 162 165 167 168 171 171 173 175 175 177 177 179 181 182 184 186 186 186 186 183 182 180 175 171 165 160 159 158 157 154 150 145 140 138 138 136 135 133 131 131 131 132 132 132 132 135 139 142 141 137 133 132 134 137 141 146 151 154 155 154 150 145 139 137 134 130 129 129 129 129 131 132 133 132 130 125 122 122 121 121 122 123 123 123 123 121 120 118 116 116 116 116 114 113 113 112 112 113 113 113 110 108 106 104 104 104 105 105 104 102 102 101 101 102 103 103 106 111 117 120 123 126 127 127 127 126 125 125 125 124 124 124 125 126 126 124 123 125 127 127 127 131 135 137 138 140 140 141 141 140 137 136 135 135 135 135 133 130 130 133 137 138 138 139 138 138 139 139 136 133 128 123 119 117 115 112 110 110 109 107 107 107 107 107 107 107 108 109 109 108 108 107 107 107 107 107 107 107 109 113 115 115 119 122 127 131 129 128 131 131 130 130 129 128 128 127 126 126 125 125 125 124 124 123 123 122 122 122 122 122 122 124 124 126 127 128 130 130 131 131 131 131 131 131 132 132 132 132 132 134 136 138 141 142 143 144 144 144 144 144 145 146 148 150 150 151 152 153 153 153 154 154 155 156 156 157 157 157 156 156 155 154 154 151 151 151 151 152 152 150 149 150 150 151 151 151 151 151 151 152 152 152 152 152 152 152 151 151 151 150 150 150 148 148 146 145 145 143 143 141 139 139 139 138 138 135 135 133 130 130 127 126 124 121 121 118 117 116 114 113 112 110 108 104 101 99 95 93 89 88 88 89 90 89 87 85 84 83 83 83 83 83 84 84 85 84 84 82 82 83 83 82 82 82 81 80 80 78 78 77 76 76 76 77 82 89 94 102 108 110 115 116 116 114 112 109 105 101 98 95 94 92 90 89 87 86 83 82 81 84 87 87 86 86 84 83 83 83 83 85 86 88 89 90 90 90 89 88 88 87 86 86 86 86 88 91 96 101 105 106 102 98 94 90 87 84 83 83 83 83 82 82 82 81 81 81 81 81 82 83 86 89 92 95 97 98 99 99 99 100 100 101 104 109 113 114 112 111 110 108 108 109 114 119 123 126 128 128 125 122 120 117 113 108 102 94 92 96 101 106 108 104 101 102 108 110 109 108 104 101 97 92 85 76 74 73 70 68 66 64 63 61 60 57 57 57 56 56 55 55 55 55 55 55 56 56 57 57 57 56 55 55 55 56 55 55 54 53 53 53 53 53 53 53 53 55 56 55 54 54 53 53 53 53 53 54 54 53 53 53 51 48 48 48 48 49 50 50 50 50 50 50 53 54 54 54 56 56 55 53 53 52 52 51 50 49 49 48 48 46 44 43 43 43 44 44 44 44 44 45 46 46
159 158 154 150 148 147 146 144 141 139 136 134 133 129 127 123 120 116 113 110 107 104 102 100 98 97 95 94 93 92 92 92 92 92 92 92 96 99 99 99 99 99 99 99 99 99 99 97 93 92 92 93 95 98 99 100 101 102 103 105 106 108 108 108 109 111 114 116 120 123 126 128 131 134 137 140 144 146 151 153 155 156 157 158 159 161 162 164 165 165 166 165 163 162 161 160 160 159 158 157 156 155 154 152 152 151 150 149 149 146 145 142 140 138 137 135 134 132 131 130 128 127 125 123 123 125 126 126 125 123 123 123 125 128 130 130 130 130 127 124 122 120 118 118 119 119 117 116 116 116 116 116 116 117 119 121 122 121 117 116 116 116 116 116 117 118 118 119 119 119 120 125 129 131 135 139 142 145 147 149 152 154 155 158 160 163 165 166 168 168 170 171 172 174 174 175 177 177 180 182 183 184 184 183 182 179 178 176 175 175 174 172 171 171 169 165 160 155 151 148 144 139 133 131 131 132 132 132 132 131 128 128 128 130 132 134 136 139 143 148 152 157 160 161 163 165 167 168 171 171 173 175 175 177 177 179 181 182 185 186 186 186 186 184 182 180 175 171 166 159 157 156 155 152 149 144 139 136 135 134 133 132 131 131 131 131 131 131 131 132 136 137 136 134 131 132 135 138 143 147 151 153 153 150 146 142 137 134 132 130 129 129 129 130 133 134 135 134 131 126 124 124 122 123 124 124 124 123 122 120 119 117 116 115 116 115 114 113 113 113 113 113 113 111 109 108 106 104 104 104 106 106 104 102 102 102 102 102 103 104 106 112 118 122 125 128 128 129 129 128 128 128 128 127 127 126 126 128 128 127 126 127 128 128 128 131 134 136 138 139 140 140 141 140 137 136 135 133 132 132 130 128 128 133 136 137 138 138 137 137 138 138 136 133 128 121 118 114 113 112 110 109 108 107 107 107 107 107 107 107 107 108 108 107 107 107 107 107 107 107 108 109 111 113 116 116 118 121 126 130 129 128 131 132 131 131 129 128 128 127 126 126 125 125 125 124 124 123 123 122 122 122 122 122 123 124 125 126 128 129 130 131 132 132 131 131 131 131 132 132 133 132 133 134 136 138 141 142 144 144 144 144 144 144 146 147 149 150 151 152 152 153 154 154 155 155 155 156 156 157 157 157 156 155 154 153 153 151 151 150 150 151 151 149 149 150 150 151 151 151 150 150 150 151 151 152 151 151 151 151 151 150 150 149 149 149 148 148 147 145 145 143 143 141 139 139 138 138 137 135 135 133 130 130 127 126 124 121 121 118 117 116 114 113 112 110 109 104 101 98 95 92 89 87 86 86 88 87 85 83 83 83 83 83 83 83 84 85 85 84 84 82 82 83 83 83 82 82 82 81 80 79 78 77 75 75 75 77 82 89 94 102 108 111 115 115 116 114 113 111 108 105 101 98 97 94 92 90 89 87 85 82 80 83 85 87 87 87 85 83 83 83 83 85 85 87 88 90 89 89 89 88 88 87 86 86 86 86 87 90 93 98 101 102 100 97 94 89 86 83 83 83 82 82 82 81 81 81 81 80 80 80 81 82 84 87 90 93 96 97 98 98 98 99 99 99 101 106 110 112 111 111 109 108 107 107 112 117 121 123 125 125 122 119 116 114 109 103 97 91 91 95 100 106 110 106 101 102 108 110 108 107 104 101 96 93 86 79 77 76 75 72 69 67 65 64 61 59 57 56 56 56 55 54 54 54 54 55 56 56 57 57 57 56 55 54 54 55 55 54 53 52 52 52 52 52 52 52 54 56 56 55 54 53 53 53 53 53 53 54 54 54 54 54 51 49 48 48 49 49 50 50 49 49 50 50 52 54 55 55 56 56 55 53 53 52 52 51 49 48 48 48 48 47 45 44 44 44 44 44 44 44 44 44 45 46
159 158 153 150 149 147 147 145 143 140 138 134 133 130 127 124 121 117 114 111 108 104 102 99 97 96 94 94 93 92 92 92 92 92 92 92 96 99 99 100 100 100 100 100 100 100 100 97 93 92 92 94 98 100 100 101 103 105 105 106 108 109 110 110 110 112 114 117 121 124 127 129 131 135 137 140 144 146 150 152 154 155 156 158 159 160 161 162 163 165 166 166 164 163 162 162 162 162 161 160 160 160 159 158 158 156 154 152 152 149 147 144 141 140 138 136 135 133 131 130 128 127 125 123 123 125 126 127 125 124 122 122 124 126 127 128 128 128 125 121 120 118 118 118 118 118 116 116 116 116 116 116 116 118 119 121 122 121 117 116 116 116 116 116 117 118 118 119 119 119 120 124 129 132 136 140 143 145 147 150 153 154 156 159 161 164 165 167 169 169 171 172 173 174 174 175 177 177 179 180 181 182 182 181 180 177 175 174 174 173 172 171 171 170 168 164 157 151 147 145 142 138 133 130 130 132 133 133 132 130 128 127 128 129 131 133 135 140 145 150 154 158 160 162 163 166 168 169 171 171 173 175 175 177 177 179 181 182 185 187 187 187 187 184 182 179 174 170 165 159 155 153 152 149 146 142 138 134 133 132 131 131 131 131 131 131 131 131 131 131 132 132 132 131 131 133 135 140 144 147 148 149 147 144 141 137 133 132 130 130 130 130 130 131 134 136 137 136 131 126 126 126 124 125 126 126 125 123 122 119 118 116 115 115 115 115 114 114 114 115 114 112 110 109 108 107 105 104 104 104 106 104 102 102 102 103 103 103 105 107 109 114 118 124 126 129 130 131 131 130 130 130 130 130 130 129 129 130 130 130 129 128 129 130 130 131 134 135 136 137 138 139 140 140 137 136 134 131 129 128 126 125 126 130 133 135 137 136 135 135 136 137 135 133 128 121 117 114 112 112 110 109 108 107 107 107 107 107 107 107 107 108 108 107 107 107 107 107 108 109 109 111 112 115 117 117 118 120 123 127 128 130 131 132 131 131 129 128 128 127 126 126 126 126 125 125 125 123 123 122 122 122 123 123 124 125 126 127 129 130 132 132 132 132 132 132 132 132 133 133 133 133 133 134 136 138 141 142 144 145 145 145 145 145 146 148 150 151 151 152 152 154 154 154 155 155 155 157 157 157 157 157 155 155 154 153 153 151 151 150 150 150 149 149 149 149 150 150 150 150 150 150 150 150 150 150 150 150 150 150 150 149 149 149 149 149 148 148 147 145 145 143 143 141 139 139 137 137 136 135 134 133 130 130 127 126 124 121 121 118 117 116 114 113 111 110 108 104 101 98 94 92 88 86 86 85 86 86 83 83 83 83 83 83 83 83 84 85 83 83 85 83 83 83 84 84 84 84 83 82 81 80 78 77 75 75 75 78 82 88 94 100 108 111 115 115 116 114 114 112 110 108 105 103 100 97 95 93 91 89 86 83 80 81 83 85 87 87 85 83 82 83 83 85 85 85 87 88 89 89 88 88 88 87 86 86 86 86 86 88 90 93 96 97 98 97 93 88 85 83 83 83 82 82 81 81 81 81 81 80 80 80 81 81 82 85 88 91 93 95 96 96 97 97 97 97 99 103 107 109 109 109 109 107 105 108 110 113 115 117 120 120 118 115 111 109 104 97 92 89 90 94 99 106 110 108 103 104 108 109 106 105 103 101 97 94 88 83 81 81 79 76 73 71 68 67 64 62 58 56 55 55 55 54 54 54 54 54 56 56 57 57 57 55 54 53 53 53 53 53 52 51 51 51 51 51 51 52 54 55 55 54 53 53 53 53 53 53 53 54 54 54 53 53 51 49 49 50 50 50 50 50 49 49 50 50 51 54 55 55 56 56 55 53 53 52 52 51 49 48 48 48 48 47 46 45 44 44 44 44 44 44 44 44 44 44
159 158 154 151 149 147 147 146 143 141 139 135 133 130 128 125 122 118 115 112 109 105 103 100 97 96 94 93 92 92 92 92 92 92 92 92 96 98 98 100 100 100 100 100 100 99 99 97 93 92 92 95 100 101 101 103 105 107 107 108 109 110 111 112 112 113 115 118 122 125 128 130 132 135 138 141 144 146 150 152 154 155 155 158 159 159 161 161 163 165 165 166 166 165 164 164 165 165 165 166 166 167 167 166 165 162 160 157 155 153 150 146 143 140 138 137 135 133 132 131 129 128 126 123 123 124 126 126 125 125 123 122 122 124 125 126 127 125 122 119 119 118 117 117 116 116 116 116 116 116 116 116 117 120 121 121 121 120 117 116 116 116 116 116 117 117 117 118 118 119 120 125 129 133 137 140 143 146 148 151 153 154 157 159 162 165 166 167 169 169 171 172 173 175 175 175 177 177 178 179 179 180 180 179 177 174 172 171 171 171 170 169 169 168 166 163 157 151 146 143 139 136 132 129 129 131 133 133 131 129 126 126 128 129 131 134 137 142 147 151 155 158 161 163 164 166 168 169 171 171 173 175 175 176 177 179 181 182 185 187 187 186 186 184 181 178 174 169 164 159 154 150 148 146 143 141 137 133 131 131 131 131 131 131 131 131 131 131 131 131 131 131 131 131 131 133 135 139 142 144 144 143 141 138 136 133 131 131 130 130 130 130 130 131 135 136 137 134 130 127 128 127 127 127 128 128 127 126 123 121 118 116 114 114 114 114 115 115 116 115 112 110 108 107 106 105 104 104 104 104 104 103 102 102 102 104 105 105 109 115 118 119 120 124 126 129 131 132 133 133 133 133 133 133 132 132 132 132 133 133 132 131 130 131 132 132 133 134 135 137 137 139 139 139 137 135 134 130 127 125 123 122 123 127 130 132 134 134 134 133 134 134 133 131 127 121 117 115 113 112 110 109 107 107 107 107 107 107 107 107 107 107 107 107 107 107 107 107 108 109 109 111 114 118 120 120 119 120 121 125 130 132 132 132 131 131 129 128 128 127 127 126 126 126 125 125 125 123 123 122 122 122 123 123 125 126 126 128 130 131 133 133 133 133 132 132 132 133 134 134 134 134 134 134 136 138 141 142 144 145 145 146 145 145 146 148 150 151 152 153 153 154 154 154 155 155 155 157 157 156 156 156 155 154 153 153 152 151 150 149 149 149 148 148 148 148 149 149 150 149 149 149 149 149 149 149 149 149 149 149 149 149 149 148 148 148 148 148 147 146 145 144 143 141 139 138 137 136 136 134 134 132 130 130 127 126 124 121 120 118 117 116 114 112 110 109 107 104 100 98 94 92 88 87 87 87 87 85 84 83 83 82 82 82 82 82 84 86 83 82 85 83 83 83 84 84 84 84 84 83 82 81 79 77 75 75 75 77 81 86 93 100 107 111 116 116 116 115 114 113 112 110 108 106 104 100 97 95 92 90 86 83 79 79 81 82 85 86 84 82 81 82 83 84 84 85 85 88 89 88 88 87 87 86 86 86 86 86 86 88 88 90 93 95 96 96 94 89 85 83 83 83 81 81 81 81 81 81 81 80 80 80 81 81 81 83 86 89 91 93 93 94 95 96 96 95 96 99 104 106 107 107 108 106 104 108 110 110 110 113 116 116 115 112 107 104 99 92 89 88 90 94 99 106 109 108 104 105 108 107 104 103 102 101 98 95 90 86 85 84 83 80 76 74 73 72 68 65 61 58 56 55 54 54 54 54 54 54 55 56 56 56 56 54 54 53 52 53 53 52 51 51 51 51 51 51 51 51 52 52 53 52 52 52 53 53 53 53 53 53 53 54 53 53 51 50 50 50 50 50 50 50 49 49 50 50 51 54 55 55 56 56 56 53 52 51 51 50 48 48 47 48 48 47 47 46 45 44 44 44 44 44 44 44 44 44
159 158 154 151 149 147 147 146 143 142 139 135 134 131 128 125 122 119 115 113 110 106 103 100 97 96 94 93 92 92 92 92 92 92 92 93 96 98 98 100 100 100 100 100 100 99 99 96 94 93 93 96 100 101 102 105 106 108 109 110 111 112 113 114 115 115 116 118 122 125 129 130 133 136 139 141 144 146 150 151 153 155 155 158 159 159 161 162 163 165 165 167 167 166 166 167 169 170 171 172 173 173 173 172 171 169 166 162 159 155 152 148 145 141 139 137 136 133 132 131 129 128 126 123 123 123 125 126 125 124 123 121 121 122 123 126 126 123 120 119 118 117 117 116 116 116 116 116 116 116 116 118 119 120 121 121 120 120 117 116 116 116 116 116 116 116 116 116 118 120 122 126 130 133 137 141 143 147 149 152 154 155 158 160 163 165 166 168 170 170 171 173 173 175 175 176 177 177 176 177 177 178 178 177 175 172 170 169 169 169 168 166 165 165 163 160 156 151 146 142 137 133 131 128 127 129 130 131 130 128 126 126 127 129 132 136 139 143 148 152 156 159 161 163 165 167 168 169 171 171 173 174 174 176 177 178 180 182 185 187 187 186 185 183 180 176 172 168 163 158 153 148 146 144 141 139 135 132 131 130 130 130 131 131 131 131 131 131 131 131 131 131 131 131 131 133 135 138 139 140 140 138 137 133 131 131 131 131 130 130 131 131 131 133 135 136 134 131 129 129 129 129 129 129 130 130 130 129 126 123 120 117 115 114 114 114 116 116 115 112 110 108 106 105 104 104 104 104 104 103 103 103 103 103 103 107 110 111 118 123 126 125 125 125 127 130 133 133 135 135 135 135 135 135 134 135 135 135 135 135 134 133 132 133 133 133 133 133 134 136 137 138 139 139 136 135 133 129 126 123 119 117 118 123 126 129 131 132 132 131 132 132 131 129 125 121 120 117 114 112 111 109 107 107 107 107 107 107 107 107 107 107 107 107 107 107 107 107 108 109 109 112 116 121 124 124 123 123 123 125 129 133 133 132 133 132 130 129 129 128 127 127 127 127 125 124 124 123 123 122 122 122 124 125 125 127 127 128 131 132 133 134 134 134 133 133 134 134 134 135 135 134 134 135 137 139 141 142 144 145 145 147 147 147 147 149 151 152 152 153 153 154 155 155 156 156 156 157 157 156 156 156 154 153 153 152 152 150 150 149 148 148 147 147 147 147 148 149 149 149 148 148 148 148 148 148 148 148 148 148 148 148 148 148 148 148 148 148 147 146 145 144 143 141 139 138 136 136 135 134 133 132 130 130 127 126 124 121 120 118 117 115 113 111 109 108 106 104 99 97 94 91 88 88 90 90 90 88 86 84 83 82 82 82 82 82 84 86 83 82 83 83 83 83 83 83 84 84 84 84 83 82 80 77 76 76 76 77 79 84 91 100 107 110 116 116 116 115 115 113 112 111 109 108 106 102 98 95 92 89 85 83 79 78 79 80 83 86 84 82 80 81 81 83 83 84 84 86 88 88 88 87 87 86 86 86 86 86 86 88 88 90 91 93 95 96 94 91 87 84 83 82 81 81 81 81 81 80 80 81 81 81 81 81 80 81 84 87 89 91 91 92 93 94 94 93 94 96 99 102 103 104 105 104 104 107 109 108 109 112 115 114 111 108 104 99 95 91 87 86 89 93 97 104 108 106 103 105 108 106 103 102 101 101 98 96 93 90 90 88 85 82 79 78 78 76 73 69 64 60 57 55 54 53 53 53 53 53 54 55 55 55 55 54 53 52 52 52 52 52 51 51 51 51 51 51 50 50 50 50 51 51 52 52 53 53 52 52 52 53 53 54 53 53 51 51 51 51 51 50 50 50 49 49 49 50 51 54 55 55 56 56 55 53 52 50 50 49 48 48 47 48 48 47 47 46 45 45 45 45 45 44 44 44 44 44
159 158 154 152 150 148 147 146 143 141 138 135 134 131 129 125 123 120 115 113 110 106 103 100 97 96 94 94 92 92 92 92 92 92 93 94 96 97 98 99 100 100 100 100 100 99 98 96 94 93 94 96 99 101 104 106 108 110 111 112 113 113 115 116 117 118 119 119 122 126 130 131 134 137 139 141 145 146 149 151 152 154 155 157 159 159 161 162 163 165 165 167 167 168 169 171 173 175 176 178 179 179 179 178 176 174 171 167 163 158 154 151 146 143 140 138 136 134 132 131 129 128 126 123 122 122 123 125 125 123 122 121 120 120 123 124 124 121 118 118 118 117 116 116 116 116 116 116 116 117 118 120 121 121 121 121 121 120 118 116 116 116 116 116 116 116 116 116 117 121 123 127 130 134 138 141 144 147 150 152 155 156 159 162 163 165 167 168 170 170 172 173 174 175 175 176 176 176 176 176 176 176 176 175 173 171 168 167 167 167 166 164 161 161 160 157 155 150 145 142 136 131 129 126 126 127 128 128 128 126 125 125 127 130 134 137 140 144 148 153 157 159 162 164 165 167 168 169 171 171 173 174 174 176 176 178 180 182 184 186 186 185 183 180 177 175 171 167 162 157 152 146 143 141 139 137 134 130 130 130 130 130 130 130 131 131 131 131 131 131 131 131 131 131 131 132 134 136 136 137 136 134 133 130 130 131 131 131 131 131 131 131 131 132 134 133 130 130 130 130 130 130 130 130 132 133 133 132 129 125 121 118 115 114 113 114 116 116 113 110 108 106 104 104 104 104 104 103 103 103 103 103 103 104 104 112 118 120 127 131 132 131 131 131 132 132 133 134 136 136 136 136 136 136 136 137 138 138 138 137 135 135 135 135 134 134 133 133 134 135 136 137 138 138 136 134 132 129 126 121 117 116 116 119 123 126 128 129 130 130 130 131 130 128 125 124 124 119 115 113 111 110 108 107 107 107 107 107 107 107 107 107 107 107 107 107 107 107 109 110 110 112 117 121 125 126 125 126 126 126 126 130 132 132 133 132 130 130 130 128 127 127 127 127 125 124 124 123 123 122 122 123 125 125 126 127 127 129 131 134 135 135 135 135 134 134 134 134 135 135 135 134 134 135 137 139 141 142 144 145 146 147 148 148 148 150 151 153 153 154 154 154 155 155 156 156 156 157 157 156 156 156 154 153 152 152 151 150 150 149 147 147 147 146 146 147 148 148 148 148 148 147 147 147 147 147 147 147 147 147 147 147 147 147 147 147 147 147 147 146 146 144 143 141 138 138 136 135 135 133 133 132 130 130 127 126 124 121 120 118 116 115 112 110 108 107 104 102 97 95 92 91 90 91 92 92 92 90 88 85 83 83 83 82 82 82 85 86 84 83 83 82 82 83 83 83 84 84 84 85 85 83 81 77 76 76 76 77 79 83 89 98 106 110 115 116 117 115 115 114 113 112 109 108 107 103 98 94 91 87 84 82 79 78 78 80 83 86 84 81 80 80 80 82 83 83 84 85 87 87 87 86 86 86 86 86 86 86 87 88 88 89 90 92 94 95 94 92 88 85 83 82 81 81 81 80 80 80 80 80 81 81 81 81 80 80 82 85 87 89 89 90 91 93 92 92 92 94 95 97 99 101 101 100 103 106 108 108 109 114 115 111 108 105 101 96 93 90 86 86 90 92 94 101 105 105 102 104 108 107 103 101 100 100 98 96 95 93 93 91 87 83 80 80 81 79 76 73 68 62 58 56 55 53 53 53 53 53 53 54 54 54 54 53 52 51 51 51 51 51 51 50 50 50 50 50 50 50 50 50 50 51 52 53 53 53 52 52 52 53 53 54 53 53 52 51 51 51 51 51 49 49 49 49 49 50 51 53 54 54 55 55 54 53 51 50 49 48 47 47 47 48 48 47 47 47 46 46 45 45 45 44 44 44 44 44
158 157 154 152 150 149 148 146 143 141 137 134 134 130 129 125 123 121 116 114 110 105 102 99 97 96 94 94 93 92 92 92 92 92 92 94 96 97 97 99 100 100 101 101 100 99 98 94 94 94 95 96 99 101 104 107 109 111 113 114 115 116 117 118 119 120 121 121 123 126 130 132 134 138 140 142 145 146 149 150 151 154 155 157 158 159 161 162 163 165 165 167 169 172 174 176 178 180 181 182 183 183 183 182 181 179 175 171 167 162 156 153 148 145 141 138 137 134 132 131 129 128 126 123 122 122 122 123 123 122 122 120 119 119 121 123 122 120 118 118 118 117 116 116 116 116 116 116 117 119 120 121 121 121 121 121 120 120 118 116 116 116 116 116 116 116 116 116 118 122 125 128 132 135 139 142 145 149 151 153 155 157 160 163 164 166 167 168 171 171 173 174 174 175 175 176 176 176 175 174 174 175 174 173 171 170 166 165 165 164 163 161 158 158 157 155 153 149 144 141 136 131 127 125 126 126 126 126 126 125 125 125 127 130 135 138 140 144 150 153 157 159 162 165 165 167 169 169 171 171 173 174 174 176 176 177 179 181 184 185 184 182 180 178 175 173 169 166 161 156 150 144 141 139 137 135 132 130 130 130 130 130 130 130 131 131 131 131 131 131 131 131 131 131 131 131 133 134 134 135 134 133 132 131 131 131 131 131 132 132 131 131 131 132 132 131 130 130 130 131 132 133 133 133 134 135 135 135 132 128 124 120 116 114 113 114 115 114 111 109 107 105 104 104 104 104 104 103 103 103 103 103 103 103 107 118 126 130 135 139 139 139 137 138 137 136 136 136 137 138 138 138 138 137 137 139 140 140 140 139 138 137 137 137 136 135 134 134 134 134 135 136 137 137 135 132 131 128 125 121 116 116 116 117 120 124 125 127 128 129 129 129 129 127 127 127 125 120 115 113 111 110 109 107 107 107 107 107 107 107 107 107 107 107 107 107 108 108 109 110 110 114 118 121 125 126 127 128 129 128 128 128 128 130 132 132 130 131 131 129 128 128 127 127 125 124 124 123 123 123 123 124 126 126 126 127 127 129 132 135 136 137 137 136 135 135 134 134 135 135 136 136 135 135 138 139 141 142 144 145 146 148 148 149 150 151 152 153 153 154 154 155 155 155 156 156 156 157 157 156 156 156 154 153 152 151 151 150 150 149 146 146 146 146 145 146 147 147 147 147 147 146 146 146 146 146 146 146 146 146 146 146 146 146 146 146 146 146 146 146 146 143 142 141 139 139 136 134 134 133 132 131 129 129 127 125 123 121 119 117 116 114 111 109 107 105 101 99 96 95 93 93 93 93 93 93 92 90 88 86 83 83 83 82 82 82 86 87 86 84 83 82 82 83 83 83 84 84 84 85 85 83 81 77 76 76 76 76 78 82 89 97 103 107 112 116 118 116 116 114 113 111 109 108 106 102 97 93 89 85 83 81 78 77 77 80 83 84 83 80 80 80 80 81 82 83 83 84 85 85 86 86 86 86 86 86 87 87 87 88 88 89 90 92 93 94 94 92 89 85 84 83 82 81 81 80 80 80 80 80 80 80 81 81 80 80 81 83 85 87 87 88 90 91 91 90 90 92 93 95 96 97 97 98 100 103 106 108 111 114 114 108 105 101 97 93 91 89 86 87 90 90 91 98 102 104 102 103 108 107 103 101 98 97 96 95 95 95 95 93 88 84 79 78 78 78 77 75 70 64 59 58 56 53 53 52 52 52 52 52 53 53 53 52 52 51 51 51 51 51 51 50 50 50 50 50 50 50 50 50 50 51 52 53 53 53 52 52 52 53 53 53 53 53 52 52 52 51 51 50 49 49 48 48 49 49 49 50 52 53 54 54 53 52 51 49 49 48 47 47 47 48 48 47 47 46 45 45 45 45 45 45 45 44 44 44
158 157 154 152 151 149 148 146 143 141 137 134 134 130 129 125 123 121 116 114 110 105 101 98 97 96 95 95 93 92 92 92 92 92 92 92 95 97 97 98 99 100 101 101 101 100 98 94 94 94 95 96 99 102 105 108 109 113 114 116 117 118 119 120 121 122 124 124 124 126 131 132 135 138 140 142 145 146 149 150 151 153 154 156 158 159 160 161 162 164 165 168 172 174 177 179 182 183 185 185 186 187 187 186 185 183 179 175 171 165 159 154 150 145 142 139 137 134 132 131 129 127 126 123 122 122 122 122 122 121 121 119 119 119 119 121 121 119 118 118 117 116 116 116 116 116 116 116 119 121 121 121 121 121 120 120 120 119 117 116 116 116 116 116 116 116 116 117 119 122 126 129 132 136 140 143 146 149 152 154 156 158 161 164 165 166 168 169 171 171 173 174 174 175 175 176 175 175 174 173 173 173 172 171 169 168 165 163 162 161 160 158 156 155 154 152 150 147 143 141 135 130 125 125 125 125 125 126 125 125 125 125 127 130 135 138 140 144 149 153 156 159 162 165 165 167 169 169 171 171 173 174 174 175 175 176 178 181 183 183 182 180 178 176 173 171 168 164 159 155 149 143 139 138 135 133 130 129 129 130 130 130 130 130 131 131 131 131 131 131 131 131 131 131 131 131 132 133 133 133 133 133 132 132 132 131 134 134 135 135 133 132 132 131 131 131 130 130 131 133 135 136 136 136 136 137 137 137 135 131 127 122 118 114 112 113 113 112 110 107 105 104 104 104 104 103 103 103 103 103 103 103 103 103 111 124 133 137 140 144 145 145 145 144 142 141 140 140 139 139 139 139 139 139 139 140 141 141 142 141 140 140 139 138 137 136 135 134 134 134 134 135 136 136 134 131 129 127 123 119 116 116 116 116 118 122 123 125 127 127 128 128 128 127 127 126 123 119 115 114 112 111 109 107 107 107 107 107 107 107 107 107 107 107 107 108 109 109 110 110 111 114 118 121 125 126 128 129 130 130 130 129 128 129 131 132 131 131 131 129 128 128 127 127 125 124 124 123 123 123 123 124 125 126 126 127 127 129 133 135 138 138 138 137 136 136 135 135 136 136 137 137 135 136 138 139 141 142 144 146 146 148 148 149 151 152 152 153 153 154 154 155 155 155 156 156 156 157 157 157 156 156 155 153 152 151 151 150 149 149 146 146 145 145 144 145 146 146 147 147 147 146 145 145 145 145 145 145 145 145 145 145 145 145 145 145 145 145 145 146 145 143 142 141 139 138 136 133 133 132 131 130 129 128 126 124 122 120 117 116 115 113 111 109 106 103 101 100 98 98 96 95 94 94 94 92 91 89 87 86 84 83 83 83 82 83 85 87 88 86 84 82 82 83 83 83 83 83 83 85 85 83 80 77 76 76 76 76 77 82 87 94 99 104 110 116 118 117 116 113 112 111 108 107 104 100 95 90 88 84 82 80 77 77 77 79 81 83 83 79 79 80 80 81 82 83 83 83 83 83 85 86 85 85 85 85 87 87 87 87 87 88 89 91 93 94 94 92 90 86 84 83 82 82 81 81 81 80 80 80 80 80 80 80 79 79 80 82 83 84 85 86 89 90 89 88 89 90 92 93 93 94 95 96 98 103 107 110 111 112 110 105 101 98 94 91 89 87 85 86 89 88 87 93 100 102 101 102 105 106 103 101 97 94 93 92 93 94 96 94 89 84 79 77 76 75 75 74 71 66 61 59 56 53 53 52 52 52 51 52 52 52 52 51 51 51 51 51 50 50 50 50 50 50 50 50 50 50 50 50 50 50 51 52 52 52 51 51 51 52 52 53 53 53 52 52 52 51 51 50 49 48 48 48 48 48 45 45 47 49 50 50 50 49 50 49 48 47 46 46 47 47 47 46 46 45 45 45 45 45 45 45 45 45 45 45
157 156 154 153 151 149 148 146 143 141 137 134 134 130 129 125 123 121 116 113 109 105 100 98 96 96 95 95 94 93 92 92 92 92 92 92 95 97 97 98 99 100 102 102 102 101 99 95 94 94 95 96 99 102 105 108 110 113 115 117 119 120 121 122 123 124 126 126 126 127 131 133 135 139 141 143 145 146 148 149 151 152 154 155 157 158 159 160 162 164 166 170 174 176 179 181 184 186 188 189 189 190 189 188 187 185 181 177 173 168 161 156 152 147 143 139 137 134 132 131 128 127 125 123 122 122 122 121 121 121 120 119 119 119 119 119 119 119 117 117 116 116 116 116 116 116 116 118 120 121 122 121 121 121 120 119 118 118 117 116 116 116 116 116 116 116 116 118 120 123 128 130 133 137 140 144 146 150 152 154 157 159 162 164 165 167 168 169 171 171 173 174 174 175 175 175 174 174 173 172 171 170 169 169 168 166 164 161 159 158 157 156 155 153 150 149 147 145 141 139 135 130 125 125 125 125 125 124 124 124 124 124 126 130 134 138 140 143 147 151 155 158 161 163 165 167 168 169 171 171 173 174 174 175 175 176 177 179 181 181 180 178 176 174 172 170 166 162 157 153 148 142 138 136 134 131 129 129 129 130 130 130 130 130 131 131 131 131 131 131 131 131 131 131 131 131 131 132 133 133 133 133 132 132 132 133 136 137 138 138 136 134 132 131 131 131 131 131 131 135 137 138 140 140 139 139 139 139 137 134 129 125 120 115 111 111 111 111 109 107 104 104 104 104 104 103 103 103 103 103 104 104 104 105 115 129 137 140 144 147 148 149 149 149 147 145 145 143 142 141 140 140 141 141 141 141 142 143 143 143 142 141 141 140 139 138 136 135 134 134 134 134 134 134 132 130 128 125 120 117 116 116 116 116 116 120 122 124 125 125 126 126 126 126 125 123 120 118 115 114 112 111 109 107 107 107 107 107 107 107 107 108 108 108 108 109 110 111 112 111 112 114 117 121 125 127 128 130 131 132 132 131 130 130 130 131 131 131 131 130 128 128 128 128 126 124 124 123 123 123 123 123 125 125 125 126 127 129 132 135 139 139 139 138 138 137 137 136 137 137 137 137 136 136 139 139 142 142 144 146 146 148 148 149 152 152 153 153 153 154 154 155 155 155 156 156 156 157 157 157 157 157 155 154 153 151 151 149 149 149 146 145 143 143 142 144 144 145 146 146 146 145 144 143 143 144 144 144 144 144 143 143 143 144 143 143 143 143 144 144 144 143 142 141 139 138 135 132 131 130 130 129 128 127 125 123 121 118 116 115 114 112 110 108 106 103 104 105 103 101 99 97 95 95 94 92 90 88 86 86 85 84 84 83 83 82 84 87 89 85 83 83 83 83 83 83 83 83 83 85 84 83 79 76 76 76 76 76 77 81 84 90 94 100 107 113 117 117 115 113 112 111 107 105 102 97 93 88 86 83 81 79 76 76 76 77 79 83 82 79 79 80 80 82 82 83 83 82 81 81 83 84 84 84 84 85 87 87 87 87 87 87 88 90 92 93 93 92 90 86 85 83 82 82 81 81 81 81 81 80 79 79 79 79 78 78 79 80 81 82 83 85 87 88 88 86 87 88 90 91 91 92 93 94 99 105 110 110 108 108 106 103 99 95 92 90 88 85 84 85 87 86 86 91 97 100 100 101 102 105 105 103 95 92 91 91 91 94 96 95 91 87 82 79 77 74 72 71 70 67 62 59 56 54 54 53 52 52 51 51 51 51 51 51 51 51 50 50 50 50 50 50 50 50 50 50 50 50 49 49 49 50 51 51 51 51 50 50 50 52 52 53 53 53 52 52 52 50 50 50 48 48 47 45 45 44 43 43 43 43 44 44 45 45 47 47 47 47 46 46 46 46 46 46 45 45 45 45 45 45 45 45 45 45 45 45
157 156 154 153 151 149 147 145 142 140 137 134 133 130 129 125 123 121 117 113 108 103 100 98 96 96 95 95 94 94 93 92 92 92 92 92 95 97 97 98 99 101 102 102 102 102 100 96 94 94 95 97 100 102 105 108 110 114 116 118 120 122 123 124 124 126 127 128 128 129 132 133 136 139 142 143 145 146 148 149 150 152 152 154 156 157 159 160 162 164 166 171 174 177 180 183 186 189 190 191 192 192 191 190 189 187 184 179 174 170 163 158 154 148 144 139 137 134 132 131 128 127 125 122 121 121 121 121 120 120 120 119 119 119 119 119 118 118 117 117 116 116 116 116 116 116 116 118 120 122 122 121 120 120 119 118 118 117 116 115 115 115 116 116 116 116 116 119 120 123 128 132 134 137 141 144 147 151 153 155 158 160 162 165 165 167 168 170 171 171 173 174 174 175 175 175 174 173 172 171 170 168 167 166 165 164 162 160 157 155 154 154 153 151 147 145 145 143 140 138 134 129 125 125 124 124 124 124 123 123 123 123 125 129 133 137 139 142 145 148 153 156 159 162 164 167 168 169 171 171 173 173 174 175 175 176 176 177 179 179 177 176 174 172 170 167 163 159 155 152 146 141 136 134 132 130 129 129 129 129 129 130 130 130 130 130 130 131 131 131 131 131 131 131 131 131 131 132 133 133 133 133 132 132 132 135 138 140 141 140 138 135 133 131 131 131 131 131 132 136 139 141 145 145 142 140 140 140 139 136 132 128 122 117 112 110 110 109 108 105 104 104 104 104 104 103 103 103 103 103 104 104 104 109 122 133 138 141 146 149 150 151 151 151 150 148 147 146 145 144 142 141 142 142 141 142 143 144 144 144 143 142 142 141 140 139 137 135 134 133 133 133 132 132 131 128 127 122 118 116 116 116 116 116 116 118 121 122 123 124 124 125 125 125 123 121 120 118 116 114 112 111 109 107 107 107 107 107 107 107 107 108 108 109 109 111 112 113 114 113 113 114 117 121 125 127 129 131 132 132 132 131 131 131 131 131 132 131 131 130 129 128 128 128 126 124 124 123 123 123 123 123 124 125 125 125 126 129 132 135 140 140 140 139 139 138 137 137 137 137 138 137 136 136 139 139 142 142 144 146 146 148 148 149 151 152 153 153 153 154 154 154 155 155 156 156 156 157 157 157 157 157 155 154 153 151 151 150 149 149 147 145 143 142 142 143 143 144 145 145 145 145 144 142 142 142 143 143 143 143 142 142 142 142 142 142 142 142 144 144 144 143 142 140 138 137 134 132 131 129 129 128 127 126 124 122 119 116 115 114 113 111 109 107 105 104 106 107 106 103 101 99 97 95 94 92 90 88 86 86 86 85 84 83 82 82 82 84 88 85 83 83 83 83 82 82 82 82 83 84 83 80 77 76 76 76 76 76 77 79 82 86 91 97 103 109 114 115 114 113 112 110 107 104 100 95 91 86 84 82 80 78 76 76 76 77 77 81 82 80 79 80 80 81 81 82 82 80 79 79 82 83 83 83 84 85 87 87 87 86 86 86 87 88 90 93 93 92 90 87 85 84 83 83 82 81 81 80 80 80 79 78 78 78 78 77 78 79 80 81 82 83 85 86 86 85 85 87 88 89 90 90 90 93 99 106 108 107 104 103 103 101 97 93 91 88 86 83 83 85 86 86 86 90 94 97 99 101 102 104 105 102 93 90 90 91 92 96 97 96 93 89 85 82 79 75 72 69 67 66 62 61 58 57 57 54 53 53 52 51 51 50 50 50 50 51 50 50 50 50 50 50 50 50 49 49 49 49 49 49 49 50 51 51 51 51 50 50 50 52 53 53 53 53 53 52 52 50 50 49 48 47 45 43 42 43 43 43 42 42 43 43 43 43 43 44 45 45 45 45 45 45 45 45 45 45 45 45 45 45 45 45 45 45 45 45
