ncols         942
nrows         34
xllcorner     -71.3777777778
yllcorner     42.26289
cellsize      1.0E-5
NODATA_value  -9999
48 48 47 46 43 40 37 35 34 34 34 34 33 33 33 33 33 34 35 35 36 35 35 34 34 34 34 34 34 34 34 35 35 35 36 37 38 39 39 39 39 38 38 38 38 39 39 39 39 40 40 40 39 39 39 39 39 39 39 39 39 40 40 40 40 43 43 40 40 40 40 40 41 41 41 41 41 41 41 41 41 41 41 40 40 40 40 40 40 40 40 39 39 39 39 39 40 40 40 40 40 40 38 37 37 37 37 37 37 38 40 44 51 54 53 52 52 51 50 48 46 46 48 48 49 52 53 56 57 57 56 54 52 49 47 44 43 43 43 43 43 44 43 41 40 39 38 38 38 39 40 40 41 41 41 41 41 41 41 43 45 48 50 52 54 57 60 64 67 70 74 76 78 77 77 75 74 74 74 75 75 74 72 71 71 70 69 68 67 66 63 61 59 59 59 61 61 59 57 54 52 53 55 57 57 58 58 59 60 60 60 61 62 62 62 63 64 66 67 68 69 70 70 70 70 70 70 71 71 72 72 73 73 73 71 69 67 65 62 59 57 56 57 58 56 53 52 50 48 47 47 47 48 49 49 49 48 46 46 46 46 46 46 46 46 46 46 47 47 47 47 52 56 58 58 59 61 63 64 64 64 65 66 65 65 65 64 64 63 63 63 63 64 64 65 68 71 74 74 71 71 71 70 66 60 57 56 55 55 55 55 55 55 55 55 55 56 56 58 62 64 64 63 60 59 59 59 59 58 57 56 55 55 55 56 56 57 57 57 59 61 64 69 75 79 81 84 86 88 89 89 90 89 88 87 87 87 86 86 86 86 87 86 85 85 87 91 93 93 92 91 89 88 86 85 85 85 84 84 83 79 76 73 69 68 68 68 68 68 68 68 68 67 67 67 67 67 67 68 68 68 68 69 69 69 71 73 74 75 76 77 77 76 77 79 81 82 82 82 82 81 81 79 75 74 71 73 73 73 69 64 59 57 57 57 57 57 57 57 57 57 57 57 57 57 57 57 57 57 57 59 61 64 64 65 69 74 75 74 73 71 69 68 68 68 68 68 69 68 68 69 69 70 70 70 69 69 69 68 68 66 66 64 63 62 61 60 59 59 59 59 59 59 59 59 59 59 59 60 60 60 60 60 60 62 64 67 71 72 73 74 75 76 76 74 74 74 75 75 72 69 67 65 65 63 61 61 60 59 59 59 59 59 59 61 67 71 72 70 67 65 65 66 69 75 81 85 87 88 85 83 80 78 75 74 75 73 72 70 70 71 74 79 81 80 78 77 78 80 78 73 71 71 71 72 71 70 69 67 64 61 58 55 53 49 46 43 41 38 35 33 29 26 24 23 22 22 22 21 20 20 19 19 19 19 20 21 21 21 20 19 19 19 19 19 19 19 19 19 19 19 19 19 18 18 18 17 17 16 15 14 14 14 14 15 16 17 17 17 17 17 17 17 17 17 17 16 16 15 14 13 12 11 9 7 6 5 5 5 5 6 7 8 9 13 14 14 15 16 17 19 19 20 20 21 24 27 32 36 40 45 49 51 49 47 47 48 50 53 55 58 59 60 63 68 70 71 72 69 64 64 65 68 71 74 71 69 66 60 54 52 48 48 48 48 47 47 47 47 47 47 47 47 47 47 47 47 47 47 48 51 55 59 61 62 65 65 64 62 59 57 57 58 57 54 50 50 52 52 49 48 48 48 48 48 48 48 48 48 48 48 48 48 48 48 48 48 48 48 48 48 48 48 48 48 48 48 48 48 51 52 55 56 57 59 61 62 65 67 67 67 69 69 69 69 67 66 64 61 58 58 57 57 56 56 56 55 52 48 43 39 36 35 34 33 32 29 26 24 22 20 19 18 15 15 15 15 15 15 16 16 16 16 16 16 15 15 15 15 15 15 15 15 15 15 15 17 18 19 20 22 23 24 25 26 28 29 28 27 23 20 17 17 17 17 17 19 20 20 20 20 20 20 20 21 25 28 32 36 39 42 44 46 46 47 50 51 51 50 50 49 48 47 46 44 43 41 38 36 36 35 35 36 39 47 54 56 47 45 41 39 39 38 35 35 38 43 45 47 49 47 47 49 54 55 54 55 54 54 54 54 55 56 56 57 58 61 62 62 62 63 65
48 48 47 45 41 37 35 34 34 34 34 34 33 33 33 33 33 33 33 33 34 34 37 36 35 35 34 34 34 34 34 35 35 35 35 36 37 38 38 38 38 37 37 37 38 38 39 39 39 39 40 40 40 40 40 39 39 39 39 39 39 40 40 40 41 43 43 41 41 40 40 40 41 41 41 41 41 41 41 41 41 41 41 41 41 40 40 40 40 40 40 39 39 40 40 41 41 41 42 42 42 41 38 37 37 37 37 39 41 44 47 51 55 56 54 53 53 51 48 48 47 49 50 50 52 54 53 56 57 57 57 55 52 49 47 44 43 43 43 43 43 44 43 41 40 39 39 39 39 40 42 42 42 41 41 41 41 42 43 46 49 51 52 53 55 58 62 65 68 71 74 76 77 77 76 75 74 74 74 76 77 75 73 71 71 70 69 68 66 65 63 61 59 59 60 61 59 57 56 54 53 53 55 57 58 59 59 60 60 60 61 61 62 63 65 67 68 70 71 71 72 72 72 72 72 71 71 72 72 73 74 76 77 76 74 72 70 67 64 61 59 58 58 59 58 55 52 51 49 47 47 47 48 48 48 48 47 47 46 46 46 46 47 47 47 47 47 47 47 47 47 50 56 59 59 60 61 63 64 65 65 65 65 65 65 65 64 63 63 63 63 63 63 64 64 68 71 72 71 69 69 69 67 62 58 55 55 55 55 55 55 55 55 55 55 55 56 57 59 62 64 65 64 62 60 60 59 59 60 60 59 57 56 55 56 56 56 57 58 60 62 65 68 75 80 82 84 87 89 89 89 89 89 88 88 88 87 87 87 87 87 87 87 87 87 88 91 93 93 92 91 89 89 87 85 83 82 80 79 78 75 72 70 68 68 68 68 68 67 67 67 67 67 67 67 67 67 67 68 68 68 68 68 69 69 70 71 73 73 74 74 74 75 77 80 82 83 83 83 82 81 81 78 75 73 65 65 64 64 60 58 57 57 57 57 57 57 57 57 57 57 57 57 57 57 57 57 57 57 57 59 61 64 63 62 65 69 70 70 70 69 68 68 68 68 68 68 68 68 68 68 69 71 71 71 70 70 69 69 68 67 66 64 62 62 60 60 59 59 59 59 59 59 59 59 59 59 59 60 60 60 60 60 60 61 63 65 68 71 74 75 77 78 78 76 75 75 75 74 72 69 67 65 65 63 62 61 60 59 59 60 60 59 60 59 63 66 67 67 66 65 64 66 69 75 81 87 88 88 86 83 79 77 74 71 71 70 69 69 69 71 76 79 79 77 76 76 78 77 75 72 72 74 74 75 76 75 74 73 70 66 62 59 56 52 48 45 43 41 38 36 33 31 28 25 23 22 22 21 20 19 18 18 18 18 20 21 21 20 20 19 18 18 18 18 18 18 18 19 19 19 18 18 18 18 17 17 17 16 15 15 15 15 15 15 16 17 17 17 17 17 17 17 17 16 15 14 14 14 14 13 13 11 8 6 5 5 5 5 5 6 7 9 10 11 13 14 14 16 17 19 21 23 23 24 26 29 34 38 42 46 51 54 52 49 49 50 53 54 53 55 56 57 60 65 68 69 69 66 62 61 62 64 66 68 66 65 62 57 51 48 47 47 47 47 47 47 47 47 47 47 47 47 47 47 47 47 47 47 50 54 58 61 62 63 65 66 66 63 60 59 58 57 57 54 50 51 52 51 48 48 48 48 48 48 48 48 48 48 48 48 48 48 48 48 48 48 48 48 48 48 48 48 48 48 48 48 48 50 53 54 57 58 59 60 62 64 65 66 67 68 69 70 70 69 68 67 66 64 61 59 58 56 56 56 57 56 53 49 46 41 40 40 39 37 34 32 31 29 26 24 22 20 17 15 15 15 15 15 17 19 18 19 19 18 17 15 15 15 15 15 15 15 15 15 15 17 18 19 21 23 25 26 27 29 32 34 34 33 31 26 20 17 17 17 17 19 20 21 22 21 20 20 20 21 24 30 33 37 40 43 46 48 48 49 50 52 53 53 53 52 51 50 49 48 47 44 41 37 36 35 34 34 35 39 42 49 44 38 35 34 35 35 34 35 36 40 41 46 50 48 48 50 55 55 54 54 54 54 54 55 56 56 56 56 56 60 62 63 63 64 65
48 48 48 45 40 35 35 34 34 34 34 33 33 33 33 33 33 33 33 33 33 33 34 35 37 37 35 34 34 34 34 35 35 35 35 36 36 37 38 38 37 37 37 37 38 38 39 39 39 39 40 40 40 40 40 40 40 40 40 40 40 40 40 40 41 41 43 42 41 41 41 41 41 41 41 41 41 41 41 42 42 41 41 41 41 41 41 41 41 41 40 40 41 41 42 43 44 43 45 47 47 43 38 37 37 38 42 46 50 54 55 56 58 57 55 55 54 52 49 49 49 51 52 53 55 56 56 56 57 57 56 55 52 49 47 45 43 42 42 42 42 42 41 40 40 40 40 40 42 43 45 46 45 45 45 44 43 46 48 49 51 53 55 56 57 60 62 65 68 70 73 75 76 76 76 75 75 76 76 77 77 76 74 72 71 71 69 67 67 65 63 62 59 58 58 58 56 54 53 52 52 53 55 57 58 59 60 61 61 61 61 62 63 66 69 71 72 73 73 73 74 74 74 73 73 73 73 73 74 75 76 78 79 78 76 75 74 70 66 63 61 60 60 59 59 57 54 52 51 49 48 48 48 48 48 48 48 47 47 47 47 47 47 47 47 47 47 47 47 47 47 50 55 60 60 61 61 63 64 65 65 66 65 65 65 65 64 63 63 62 62 62 63 63 64 66 69 69 67 66 66 66 64 60 56 55 55 55 55 55 55 55 56 55 55 56 58 58 59 62 64 66 65 65 63 62 61 62 63 63 61 59 56 55 56 56 56 57 59 61 63 65 68 74 79 82 85 88 90 90 90 89 88 88 88 88 88 88 88 88 89 89 89 89 90 89 91 92 92 91 91 90 90 87 84 81 79 76 74 74 71 69 68 68 68 68 68 67 67 67 67 67 67 67 67 67 67 67 68 68 68 68 68 68 68 68 69 70 70 70 70 71 74 78 81 83 83 84 83 82 81 81 77 72 70 62 60 59 58 57 57 57 57 57 57 57 57 57 57 57 57 57 57 57 57 57 57 57 57 57 59 60 61 60 59 60 62 66 68 68 68 68 67 67 67 67 67 67 68 68 68 69 71 73 72 71 71 71 71 69 67 65 63 62 60 60 60 60 59 59 59 59 59 59 59 60 60 60 60 60 60 60 60 61 64 67 68 69 69 71 73 76 79 79 78 75 75 75 74 71 69 67 67 66 64 63 64 62 60 61 65 64 62 62 59 60 62 63 63 64 63 63 65 69 77 82 88 89 88 86 82 78 75 72 69 68 68 68 68 69 70 74 78 77 75 74 74 74 74 73 74 76 78 79 79 79 80 80 80 78 73 68 65 61 56 53 50 47 44 41 39 37 35 32 28 26 23 22 21 20 19 17 17 17 18 19 20 20 20 19 18 18 18 18 18 18 18 18 19 19 18 18 18 18 18 17 16 16 15 15 15 15 15 15 15 16 17 17 17 17 17 17 17 16 16 14 14 14 15 15 14 13 11 8 6 5 4 4 5 6 6 6 9 11 11 12 14 14 14 17 21 23 25 26 27 29 31 36 40 44 48 53 56 56 52 50 51 55 58 57 55 54 55 56 58 61 64 64 63 59 57 57 57 58 59 59 58 57 54 49 47 47 47 47 47 47 48 49 48 47 47 47 47 47 47 47 47 47 48 52 57 61 63 63 64 65 67 68 66 62 60 60 57 56 54 50 51 52 51 48 48 48 48 48 48 48 48 48 48 48 48 48 48 48 48 48 48 48 48 48 48 48 48 48 48 48 48 51 54 56 56 58 60 60 61 62 64 66 66 67 68 69 70 70 71 70 69 68 66 63 62 61 59 59 61 64 65 63 58 54 50 48 47 46 43 39 35 34 32 29 27 24 21 19 16 15 15 15 15 18 20 22 23 22 21 20 18 16 15 15 15 15 15 15 15 15 17 19 20 22 26 28 29 31 34 36 38 39 39 39 35 28 20 17 17 18 21 20 22 24 22 20 20 20 22 25 30 34 38 41 45 48 50 50 50 50 54 55 55 55 54 54 53 52 51 52 51 45 38 35 35 33 33 33 34 35 42 43 35 32 31 33 33 32 35 36 38 40 46 50 50 50 50 52 53 54 55 56 55 55 56 58 57 56 56 57 60 63 65 65 65 66
47 48 48 46 40 35 34 34 34 34 34 33 33 33 33 33 33 33 33 33 33 33 33 33 34 36 37 36 35 34 34 34 34 34 35 35 35 36 37 37 36 36 37 37 38 38 39 39 39 39 40 40 40 40 40 40 40 40 40 40 40 40 41 41 41 41 43 43 40 40 40 41 41 41 41 41 41 41 41 42 43 41 41 41 41 41 41 41 41 41 41 41 41 41 43 46 46 46 47 49 48 43 38 38 40 43 48 53 57 59 59 59 59 58 57 57 56 55 52 51 52 53 54 56 58 58 58 57 56 56 55 54 52 49 46 44 42 41 41 41 41 40 40 40 40 40 40 43 46 47 48 48 47 48 48 47 47 50 51 51 53 55 57 58 59 61 63 65 68 70 72 74 75 76 76 77 77 78 79 79 78 77 75 74 72 71 69 69 68 67 65 63 59 56 56 56 54 52 52 52 53 54 55 57 58 59 61 61 61 61 62 62 64 68 71 73 74 75 76 76 76 75 75 74 74 73 73 74 74 75 77 79 81 80 79 79 78 74 68 63 62 61 59 59 59 58 56 53 52 50 49 49 49 48 48 48 47 47 47 47 47 47 47 47 47 47 47 47 47 47 48 52 56 60 61 61 62 63 64 65 65 65 65 65 64 64 64 63 63 62 62 62 62 63 63 64 65 65 65 64 64 63 61 58 55 55 55 55 55 55 55 57 57 56 56 58 58 58 59 62 65 67 68 68 66 65 64 65 66 65 63 61 57 56 56 56 56 58 60 62 63 66 68 72 79 83 85 89 90 90 89 88 87 87 88 88 88 88 89 89 90 91 91 91 92 91 91 92 92 91 90 89 89 85 82 78 75 72 72 71 68 68 68 68 67 67 67 67 67 67 67 67 67 67 67 67 67 67 68 68 68 68 68 68 68 68 68 68 68 68 69 70 73 79 82 83 83 83 82 82 81 79 74 68 64 60 58 58 58 57 57 57 57 57 57 57 57 57 57 57 57 57 57 57 57 57 57 57 57 57 59 60 58 58 59 59 60 64 66 67 67 67 67 67 67 67 67 67 67 68 68 68 71 73 72 72 72 73 72 69 66 64 62 62 60 60 60 60 60 60 60 60 59 59 60 60 60 60 60 60 60 60 60 64 68 72 73 73 72 72 72 74 78 79 78 76 76 74 74 71 70 69 70 69 67 66 67 67 66 67 70 68 64 63 61 59 59 60 61 61 62 62 63 69 78 84 88 88 88 85 81 78 74 70 68 68 68 68 68 68 68 71 74 75 73 72 72 71 72 74 78 81 83 83 81 81 82 84 84 83 80 76 71 67 61 58 56 52 48 44 42 40 38 36 32 28 25 23 22 21 20 18 17 17 18 18 19 19 19 19 18 17 17 17 17 18 18 18 18 18 18 18 18 18 17 17 16 15 15 15 15 15 15 15 16 16 17 17 17 17 17 17 17 16 15 15 15 16 16 16 14 13 11 9 6 5 4 5 5 6 6 6 9 11 11 12 14 14 15 19 23 26 28 28 29 31 33 37 41 45 49 54 58 60 56 51 50 53 57 59 58 55 55 55 55 56 58 59 59 56 54 52 52 53 54 55 54 54 51 48 47 47 47 47 48 50 51 51 50 49 47 47 47 47 47 48 49 48 49 54 59 63 65 65 65 65 69 70 68 63 61 61 58 56 53 50 51 52 50 48 48 48 48 48 48 48 48 48 48 48 48 48 48 48 48 48 48 48 48 48 48 48 48 48 48 49 52 55 57 59 59 61 63 63 64 64 65 66 67 68 68 69 70 71 71 71 71 71 68 66 66 65 63 63 66 71 74 72 65 61 58 56 53 52 48 44 38 35 33 31 30 27 24 20 16 15 15 15 15 18 20 24 25 24 23 23 21 20 15 15 15 15 15 15 15 15 17 19 21 24 28 30 33 34 37 39 41 43 43 44 42 34 25 17 17 20 23 22 22 23 22 20 20 20 23 26 30 34 39 44 48 50 51 51 50 51 56 57 57 57 56 56 55 53 52 52 52 48 40 35 34 33 33 33 33 32 38 40 35 30 30 31 31 31 34 36 40 42 45 48 48 50 50 51 53 55 54 56 57 55 55 57 57 56 57 60 61 61 63 64 65 65
45 46 46 45 40 34 34 34 34 34 34 33 33 33 33 33 34 33 33 33 33 33 33 33 33 33 35 36 36 36 35 34 34 34 34 35 35 35 35 35 35 36 37 37 38 40 40 40 40 40 40 40 40 40 40 40 40 40 40 40 40 41 41 41 41 41 42 43 41 40 40 41 41 41 41 41 41 41 41 42 45 43 41 41 41 41 41 41 41 41 41 41 41 41 46 48 49 48 47 45 43 41 39 40 46 50 53 56 60 62 61 60 59 59 59 60 59 58 55 54 54 55 56 58 59 59 59 57 55 53 54 53 50 48 45 42 40 40 40 40 40 40 40 40 40 40 43 48 50 50 50 49 49 49 49 49 49 50 52 52 54 56 59 60 61 62 63 65 67 69 71 73 74 75 76 78 79 81 82 82 81 79 78 76 74 72 71 71 69 68 66 62 58 55 55 54 53 53 53 52 53 54 56 57 59 60 61 62 62 62 62 63 66 70 74 75 76 77 78 78 78 77 75 74 74 74 74 74 75 76 78 79 81 81 81 82 81 75 68 63 62 61 59 59 58 58 57 54 53 51 51 50 50 49 49 48 47 47 47 47 47 47 47 47 47 47 47 47 47 49 51 55 59 61 62 62 62 63 64 65 65 65 65 64 64 64 64 63 62 62 62 62 62 63 63 63 63 63 63 63 62 61 59 56 56 56 56 56 56 56 56 60 60 57 57 58 59 59 59 63 67 69 71 71 70 69 68 69 69 68 64 62 59 57 56 56 57 59 60 63 64 66 68 72 78 83 85 88 89 89 87 87 87 87 88 88 89 89 91 91 92 92 93 93 92 92 92 92 91 90 89 87 87 83 78 75 72 70 70 69 68 68 68 67 67 67 67 67 67 67 67 67 67 67 67 67 67 68 68 68 68 68 68 68 68 68 68 68 68 68 68 70 73 78 82 83 83 83 81 80 78 75 70 64 60 58 58 58 58 58 57 57 57 57 57 57 57 57 57 57 57 57 57 57 57 57 57 57 57 57 58 58 57 58 59 59 61 63 66 66 66 66 66 67 67 67 67 67 67 67 68 68 69 71 72 74 74 74 72 69 64 63 62 62 60 60 60 60 60 60 60 60 60 60 60 60 60 60 60 60 60 60 61 67 71 74 75 75 76 76 75 73 76 78 78 77 76 74 74 72 71 71 72 72 70 69 69 71 75 76 76 73 68 65 62 60 60 60 60 60 61 61 62 68 78 85 87 87 87 86 82 78 73 68 68 68 68 68 68 68 68 69 70 72 71 70 71 71 73 77 83 85 86 85 83 83 85 87 87 87 85 81 77 73 67 63 60 55 51 47 45 43 42 41 35 31 28 25 23 22 21 19 18 17 18 18 18 18 19 18 18 17 17 17 17 18 18 18 18 18 18 18 18 18 17 16 15 15 15 15 15 15 15 15 16 16 17 17 17 17 17 17 17 16 15 15 15 15 15 13 12 14 13 10 6 4 4 5 6 6 6 6 7 10 11 13 14 14 17 22 25 29 31 31 32 34 36 39 42 47 51 54 59 62 59 54 50 51 53 56 59 59 59 57 56 55 56 56 57 54 52 50 50 50 51 52 52 51 48 47 47 47 47 49 51 52 54 54 52 51 50 49 49 49 47 49 50 49 49 54 60 64 67 66 65 67 71 71 70 66 64 62 58 55 51 50 51 51 49 48 48 48 48 48 48 48 48 48 48 48 48 48 48 48 48 48 48 48 48 48 48 48 48 48 50 53 56 58 59 61 61 63 65 66 66 67 68 68 69 69 69 70 71 71 72 73 73 73 70 69 69 68 66 66 68 72 77 77 71 65 63 61 60 57 52 48 41 38 38 36 34 32 28 22 16 15 15 15 15 16 19 24 26 26 25 23 22 21 17 15 15 15 15 15 15 15 18 20 21 24 29 34 37 36 37 39 41 45 46 47 45 37 28 20 17 20 23 23 22 21 20 20 20 21 24 27 31 37 42 46 49 51 52 52 51 52 55 57 58 58 58 57 56 54 52 50 49 48 41 37 34 33 33 33 33 32 34 36 33 30 30 30 30 30 32 35 38 40 42 43 46 49 49 51 54 55 54 53 57 56 55 54 55 54 56 59 56 54 57 61 62 64
40 42 43 43 39 34 34 34 34 34 34 33 33 33 33 33 33 34 34 33 33 33 33 33 33 33 33 33 35 36 36 36 35 34 34 34 35 35 35 35 36 36 38 38 40 41 41 41 40 40 40 41 40 40 40 40 40 41 41 41 41 41 41 41 41 41 41 43 43 40 40 41 41 41 41 41 41 41 41 42 46 44 41 41 41 41 41 41 41 42 42 42 42 43 47 49 50 49 45 42 40 39 39 42 49 54 55 57 60 62 61 60 60 60 61 62 62 61 59 57 57 56 57 57 57 58 59 58 54 51 51 51 48 46 43 41 40 40 40 40 40 40 40 40 40 41 46 51 50 50 50 50 50 50 50 50 50 51 52 53 55 58 60 61 62 63 63 65 67 69 71 72 73 74 76 80 81 83 84 84 83 82 80 78 76 74 73 71 69 67 64 61 57 55 55 54 54 55 57 55 54 55 56 58 59 61 62 62 62 63 64 65 69 72 76 77 78 79 79 79 78 76 75 74 74 74 74 74 76 78 79 80 82 82 82 83 81 75 68 63 62 61 60 60 59 59 58 56 54 53 53 51 50 50 50 49 49 49 48 48 48 47 48 50 50 49 48 49 51 53 55 59 62 62 63 63 63 64 65 65 65 65 65 64 64 64 63 63 62 62 62 62 62 63 63 63 62 62 62 61 61 60 57 57 57 57 56 56 56 56 58 61 61 58 57 58 59 59 62 65 68 71 73 74 73 72 72 72 71 70 66 64 61 58 57 56 58 59 62 63 64 66 69 72 77 82 84 86 87 87 86 85 86 87 89 89 90 91 93 93 93 93 93 93 93 93 92 92 91 90 88 84 84 81 76 72 69 69 68 68 68 68 67 67 67 67 67 67 67 67 67 67 67 67 67 67 67 68 68 68 68 68 68 67 67 68 68 68 68 68 68 69 71 76 80 82 82 82 81 79 74 71 66 61 58 58 58 58 58 58 58 58 57 57 58 60 59 58 57 57 57 57 57 57 57 57 57 57 57 57 57 57 57 58 59 60 62 63 65 66 66 66 66 66 66 67 67 67 67 67 67 67 68 69 71 73 73 72 69 67 63 62 62 62 61 60 60 60 60 60 60 60 60 60 60 60 60 60 61 61 60 60 62 68 72 74 75 76 77 78 78 76 75 77 78 77 76 74 74 73 72 73 74 74 72 71 71 75 81 83 82 78 73 68 64 62 60 60 60 60 61 61 61 67 78 84 85 86 86 86 82 77 72 68 68 68 68 68 69 68 68 69 69 69 69 69 71 73 76 80 85 87 87 86 85 85 87 89 89 89 87 84 81 77 72 66 62 59 54 51 49 46 44 44 39 34 30 28 26 24 23 21 20 18 18 18 18 18 19 18 18 17 17 17 17 17 17 17 18 18 18 17 17 17 16 15 15 15 15 15 15 15 15 15 16 16 17 17 17 17 17 17 17 16 15 15 14 14 13 11 12 15 15 9 6 4 4 5 6 6 6 6 6 10 11 13 14 15 19 24 28 31 33 34 36 38 39 40 43 47 52 56 60 63 61 56 53 52 52 53 59 62 63 62 61 58 56 57 57 56 54 51 50 50 50 50 50 49 47 47 47 47 47 51 53 54 56 55 54 53 53 52 52 51 47 47 48 47 49 54 60 64 67 67 66 69 72 72 71 68 66 63 58 54 51 50 52 51 48 48 48 48 48 48 48 48 48 48 48 48 48 48 48 48 48 48 48 48 48 48 48 48 48 49 53 57 59 60 61 61 63 65 66 66 68 69 70 70 70 70 70 71 71 72 73 74 74 74 72 71 71 70 69 68 70 71 76 79 75 69 65 65 65 62 56 50 43 40 44 43 38 34 31 25 18 15 15 15 15 15 17 22 25 25 24 23 21 19 16 15 15 15 15 15 15 15 17 20 22 24 30 37 40 38 38 38 41 46 50 49 47 38 30 22 18 20 23 23 22 21 20 20 21 23 27 30 34 39 44 47 50 52 53 53 54 53 54 55 57 58 58 58 57 55 52 50 48 47 43 40 37 33 33 33 33 32 31 31 31 30 30 30 30 30 32 34 37 40 42 42 47 51 51 52 54 55 55 54 56 57 55 54 53 53 54 55 50 46 48 54 57 60
37 38 39 38 36 35 34 34 34 34 34 33 33 33 33 33 33 33 33 34 34 34 34 34 34 34 33 33 33 34 35 37 37 36 35 35 35 36 36 36 37 38 39 40 41 42 42 41 41 41 41 41 41 41 41 41 41 41 41 41 41 41 41 41 41 41 41 43 44 41 41 41 41 41 41 41 41 41 41 43 47 46 44 43 43 43 42 41 42 45 44 43 43 43 47 49 50 47 43 40 40 39 39 42 48 53 55 57 58 59 59 59 60 61 61 64 64 64 62 61 60 59 57 57 58 58 59 58 54 50 48 48 47 44 41 40 40 40 40 40 40 40 40 40 40 44 49 51 51 51 51 51 51 51 51 51 51 53 53 54 56 58 60 62 63 63 64 65 66 68 70 71 73 74 77 81 82 84 86 86 85 85 83 80 77 75 73 70 67 65 62 60 56 55 55 55 56 57 59 58 55 55 57 59 60 61 62 64 64 64 65 68 71 74 77 79 80 81 81 81 78 75 74 74 74 74 74 75 76 78 79 80 82 81 81 81 79 73 67 63 62 62 61 60 60 60 59 57 57 56 54 53 52 52 52 52 54 55 53 53 53 52 53 56 56 55 53 54 56 58 59 61 63 64 64 64 64 65 65 65 65 65 65 64 64 64 63 63 62 62 62 62 62 63 63 63 62 62 61 61 61 60 58 58 58 58 57 57 57 58 59 61 61 58 58 58 58 60 64 67 69 72 74 76 76 76 75 74 73 71 68 66 62 59 58 58 59 60 62 64 65 67 69 72 76 80 83 84 85 85 84 83 84 86 88 89 91 92 94 96 95 95 94 95 95 94 93 92 92 91 88 82 81 79 75 71 68 68 68 68 68 67 67 67 66 66 66 66 66 66 66 67 67 67 67 67 67 68 68 68 68 68 68 67 67 67 67 67 67 68 68 68 69 72 76 79 80 80 79 76 70 66 63 59 58 58 58 58 60 61 60 59 60 60 61 62 62 61 59 57 57 57 57 57 57 57 57 57 57 57 57 57 57 58 59 61 62 63 65 65 66 66 66 66 66 67 67 67 67 67 67 67 68 69 70 70 70 67 66 65 62 62 62 62 61 61 61 61 60 60 61 61 61 61 61 61 61 61 61 62 62 62 63 68 71 74 75 77 77 79 79 78 75 75 78 78 77 77 76 74 73 73 75 75 72 72 74 78 84 86 86 82 76 71 68 65 63 61 60 60 61 61 61 66 76 82 83 83 85 85 80 74 71 68 68 68 68 68 69 68 68 69 69 69 69 69 71 75 79 82 84 87 87 87 87 88 89 90 91 89 88 86 82 80 75 69 64 61 57 55 52 49 47 46 43 37 33 31 29 27 26 24 22 20 18 18 18 18 19 18 17 17 17 17 16 16 17 17 18 18 18 17 17 17 15 15 15 15 15 15 15 15 15 16 16 16 17 17 17 17 17 17 17 16 15 14 14 12 11 9 13 15 14 7 6 5 5 5 6 6 6 6 6 11 12 13 14 16 22 27 31 32 35 38 40 42 42 43 45 47 51 55 61 64 62 58 55 53 52 52 59 64 66 66 64 61 58 58 59 58 57 55 53 51 50 48 48 47 47 47 47 47 48 51 53 55 56 55 55 55 55 54 53 51 47 47 47 47 49 54 60 65 67 70 70 71 74 72 71 69 66 62 57 54 51 50 54 52 48 48 48 48 48 48 48 48 48 48 48 48 48 48 48 48 48 48 48 48 48 48 48 48 48 51 56 59 60 61 61 62 65 66 66 67 70 71 72 72 72 72 72 72 73 74 75 75 75 75 74 73 72 71 70 70 70 71 75 79 78 71 67 68 67 65 59 52 45 42 46 48 44 38 32 27 19 15 15 15 15 15 15 20 23 23 22 20 19 18 15 15 15 15 15 15 15 15 16 20 22 24 31 38 41 38 38 38 41 47 53 51 47 38 31 25 21 22 25 24 22 21 21 21 22 26 29 32 37 41 46 49 51 53 55 55 56 56 54 54 55 56 58 59 58 57 53 50 48 47 45 42 40 34 33 33 33 33 32 30 30 30 30 30 30 30 36 39 40 44 46 46 51 56 56 56 56 56 56 55 56 57 57 58 55 52 52 51 46 42 42 44 49 54
35 35 36 35 35 35 35 34 34 34 34 33 33 33 33 33 33 33 33 34 34 34 34 34 34 34 34 34 34 33 33 34 35 37 37 37 36 36 37 37 38 39 41 41 41 42 42 41 41 41 41 41 41 41 41 41 41 41 41 41 41 41 41 41 41 41 41 43 45 43 41 42 41 41 41 41 41 41 43 45 48 49 48 48 47 46 44 41 44 47 46 45 44 44 45 47 47 44 41 40 40 40 40 41 45 52 57 58 57 57 58 59 60 61 62 65 66 66 65 64 64 62 58 57 58 56 57 58 54 50 47 46 45 42 40 41 43 43 41 40 40 40 42 43 44 47 49 51 51 51 51 51 51 51 51 51 53 55 56 57 58 58 60 62 63 64 65 65 65 66 68 70 73 75 78 82 83 86 87 87 87 87 86 83 80 77 74 70 65 64 62 60 57 56 57 58 59 59 60 60 58 56 57 59 60 62 63 64 65 66 67 70 73 76 78 80 81 83 82 81 78 75 74 74 74 74 74 74 75 77 79 80 81 81 79 78 77 72 66 63 62 62 61 61 61 60 59 59 58 57 56 55 55 56 56 56 58 57 56 56 58 58 58 59 60 59 58 58 58 60 61 62 63 64 64 64 65 66 65 65 65 65 65 64 64 64 63 63 62 62 62 62 63 63 63 63 63 62 61 60 60 60 58 58 58 58 58 58 59 61 63 64 62 58 58 58 59 61 65 68 70 73 76 79 79 78 77 76 75 71 68 67 63 59 58 59 60 61 63 64 66 68 69 72 74 78 80 82 83 82 81 82 82 84 86 87 90 91 94 97 96 95 95 95 95 95 94 93 92 91 88 81 80 77 75 73 69 68 68 68 68 67 67 66 66 66 66 66 66 66 66 66 67 67 67 67 67 68 68 68 68 68 68 67 67 67 67 67 67 67 68 68 68 70 73 77 79 78 74 69 65 63 61 59 59 59 59 60 63 64 62 62 63 64 65 65 64 63 60 59 57 57 57 57 57 57 57 57 57 57 57 57 58 59 61 63 63 64 65 65 65 65 65 66 66 66 66 67 67 66 66 67 68 68 67 66 65 63 63 63 62 62 62 61 61 61 61 61 61 61 61 61 61 61 61 61 61 61 62 62 62 62 63 66 70 74 75 77 77 78 79 79 77 76 78 78 78 79 78 75 74 74 76 75 74 74 76 80 84 87 88 84 78 75 73 70 67 64 63 61 61 61 61 64 71 79 81 81 82 81 77 72 69 68 68 68 68 68 69 69 69 69 69 69 69 69 71 77 81 83 83 87 87 88 89 90 92 92 92 90 89 87 84 82 78 72 67 62 59 57 54 51 49 47 45 41 37 35 33 31 28 26 24 22 20 19 19 19 18 17 17 17 17 16 15 15 16 17 17 17 17 17 17 17 15 14 14 14 14 15 15 15 15 16 16 16 17 17 17 17 17 16 16 15 14 14 11 9 9 8 12 12 10 6 5 4 5 5 6 6 6 6 7 12 13 14 14 18 24 29 33 35 37 40 42 44 44 46 48 47 49 54 60 65 62 58 55 54 53 53 59 65 68 68 66 63 60 59 59 60 60 59 58 55 53 49 48 47 47 47 47 47 47 51 53 55 56 56 56 55 56 55 53 50 47 47 47 47 48 54 59 64 68 72 73 73 74 72 71 68 64 60 57 54 51 52 56 53 48 48 48 49 49 48 48 48 48 48 48 48 48 48 48 48 48 48 48 48 48 48 48 48 50 53 56 59 61 62 62 62 66 68 66 68 71 72 73 73 74 74 73 74 75 76 76 76 77 76 76 75 74 73 71 71 71 72 76 79 79 73 69 68 67 66 61 54 46 44 47 49 47 43 37 30 23 16 15 15 15 15 15 17 21 23 21 18 16 16 15 15 15 15 15 15 15 15 16 19 22 24 31 37 39 38 38 38 40 46 52 52 47 38 32 27 24 25 28 26 23 22 22 22 23 29 31 33 39 44 48 50 51 52 54 55 58 58 55 54 54 53 55 57 57 58 54 50 49 47 46 44 41 36 33 34 34 33 32 31 30 30 30 30 30 30 38 42 42 43 46 49 53 59 59 59 57 54 54 54 54 55 61 63 58 51 50 47 43 41 41 41 44 47
35 35 35 35 35 35 35 35 35 34 34 33 33 33 33 33 33 33 33 34 34 34 34 34 35 34 34 34 34 34 34 33 35 36 37 38 38 38 38 38 38 39 41 41 42 42 42 41 41 41 41 41 41 41 41 41 41 41 41 41 41 42 42 42 42 42 42 43 45 45 43 42 42 42 41 42 43 44 46 48 50 51 51 50 50 49 47 44 45 47 48 47 45 45 45 45 44 42 40 40 40 40 41 43 47 54 60 60 58 58 59 59 60 61 63 65 67 67 67 66 66 64 59 56 55 54 55 56 54 51 47 46 45 43 43 43 45 44 43 42 42 43 46 47 48 49 50 51 51 51 51 51 51 51 51 52 53 55 58 60 61 61 61 62 63 65 65 65 65 66 69 71 73 76 80 83 84 86 88 88 88 89 88 86 82 77 74 70 66 64 63 61 59 58 59 60 61 61 63 63 60 56 57 59 60 62 63 65 66 68 70 72 75 77 78 80 81 82 82 81 78 76 74 74 74 74 73 74 74 76 78 78 79 79 77 75 74 71 65 62 62 62 62 62 62 61 60 59 58 57 57 57 57 59 59 59 59 57 55 57 59 60 60 60 60 60 60 60 60 61 62 62 64 64 65 65 65 66 65 65 65 65 65 65 65 65 64 63 63 63 63 63 63 63 63 63 63 62 61 60 60 60 59 59 59 59 59 59 61 65 67 67 62 58 58 59 60 62 66 69 71 74 78 82 83 81 79 77 75 71 68 67 64 60 58 59 60 62 63 65 67 68 69 71 73 76 77 79 80 79 79 80 83 84 86 86 89 91 94 97 96 95 95 94 94 94 94 93 92 91 87 81 80 78 76 75 71 68 68 68 68 67 67 66 66 66 66 66 66 66 66 66 67 67 67 68 68 68 69 69 69 69 68 68 67 67 67 67 67 67 67 67 68 70 71 73 75 74 69 65 62 62 61 60 59 59 59 62 65 66 64 65 67 68 70 70 68 64 61 61 60 59 58 57 57 57 57 57 57 57 58 60 62 63 64 64 65 65 65 65 65 65 65 66 66 66 66 67 67 66 64 64 65 65 63 63 62 61 61 62 62 62 61 61 61 61 61 61 61 61 61 61 61 61 62 62 62 62 63 62 63 63 63 65 70 73 75 76 76 77 79 79 77 77 78 79 79 80 80 77 76 76 77 76 77 78 79 82 85 87 88 84 80 78 77 74 71 68 67 64 62 61 61 62 68 77 80 79 79 77 74 71 68 68 68 68 68 68 69 69 69 69 69 69 69 69 72 77 81 82 83 87 87 88 90 93 94 93 92 91 89 87 85 84 82 75 69 63 60 58 55 53 51 49 46 44 41 38 36 34 31 29 26 23 22 21 19 19 18 17 17 17 17 16 15 15 15 15 16 16 17 17 17 16 14 14 14 14 14 15 15 15 15 16 16 16 17 17 17 17 16 16 16 15 13 11 8 8 8 8 9 9 8 6 5 4 6 6 6 6 6 6 7 13 14 14 15 20 25 31 35 38 40 42 44 45 46 50 51 49 49 53 58 61 61 58 56 54 53 54 59 64 67 67 65 63 61 60 60 62 62 61 60 58 55 52 49 49 48 47 47 47 47 50 53 55 56 57 57 57 56 55 53 50 47 47 47 47 48 54 59 63 68 72 75 75 74 71 70 67 64 60 57 54 52 53 56 53 48 49 53 55 54 50 48 48 48 48 48 48 48 48 48 48 48 48 48 48 48 48 48 48 52 54 56 59 61 63 63 63 65 68 68 70 72 74 74 74 76 76 75 75 77 78 78 79 79 78 78 78 76 74 72 72 73 74 76 78 79 74 70 68 66 65 61 55 47 46 48 50 50 47 43 37 28 20 15 15 15 15 15 16 19 22 22 18 15 15 15 15 15 15 15 15 15 15 15 16 19 23 31 37 38 38 38 38 39 41 46 50 44 36 31 27 24 25 28 29 25 22 21 22 24 30 30 33 40 46 49 50 50 51 53 55 59 58 57 56 55 53 52 53 52 53 51 49 49 47 47 49 45 38 33 36 36 33 31 31 30 30 30 30 30 30 33 39 41 40 42 47 51 56 57 58 56 53 53 54 57 60 66 66 60 49 48 46 44 42 42 41 41 41
35 35 35 35 35 35 35 35 35 34 34 33 33 33 33 33 33 33 33 34 34 34 35 35 35 34 34 34 34 34 34 34 35 35 36 37 39 39 39 39 39 40 41 41 41 41 42 41 41 41 41 41 41 41 41 41 41 41 41 42 42 42 42 42 42 42 42 43 45 46 44 43 43 43 43 46 46 46 48 49 50 51 51 51 51 51 49 48 47 48 48 47 46 46 46 45 44 42 40 40 40 45 48 50 53 57 61 61 60 61 61 61 61 62 63 65 66 67 67 67 66 64 60 55 53 53 53 54 53 51 49 47 46 45 45 45 45 45 46 46 46 46 48 49 50 50 50 51 51 51 51 51 51 51 52 53 54 56 57 60 62 63 64 64 64 65 66 66 66 67 69 71 72 75 80 83 84 87 88 89 89 90 90 88 84 77 73 69 66 65 63 62 61 61 61 62 63 64 65 68 63 58 57 59 60 62 64 66 68 70 72 74 76 76 77 79 80 81 81 80 79 76 75 75 75 73 72 73 73 75 75 75 76 76 74 72 72 69 65 62 62 62 62 62 62 60 60 59 58 58 57 58 58 59 59 59 58 57 57 59 59 60 60 60 60 60 60 60 61 62 62 63 64 65 65 65 65 66 65 65 65 65 65 65 65 65 64 63 63 63 63 63 63 63 63 63 62 61 61 60 60 60 59 60 59 59 59 60 64 69 70 67 61 59 59 60 62 64 67 70 72 75 80 84 85 84 80 76 73 69 68 67 64 61 59 59 60 62 64 66 67 68 69 71 72 74 75 76 77 78 78 81 84 87 88 89 90 93 96 97 96 95 95 94 93 93 93 93 92 89 85 81 80 78 77 76 73 70 68 68 68 67 67 66 66 66 66 66 66 66 66 66 66 67 67 68 68 68 69 70 70 70 69 68 67 67 67 67 67 67 67 67 67 68 68 67 69 69 66 64 63 63 62 61 60 60 60 62 65 66 66 68 70 72 74 76 74 68 63 64 63 61 60 58 57 57 57 57 57 57 60 63 65 65 66 66 66 65 65 65 65 65 65 66 66 66 66 66 67 65 63 62 62 62 61 61 60 60 61 61 61 61 61 61 60 60 60 60 60 60 60 60 61 61 62 62 62 62 64 63 63 63 64 65 69 72 74 75 76 77 77 77 77 77 78 80 80 80 80 79 79 80 80 79 81 81 82 83 85 88 89 87 84 82 82 79 76 73 72 69 66 63 61 61 65 73 76 77 77 75 72 69 68 68 68 68 68 69 70 69 69 69 69 69 69 69 73 76 79 79 82 86 87 89 93 96 97 95 94 91 89 88 87 87 85 79 71 65 61 59 57 56 54 52 48 46 44 41 38 36 34 31 28 25 23 22 20 19 18 17 17 17 17 16 15 15 14 14 14 15 17 17 17 15 14 14 14 14 14 15 15 15 15 16 16 16 16 16 16 16 16 15 15 14 12 9 8 8 7 7 7 7 6 6 4 5 6 6 6 6 6 6 8 13 15 14 16 22 26 32 37 41 44 44 45 46 47 52 53 50 49 52 55 58 61 60 59 57 55 55 58 63 65 66 65 62 61 60 60 63 63 62 61 60 58 54 50 49 48 47 47 47 47 50 52 56 58 59 59 59 56 55 53 50 47 47 47 47 47 51 58 62 67 71 75 75 74 70 69 66 62 59 58 55 52 53 55 52 48 53 58 60 59 53 49 48 48 48 48 48 48 48 48 48 48 48 48 48 48 48 48 50 52 55 57 59 62 65 66 64 65 67 69 71 73 74 74 75 77 77 76 77 78 79 80 81 80 79 81 81 79 75 74 75 76 76 77 77 78 75 70 68 66 65 61 54 48 48 51 52 52 50 49 44 34 25 15 15 15 15 15 15 16 18 20 19 15 15 15 15 15 15 15 15 15 15 15 15 16 21 29 37 39 38 38 38 38 39 42 45 39 34 30 26 24 24 25 30 29 22 20 21 22 26 27 30 38 46 49 49 50 50 52 54 58 58 58 57 58 57 53 51 48 47 47 47 49 48 48 52 47 41 33 34 37 33 31 30 30 30 31 31 30 30 30 32 38 40 41 45 48 50 50 50 50 52 54 55 59 64 67 66 60 49 47 47 47 48 48 45 41 38
35 35 35 35 35 35 35 35 35 34 34 33 33 33 33 33 33 34 34 34 34 34 35 35 35 35 35 35 35 34 34 34 35 35 35 36 38 39 39 39 39 40 40 40 41 41 42 42 42 41 41 41 41 41 41 41 41 42 42 42 42 42 42 42 42 43 43 44 44 46 44 43 44 45 47 51 51 49 49 50 51 51 52 51 51 51 50 49 49 49 49 47 47 47 47 47 46 43 40 40 41 49 54 56 58 61 63 63 63 63 63 63 63 63 63 64 65 66 68 68 67 65 61 56 53 53 53 52 51 51 49 47 47 47 47 46 46 47 48 49 49 48 50 50 50 51 51 51 51 51 51 51 51 52 53 54 55 56 57 60 62 64 65 66 66 66 67 68 68 68 68 69 71 74 78 83 85 88 90 91 92 92 91 88 83 76 72 68 66 66 64 63 63 63 64 65 65 66 67 71 67 60 59 59 60 61 64 68 70 72 73 74 76 76 76 77 78 79 79 79 78 77 75 75 74 73 72 71 72 73 73 73 74 73 72 70 69 67 64 63 63 63 63 62 61 60 59 59 59 58 58 59 60 60 59 58 56 56 58 60 60 60 60 60 60 60 60 61 62 62 62 63 65 65 66 66 66 66 65 65 65 65 65 65 66 66 64 63 63 63 63 63 63 63 63 63 62 61 60 60 60 60 60 60 59 59 59 61 67 71 70 65 59 59 60 60 62 65 69 71 72 75 80 85 87 86 82 76 71 69 68 67 64 61 60 60 61 63 65 67 67 68 69 71 72 72 73 74 76 78 78 82 86 89 90 90 91 93 96 97 96 95 95 93 93 93 92 92 91 87 84 81 80 78 77 77 75 71 68 68 68 67 67 66 66 66 66 66 66 66 66 66 66 67 67 68 68 69 70 71 71 71 68 68 67 67 67 67 67 66 66 66 66 66 65 65 65 66 65 65 65 65 63 62 61 61 61 61 64 65 67 72 75 76 78 81 79 72 67 67 66 63 61 58 57 57 57 57 57 57 62 64 65 67 67 67 66 66 65 65 65 65 65 66 65 65 65 67 67 65 61 61 60 60 59 59 59 59 60 60 61 61 61 61 60 60 60 60 60 60 60 60 61 61 62 62 63 64 65 64 64 64 64 65 68 71 73 74 75 77 77 77 77 77 79 80 80 80 80 80 82 83 83 84 86 85 84 84 85 89 89 89 88 87 86 84 80 77 76 74 70 67 63 62 63 67 72 75 74 72 69 68 67 67 68 68 69 71 71 69 69 69 69 69 69 69 75 76 76 77 79 83 86 89 95 99 99 97 95 91 89 89 89 89 88 83 73 68 63 60 59 58 56 54 49 48 46 44 41 39 36 33 30 28 27 24 21 20 19 17 17 17 17 16 15 15 14 14 14 14 16 15 15 13 13 13 14 14 14 15 15 15 15 16 16 16 16 16 16 16 15 15 15 13 10 8 8 8 7 7 6 6 6 5 4 5 6 6 6 6 6 6 9 13 16 16 18 23 27 32 38 44 48 46 46 47 48 53 53 50 50 51 54 57 62 62 62 60 56 56 57 61 63 67 66 63 61 60 60 64 65 64 63 62 60 55 51 50 49 48 47 47 47 51 53 56 59 60 60 59 56 54 53 49 47 47 47 47 47 48 56 61 65 69 73 73 72 69 67 64 60 59 58 55 53 53 54 52 50 57 62 64 62 55 52 49 49 49 49 49 48 48 48 48 48 48 48 48 48 48 49 52 55 56 57 58 62 66 68 66 65 66 67 69 72 74 73 74 78 78 78 79 79 80 81 82 81 81 82 81 80 77 76 77 77 78 77 76 76 74 70 67 66 64 59 53 49 53 55 54 54 54 54 49 40 29 16 15 15 15 15 15 15 15 16 16 15 15 15 15 15 15 15 15 15 15 15 15 15 19 29 37 40 40 39 38 38 39 41 41 36 32 29 25 24 24 24 30 30 22 20 20 20 22 22 26 35 45 49 50 50 50 51 54 57 58 59 59 60 60 57 54 51 47 45 45 46 49 47 52 49 44 33 32 37 35 30 30 30 30 34 35 32 30 30 30 34 37 41 43 42 42 41 39 41 46 53 53 54 58 59 57 52 47 47 47 49 53 55 51 44 38
35 35 35 35 35 35 35 35 35 34 34 33 33 33 33 33 33 34 34 34 34 35 35 35 36 35 35 35 35 35 35 35 35 35 35 36 37 38 38 38 38 39 39 40 40 41 41 41 41 41 41 41 41 41 41 41 42 42 42 42 42 42 43 43 43 43 43 44 44 46 46 44 47 50 52 55 55 53 51 51 52 52 52 52 52 51 50 50 49 49 49 48 48 48 49 49 46 42 39 39 41 49 56 59 61 62 63 64 64 64 64 64 64 64 64 65 66 67 67 67 67 65 63 59 56 55 54 54 53 51 49 47 47 49 49 47 48 49 50 50 50 49 51 51 51 51 51 51 51 51 50 51 51 53 53 54 55 56 57 60 62 63 65 66 67 69 68 69 69 68 68 68 70 74 78 83 85 89 91 92 94 94 91 87 81 75 72 69 67 66 65 64 64 65 67 67 67 67 68 73 71 63 59 59 60 61 64 68 71 72 73 74 75 75 75 76 77 77 77 77 77 76 75 74 73 72 71 70 70 71 71 71 71 70 69 68 67 65 64 63 62 62 62 62 61 59 59 59 59 59 59 59 60 60 59 58 55 56 57 59 60 60 60 60 60 60 60 61 62 63 63 64 65 66 67 67 67 67 66 66 65 65 65 65 66 66 63 63 63 63 63 63 63 63 63 63 62 61 59 59 59 60 60 59 59 59 59 63 68 70 67 62 59 59 60 60 62 66 69 72 72 75 80 85 88 87 81 75 70 68 67 66 64 61 60 60 61 64 67 69 68 69 70 71 72 72 73 74 76 78 79 82 86 89 90 90 91 93 96 97 96 95 95 94 94 93 92 92 90 87 84 81 80 78 77 76 75 72 69 68 68 67 67 66 66 66 66 66 66 66 66 66 66 67 67 67 67 69 70 71 71 69 67 67 67 67 67 67 66 66 66 66 66 66 66 65 65 65 65 65 65 65 64 63 62 62 62 62 62 64 69 77 79 79 82 84 81 74 70 69 67 64 60 57 57 57 57 57 57 59 64 65 66 67 68 69 69 69 67 66 66 67 66 65 65 64 65 66 66 63 61 60 59 59 58 58 57 59 59 60 60 60 60 60 60 60 60 60 60 60 60 60 60 61 62 63 64 65 66 65 64 64 64 65 67 69 71 73 75 76 76 76 76 77 79 80 80 80 80 80 83 85 86 88 90 89 87 86 86 89 90 90 91 91 90 88 85 82 79 76 72 69 66 62 62 64 69 71 71 68 67 67 67 67 68 69 71 72 72 70 69 69 69 69 69 70 74 75 74 75 77 80 84 89 95 99 99 96 94 91 89 89 89 91 90 85 76 70 64 61 59 58 57 55 51 48 47 47 45 42 39 34 33 32 30 26 22 20 19 17 17 17 17 16 15 15 14 14 14 13 14 13 13 12 12 12 14 14 15 15 15 15 15 15 15 16 16 16 15 15 15 14 14 12 10 8 8 8 7 7 6 6 6 5 4 6 6 6 6 6 6 8 9 13 17 18 20 24 27 32 39 46 50 47 47 47 50 54 54 51 51 52 54 57 62 64 66 63 57 56 58 61 63 68 68 65 61 60 60 64 66 66 64 63 60 55 51 50 49 48 47 47 47 51 54 56 59 60 60 59 57 54 51 48 47 47 47 47 47 47 54 61 65 68 70 71 70 68 65 62 58 56 56 55 55 54 53 53 52 57 64 68 65 57 54 51 51 50 50 51 49 48 48 48 48 48 48 48 48 49 50 53 57 57 56 57 63 67 70 69 65 66 67 67 70 72 71 74 78 80 80 81 80 81 82 83 81 81 81 81 80 79 78 78 78 79 77 76 75 73 70 68 66 63 59 54 53 58 59 58 56 56 57 54 44 32 19 15 15 15 15 15 15 15 15 15 15 15 15 15 15 15 15 15 15 15 15 15 15 20 30 40 43 44 43 40 38 39 41 40 33 30 28 23 23 26 27 28 27 21 19 19 20 20 20 23 32 43 50 52 50 50 51 53 57 58 58 58 59 61 61 58 56 50 47 44 43 45 45 48 50 44 32 30 34 33 30 30 30 31 33 37 38 33 30 30 30 33 37 36 34 33 33 32 33 37 44 47 46 46 46 45 45 46 46 47 49 52 56 53 47 40
36 36 36 36 35 35 35 35 35 35 34 33 33 33 33 33 34 34 34 34 34 35 36 36 36 36 35 35 36 36 36 35 35 35 35 35 37 38 38 38 38 39 39 39 40 41 41 41 41 41 41 41 41 41 41 41 42 42 42 42 42 43 43 43 43 43 44 44 44 46 47 48 51 54 55 57 57 56 54 54 53 53 52 52 52 52 51 50 50 50 50 50 50 50 50 51 48 44 40 39 40 46 54 59 61 62 63 63 64 64 65 65 65 65 65 65 66 66 66 66 67 66 65 64 62 60 58 58 57 55 53 50 50 51 51 50 50 50 51 51 51 51 51 51 51 51 51 51 51 51 50 51 52 53 54 55 57 57 59 61 63 64 66 68 69 71 70 70 69 69 69 69 70 74 78 83 85 91 93 93 94 92 88 84 79 74 72 70 68 67 65 64 65 67 69 69 69 68 69 73 73 67 59 59 59 60 63 67 70 71 72 73 74 74 74 74 75 75 75 75 75 74 74 73 72 71 70 69 69 69 69 69 69 68 67 67 66 65 63 62 61 61 61 61 59 59 59 59 59 60 60 60 60 59 59 58 56 56 56 58 59 59 60 60 60 60 60 61 62 63 63 64 65 67 68 68 69 68 67 66 66 66 64 64 66 64 63 62 62 63 63 63 63 63 62 62 61 60 59 59 59 60 60 59 59 59 59 62 64 64 62 60 60 60 60 60 63 66 69 71 72 74 79 83 87 85 79 73 68 67 67 65 63 61 60 61 62 65 69 71 70 70 70 71 72 73 73 74 76 78 79 82 85 88 90 90 91 92 95 96 95 95 95 95 94 93 92 92 91 89 86 82 80 77 75 74 74 74 70 69 68 68 67 66 66 66 66 66 66 66 66 66 66 66 67 67 67 68 68 68 68 67 66 66 66 66 66 66 66 66 66 66 66 65 65 65 65 65 65 65 65 65 64 63 63 62 62 62 62 64 72 79 81 81 83 84 80 74 71 69 67 63 59 57 57 57 57 57 57 61 66 66 67 68 69 72 72 72 68 68 68 67 65 64 64 63 63 63 62 61 60 59 59 57 56 56 56 57 58 60 59 59 59 60 60 60 60 59 59 60 60 60 60 61 62 63 65 65 66 66 65 65 65 65 66 68 70 73 74 76 75 75 76 77 79 80 80 80 81 81 83 86 88 90 92 92 91 89 89 90 91 94 95 94 93 92 90 87 84 79 75 71 68 63 62 63 67 67 67 66 67 67 67 67 69 71 72 72 73 70 69 69 69 69 69 71 72 72 72 74 76 80 85 90 94 96 96 94 93 91 89 89 89 92 91 86 78 71 66 62 59 58 56 55 51 48 47 47 46 44 40 37 36 34 32 29 25 22 20 18 17 17 17 16 15 15 15 15 14 13 13 12 12 12 12 12 14 14 14 15 15 15 15 15 15 15 15 15 15 15 14 14 13 11 10 9 9 9 8 7 6 6 6 4 4 6 6 6 6 6 8 8 10 14 18 20 21 25 27 32 39 45 50 48 47 48 52 55 55 52 52 53 55 57 62 66 68 65 58 57 61 64 65 68 69 65 62 62 63 65 65 67 66 64 60 55 52 50 49 48 47 47 47 51 55 56 58 60 60 60 58 54 50 47 47 47 47 47 47 47 55 61 65 67 68 69 68 67 64 60 56 55 55 57 58 56 54 54 54 58 65 69 65 58 55 51 51 51 51 52 51 48 48 48 48 48 48 49 49 49 50 53 56 56 56 57 64 68 70 68 65 66 67 67 68 70 71 74 77 80 82 83 82 83 83 83 82 81 81 81 82 81 80 79 80 80 78 76 75 74 70 70 69 66 62 57 55 62 63 61 59 57 60 57 50 36 21 15 15 15 15 15 15 15 15 15 15 15 15 15 15 15 15 15 15 15 15 15 16 22 33 44 46 48 49 46 43 43 43 40 30 27 25 22 23 26 28 24 22 20 19 19 20 20 20 25 32 41 49 52 51 52 52 53 56 57 56 56 59 61 64 62 60 55 50 48 44 42 42 43 44 40 32 30 31 31 30 30 30 30 30 34 36 33 31 30 30 31 32 31 31 31 31 31 31 31 35 37 38 38 37 40 43 45 46 46 48 49 52 51 46 41
36 36 36 36 35 35 35 35 35 35 34 33 33 33 33 33 34 34 34 34 34 35 36 36 36 36 36 36 37 37 36 36 36 35 35 35 36 38 38 38 38 39 39 39 40 40 41 41 41 41 42 42 42 42 42 42 42 42 42 42 43 43 43 43 43 43 44 44 44 45 47 51 55 56 57 57 58 58 58 57 55 53 53 52 52 52 51 51 50 50 50 50 51 51 51 52 51 48 45 45 45 46 50 55 58 60 62 62 63 64 64 66 65 65 65 65 65 65 66 66 66 66 66 66 65 63 62 61 61 59 57 55 53 53 53 52 52 51 51 51 51 51 51 51 51 51 51 51 50 50 50 51 53 54 54 56 57 58 61 63 65 67 69 70 71 72 71 70 70 70 69 70 71 74 78 83 85 90 92 93 92 89 85 81 77 74 72 71 69 67 65 64 65 68 69 71 70 70 71 72 73 69 62 59 60 61 63 66 69 71 72 72 73 73 73 73 73 74 74 74 73 73 72 72 71 70 69 68 68 68 68 68 67 67 66 66 66 63 62 60 59 60 60 59 58 58 58 59 59 60 60 60 60 59 59 58 58 56 56 58 58 59 60 60 60 60 60 62 62 63 63 64 65 67 69 69 69 68 67 66 66 66 64 63 64 63 62 62 62 62 62 63 63 62 62 61 60 59 59 59 59 60 59 59 59 59 59 59 59 59 58 58 59 60 60 61 64 66 69 70 71 73 77 81 85 84 78 71 67 67 67 65 62 60 60 62 64 67 70 71 71 71 71 71 73 74 74 75 76 78 78 82 85 87 89 89 91 92 93 94 94 95 95 96 95 95 94 94 94 92 89 85 81 77 74 74 74 74 71 70 70 68 67 66 66 66 65 65 66 66 66 66 66 66 66 66 66 66 66 66 66 66 66 66 66 66 66 66 66 66 66 66 66 65 65 65 65 65 65 65 65 65 65 63 63 63 63 62 62 65 73 77 76 76 79 79 77 72 70 68 66 62 59 58 57 57 57 58 59 63 66 66 66 68 70 73 71 69 67 67 67 65 64 64 63 63 62 60 59 59 58 58 58 57 55 54 54 56 58 59 59 59 59 59 59 59 59 59 59 59 59 59 60 60 62 63 64 65 66 66 66 66 65 65 67 68 69 71 73 74 74 75 76 77 79 80 80 81 83 83 84 86 90 92 93 95 95 93 91 92 93 98 99 99 97 96 94 91 89 83 78 74 69 63 62 63 64 64 65 66 67 67 67 68 70 71 71 71 72 70 69 71 72 72 70 71 71 72 73 74 76 80 85 90 94 95 94 94 94 92 91 90 89 91 91 86 79 73 68 63 61 58 56 54 50 48 47 46 45 44 41 39 38 36 34 31 28 24 22 21 18 17 17 16 16 15 14 14 13 12 12 12 12 11 11 12 13 13 14 15 15 15 15 15 15 15 15 15 15 15 14 13 11 11 10 10 11 11 10 8 6 5 5 4 5 6 6 6 6 7 9 10 11 14 18 20 22 26 28 32 38 44 48 48 47 48 51 55 55 52 53 54 57 58 62 67 69 66 61 58 61 66 69 69 67 65 65 66 67 67 65 67 67 65 62 57 53 50 49 47 47 47 47 49 55 56 57 59 59 59 57 53 50 47 47 47 47 47 47 50 56 61 64 65 65 66 66 65 62 60 58 57 58 60 59 57 56 54 54 59 65 67 65 60 55 51 51 51 51 52 51 48 48 48 48 48 49 49 49 49 49 51 54 55 55 57 63 67 68 66 65 68 69 67 66 67 70 72 75 78 83 85 83 84 83 82 82 82 83 83 84 83 82 81 81 80 79 77 76 74 72 72 71 68 65 59 57 64 66 63 62 62 63 59 56 41 24 15 15 15 15 15 15 15 15 15 15 15 15 15 15 15 15 15 15 15 15 15 16 22 34 46 50 52 53 52 50 47 45 38 30 25 22 21 22 23 25 22 19 19 19 19 19 20 20 27 33 37 45 47 48 52 52 52 55 54 54 56 59 62 66 66 65 60 55 53 49 46 42 40 38 35 30 30 30 30 30 30 30 30 30 30 31 31 31 31 32 31 31 31 31 31 31 31 31 32 33 34 34 34 35 37 38 43 46 42 44 47 48 47 44 40
36 36 36 36 35 35 35 35 35 35 34 33 33 33 33 33 34 34 35 35 35 36 36 36 37 37 38 38 38 38 38 37 36 36 35 35 36 37 38 39 39 39 39 39 40 40 41 41 41 42 42 42 42 42 42 42 42 43 43 43 43 44 44 44 44 44 44 44 45 46 47 51 56 57 57 58 58 59 59 60 58 55 54 53 53 53 52 52 52 52 53 54 54 53 53 53 54 54 53 54 54 52 50 51 53 57 59 61 63 63 64 66 65 65 65 65 65 65 65 65 66 66 65 65 65 65 63 62 61 61 59 56 54 53 53 53 52 51 51 51 51 51 51 51 51 51 51 51 50 50 50 51 53 55 55 56 58 60 62 63 67 70 71 72 72 72 72 71 71 71 70 70 72 74 78 82 83 87 90 90 89 87 83 79 76 74 73 71 69 67 65 65 65 68 69 71 72 72 72 72 72 70 64 61 61 61 63 66 68 70 71 72 71 71 71 71 71 72 72 72 71 71 71 70 70 69 68 68 68 68 68 68 66 66 66 66 65 63 60 59 59 59 59 58 58 58 58 59 59 60 60 60 60 60 60 60 59 57 57 58 58 59 60 60 60 60 61 62 63 63 63 64 66 67 68 68 68 68 67 66 66 66 64 62 62 62 62 62 62 62 62 63 62 62 61 60 59 59 59 59 59 60 59 59 59 59 59 58 58 58 58 58 59 59 61 63 65 66 68 69 70 72 75 79 82 82 77 71 67 66 66 64 61 61 61 63 66 68 71 72 72 72 72 73 74 75 77 78 78 78 79 82 85 87 89 89 90 92 93 94 94 95 96 96 95 95 95 95 95 93 90 85 82 78 74 74 74 73 72 72 72 70 68 66 65 65 65 65 65 66 66 66 66 66 66 66 66 65 66 66 65 65 65 66 66 66 66 66 66 66 66 66 66 65 65 65 65 65 65 65 65 65 65 64 63 63 63 62 63 65 70 71 69 70 73 73 73 70 68 67 64 61 59 58 58 58 58 59 61 63 65 65 66 67 68 70 67 66 65 64 64 63 63 63 62 62 61 58 57 57 57 57 57 57 55 53 53 54 57 57 58 58 58 59 59 59 59 59 59 59 59 59 60 60 62 63 64 65 66 66 66 66 66 66 67 68 68 70 72 73 74 75 77 78 80 80 81 83 85 85 85 87 91 93 95 97 97 95 94 94 96 100 101 102 100 99 98 96 93 88 82 77 70 63 62 63 63 63 64 65 67 67 67 69 70 72 72 71 71 71 72 75 76 76 74 71 72 75 76 77 80 83 86 90 95 96 96 97 97 95 94 92 91 91 89 85 79 73 69 65 63 60 56 54 51 49 47 46 45 43 41 41 40 38 35 33 30 27 26 24 20 18 17 17 16 15 14 14 12 11 11 11 11 11 11 12 13 13 13 15 14 14 14 14 15 15 15 15 14 14 13 12 11 11 11 12 13 13 11 8 6 5 5 4 5 7 8 7 6 7 9 11 13 16 19 20 23 26 29 33 37 41 45 47 48 49 51 54 54 53 53 56 58 59 63 69 69 68 63 59 60 67 73 69 67 66 67 67 68 68 66 65 65 64 61 58 55 51 49 47 47 47 47 48 54 55 55 57 57 56 53 50 48 47 47 47 47 47 50 52 57 60 62 62 63 63 63 62 62 61 62 62 63 63 59 58 58 55 55 60 65 66 66 62 56 51 51 52 52 52 50 48 48 48 48 49 51 51 50 49 49 50 53 53 55 57 62 66 66 65 65 68 70 67 65 65 66 69 72 78 83 85 85 85 82 82 82 82 83 82 83 84 83 83 82 82 80 78 78 77 75 73 72 70 69 61 59 65 66 64 64 65 64 59 58 45 26 15 15 15 15 15 15 15 15 15 15 15 15 15 15 15 15 15 15 15 15 15 16 21 30 44 52 56 57 55 52 48 42 33 28 23 20 19 20 21 21 21 19 19 19 19 19 20 20 23 28 31 37 40 44 50 51 48 51 52 54 56 59 63 66 70 70 64 59 57 54 50 46 43 40 36 32 30 30 30 30 30 30 30 30 31 32 34 34 35 35 34 32 32 31 31 31 32 32 33 34 34 32 32 34 35 34 37 41 37 38 40 40 41 41 42
36 36 36 36 36 35 35 35 35 35 35 33 33 33 33 33 34 35 35 36 36 36 37 37 37 38 39 39 39 39 39 38 37 37 36 36 36 37 38 39 39 39 39 39 40 40 40 41 41 41 42 42 42 42 42 42 43 43 43 43 43 44 44 44 44 44 44 45 46 46 47 50 55 56 57 58 58 58 59 58 57 56 54 53 53 53 53 54 57 57 57 58 56 53 53 53 55 57 58 60 60 58 54 51 51 55 58 61 63 63 64 65 65 65 65 65 64 64 64 65 65 66 65 64 64 64 63 60 59 59 58 56 54 53 53 52 51 51 51 51 51 51 51 51 51 51 51 51 51 51 50 51 53 55 55 57 59 61 63 64 67 71 72 72 72 73 72 71 71 71 71 71 72 74 76 79 81 85 87 87 87 85 82 79 76 74 73 71 69 68 66 66 67 69 70 71 72 72 72 72 71 69 64 61 61 61 63 66 68 69 71 71 71 70 70 70 70 71 70 70 70 70 71 70 70 68 68 68 68 68 68 68 67 66 66 65 64 62 59 59 59 59 58 58 58 58 58 59 59 59 59 60 60 60 60 60 59 58 58 59 59 59 60 60 60 60 61 62 63 63 63 64 66 66 67 67 68 67 66 66 66 66 64 62 62 62 62 62 62 62 62 62 62 62 61 60 59 59 59 59 59 60 59 59 59 59 59 58 58 58 58 58 58 59 61 63 65 66 68 69 70 72 74 77 80 80 76 70 67 66 66 63 61 61 62 63 66 69 71 72 72 72 72 74 75 76 78 79 80 80 81 83 86 88 89 89 90 92 93 94 94 95 97 97 95 94 93 93 93 91 88 84 82 78 74 74 73 73 73 72 72 72 69 66 65 65 65 65 65 65 65 65 65 66 66 66 66 65 65 65 65 65 65 65 66 66 66 66 66 66 66 66 66 65 65 65 65 65 65 65 65 65 65 64 63 63 63 63 63 64 66 66 66 66 68 69 69 68 67 65 63 61 59 57 57 57 57 58 60 62 64 65 65 66 66 66 64 64 63 63 62 62 62 62 61 61 60 57 57 57 57 57 57 57 54 53 53 53 54 55 56 57 58 59 59 58 58 58 58 59 59 59 60 60 62 63 64 65 67 67 66 66 66 66 67 68 68 69 71 73 74 75 78 80 81 82 83 85 87 86 86 88 92 94 97 98 99 98 97 97 99 101 101 102 102 103 103 102 98 91 85 80 72 65 62 62 62 63 64 65 67 68 68 70 72 74 74 73 74 76 77 81 81 79 77 72 76 80 82 83 84 85 87 90 94 96 98 99 99 98 96 94 93 92 88 83 79 74 69 66 64 61 58 56 53 50 47 46 45 43 42 41 40 38 35 34 32 30 29 27 23 19 17 17 16 15 14 14 11 11 11 11 10 10 11 12 12 12 13 14 14 14 14 14 15 15 15 15 14 13 12 11 11 11 11 12 12 12 10 8 6 5 5 4 5 7 8 8 6 6 9 12 15 18 21 22 23 26 29 33 37 40 43 47 48 49 51 52 53 54 54 56 58 59 63 69 69 68 65 59 59 65 71 70 68 69 68 68 68 66 65 63 62 62 61 61 58 53 49 47 47 47 47 47 53 54 54 54 54 51 48 47 47 47 47 47 47 48 55 54 56 58 59 59 60 61 62 64 65 63 65 66 65 64 58 58 59 57 56 59 66 67 67 63 56 52 51 54 55 52 49 48 48 48 48 50 54 54 50 49 49 50 52 53 56 57 60 63 65 65 65 67 69 67 65 65 65 68 70 78 83 86 87 85 82 82 82 82 82 82 82 82 83 83 83 82 81 80 79 79 78 75 73 71 70 62 59 63 64 61 62 63 61 56 56 44 26 15 15 15 15 15 15 15 15 15 15 15 15 15 15 15 15 15 15 15 15 15 16 19 26 39 51 59 60 56 51 43 35 27 24 21 18 18 19 19 19 19 19 19 19 19 19 20 20 20 22 24 29 34 41 46 47 45 47 52 55 57 61 64 66 72 74 69 62 59 55 52 50 49 48 43 39 32 30 30 30 30 30 32 36 38 40 42 42 42 41 39 36 34 32 32 32 32 33 34 35 35 33 30 31 34 33 32 34 33 32 31 33 37 40 43
36 37 36 36 35 35 34 34 34 34 34 33 33 33 33 33 33 35 36 36 36 37 38 38 38 39 40 41 41 41 40 39 38 37 36 36 36 37 38 38 39 39 39 39 39 39 40 40 40 41 41 42 42 42 42 43 43 43 43 44 44 45 45 45 44 44 44 45 47 47 48 50 53 55 57 57 57 57 56 55 54 54 54 53 53 54 57 59 60 60 60 59 56 53 53 53 56 58 60 61 62 60 58 56 55 56 59 61 62 62 63 64 65 65 65 65 63 63 63 64 64 65 65 65 64 63 62 60 59 58 57 55 54 53 53 52 51 50 50 50 51 52 52 52 51 51 51 51 52 53 52 51 53 55 56 58 60 61 63 64 67 70 72 73 73 73 72 72 72 73 73 72 72 74 75 79 81 85 86 86 85 83 81 79 77 74 73 72 70 68 68 67 67 69 71 72 72 72 71 71 69 66 63 62 62 62 64 66 68 68 70 70 70 70 69 69 69 70 70 70 70 70 71 70 70 68 68 68 68 68 68 68 68 67 66 64 63 62 59 59 59 59 58 58 58 58 58 59 59 59 59 59 60 59 59 59 59 59 59 59 59 60 60 60 60 60 61 62 63 63 63 64 65 65 65 66 67 66 65 65 65 65 63 62 62 62 62 62 62 62 62 62 62 62 61 60 59 59 59 59 59 60 59 59 59 59 59 58 58 58 58 58 58 58 60 63 64 66 67 69 70 72 74 76 78 78 75 69 66 65 64 62 61 61 62 63 66 69 71 71 71 71 72 74 76 77 79 80 81 81 82 84 87 88 89 89 90 91 92 94 95 96 98 97 95 94 91 90 89 87 85 82 81 78 74 73 72 72 72 72 71 69 67 66 65 65 65 65 65 65 65 65 65 66 66 65 65 65 65 65 65 65 65 65 65 66 66 66 66 66 66 66 66 65 65 65 65 65 65 65 65 65 65 64 63 63 63 63 63 64 64 64 64 64 65 66 66 66 65 64 62 60 58 57 57 57 57 57 59 60 62 62 64 64 64 64 63 63 62 61 61 61 61 61 61 60 59 57 57 56 56 56 56 56 54 53 53 53 53 53 54 55 58 59 58 58 57 57 58 59 59 59 59 59 61 63 64 65 67 67 67 67 66 67 67 68 68 70 71 73 75 76 78 80 82 83 85 87 88 88 86 88 92 94 97 99 99 100 101 100 101 101 101 102 103 104 106 106 102 94 89 84 74 67 62 62 62 63 64 66 69 70 69 71 73 75 76 77 80 82 84 85 85 81 77 75 80 84 84 85 86 86 87 90 94 96 99 101 101 98 97 97 95 93 88 82 79 76 72 67 64 61 60 58 55 51 48 46 45 43 42 41 40 38 36 35 34 33 32 30 25 22 19 17 16 15 14 13 11 10 10 10 9 9 10 12 12 12 13 13 13 13 13 14 14 14 14 14 13 13 11 11 11 11 12 11 10 10 9 7 6 5 5 4 4 7 8 7 6 5 8 12 18 21 23 22 24 27 30 33 37 39 43 47 48 50 51 52 53 54 55 57 59 60 63 66 68 67 66 59 59 63 67 70 71 72 71 71 71 69 66 65 63 62 64 65 62 55 49 47 47 47 47 47 51 51 50 50 49 47 47 47 47 47 47 47 47 48 53 53 53 54 55 56 58 61 64 68 68 65 66 66 66 64 58 58 61 59 56 60 65 66 67 66 58 53 53 55 54 51 48 48 48 48 48 51 56 55 51 49 49 50 51 53 56 57 59 60 63 64 65 68 70 67 65 65 66 68 70 76 82 86 87 86 83 82 82 82 82 82 82 82 82 83 83 82 82 81 80 78 78 76 75 71 66 61 59 61 60 57 57 58 55 51 49 38 25 15 15 15 15 15 15 15 15 15 15 15 15 15 15 15 15 15 15 15 15 15 16 18 22 32 47 58 57 51 44 35 28 23 20 18 17 17 17 18 18 18 19 19 19 19 19 19 19 19 20 21 25 31 38 43 44 44 45 52 57 59 62 64 66 71 74 71 62 59 56 53 52 52 52 46 43 35 30 30 30 30 33 37 42 45 47 49 51 51 48 45 42 39 36 35 35 35 35 37 38 38 36 32 29 31 33 31 31 31 29 27 28 33 37 42
37 37 37 36 35 35 34 34 34 34 34 33 33 33 33 33 33 34 36 37 37 38 39 39 39 40 42 42 42 42 41 39 38 38 37 36 36 36 37 38 39 39 39 39 39 39 39 40 40 40 41 42 42 42 43 44 44 44 44 44 44 45 46 46 45 45 45 46 47 48 49 50 51 54 56 55 56 56 55 55 55 56 57 55 54 59 62 62 62 62 61 59 56 53 52 53 57 60 61 61 62 62 60 59 58 55 57 60 60 61 62 64 64 64 64 64 63 63 63 63 63 64 65 65 63 62 62 62 60 58 58 58 55 53 53 52 50 50 50 52 55 56 55 55 54 52 52 52 54 55 54 53 54 56 59 60 61 62 63 65 68 69 71 72 73 74 74 74 75 75 75 75 74 74 74 79 81 84 85 84 84 82 80 79 78 75 74 72 71 70 70 69 69 70 71 72 73 72 71 70 67 64 63 63 63 63 64 66 68 68 69 70 69 69 69 69 68 69 69 69 70 70 71 71 71 70 69 69 69 69 69 69 68 68 66 63 61 60 59 59 59 59 58 58 58 58 58 59 59 59 59 59 59 59 59 59 59 59 59 59 59 59 59 59 59 59 60 62 63 63 63 63 64 64 65 65 65 65 65 65 65 64 63 62 62 62 62 62 62 62 62 62 61 61 61 61 60 60 60 60 60 60 59 59 59 59 59 58 58 58 58 58 58 58 59 62 64 65 66 68 70 72 74 75 75 74 72 67 63 63 62 62 62 62 62 63 66 69 70 71 71 71 72 75 76 78 79 81 82 82 83 85 86 88 89 89 89 91 92 94 95 97 98 98 96 94 90 87 85 83 81 80 79 76 74 73 72 72 71 69 67 66 65 65 65 65 65 65 65 65 65 65 65 65 65 65 65 65 65 65 65 65 65 65 65 66 66 66 66 65 65 65 65 64 64 64 64 65 65 65 65 65 65 64 64 63 63 63 63 63 63 63 63 63 63 64 64 64 63 63 62 60 57 57 57 57 57 57 57 58 58 59 62 62 62 62 61 60 59 60 60 59 58 58 60 59 58 57 56 56 56 56 56 55 53 53 53 53 53 53 53 53 56 57 57 57 57 57 57 58 59 59 59 59 60 63 65 65 66 67 67 67 67 67 68 69 69 70 71 73 75 76 79 80 82 84 85 87 89 89 88 88 92 93 96 98 99 101 102 101 100 100 100 101 102 104 106 106 102 96 92 87 76 67 63 62 62 62 63 66 71 72 71 71 73 77 81 84 86 87 88 87 85 80 77 76 79 81 81 82 84 84 86 90 94 97 101 101 101 99 99 100 97 92 86 82 79 78 75 70 65 62 60 58 55 53 50 47 45 44 43 42 40 39 38 37 36 35 34 32 27 24 22 19 16 14 13 11 10 9 8 8 8 8 10 12 12 12 13 13 13 12 12 13 13 13 13 12 12 12 11 11 11 11 11 10 8 8 7 6 6 6 6 5 4 6 7 7 6 5 8 13 19 22 24 24 25 28 31 34 37 39 42 46 48 50 49 51 52 53 55 58 61 62 64 65 66 66 67 61 59 63 67 72 75 76 76 76 77 75 72 69 66 64 65 67 63 57 48 47 47 47 47 47 48 48 47 47 47 47 47 47 47 47 47 47 47 47 48 49 50 51 53 55 59 63 68 69 68 67 66 66 66 63 58 58 63 61 58 60 62 64 67 67 59 52 52 53 52 50 49 48 48 48 48 51 54 54 52 49 49 50 51 53 57 58 59 59 62 66 65 70 71 66 65 67 69 70 70 73 80 84 87 87 84 82 82 82 82 82 82 82 82 82 83 83 82 82 82 79 75 74 74 71 64 59 59 60 58 54 53 53 51 44 37 28 22 15 15 15 15 15 15 15 15 15 15 15 15 15 15 15 15 15 15 15 15 15 15 16 19 27 40 49 47 40 33 26 23 19 18 17 17 17 17 17 17 18 19 19 19 19 19 19 19 19 20 21 25 31 37 42 46 43 44 51 55 58 61 63 65 68 69 68 62 60 57 53 53 53 52 48 43 35 30 30 30 33 38 39 43 46 50 53 57 58 56 51 47 44 42 41 41 39 40 42 44 45 43 40 36 30 30 30 29 29 27 25 25 28 35 42
36 38 38 37 35 35 34 34 34 34 34 33 33 33 33 33 33 33 34 36 37 39 39 39 40 41 42 42 42 42 41 39 38 38 37 36 36 36 37 38 38 39 39 39 39 38 39 39 39 40 41 41 42 42 43 44 44 44 44 44 44 44 45 46 46 46 46 48 49 50 51 51 50 52 55 55 57 58 58 57 57 59 58 57 58 62 63 63 63 63 61 59 56 54 52 53 59 62 62 62 62 62 61 58 57 54 55 56 58 60 62 63 63 63 63 63 63 62 63 63 63 64 64 63 61 61 63 63 62 61 62 61 57 53 53 52 51 50 51 56 59 58 57 57 56 56 55 54 56 56 55 53 53 57 60 61 62 63 64 66 68 69 70 72 73 75 76 77 77 78 78 78 76 74 75 78 80 82 82 82 82 82 81 80 79 77 76 73 72 71 71 70 70 71 72 72 73 73 71 70 67 65 63 64 63 64 65 67 68 68 69 69 68 68 68 68 68 68 69 69 70 71 71 71 71 71 70 70 69 69 69 69 68 68 65 61 59 59 59 59 59 59 58 58 58 58 58 59 59 59 59 59 59 59 59 59 59 59 59 59 59 59 59 59 59 59 60 62 62 62 62 62 63 64 64 64 64 64 64 64 64 63 63 62 62 62 61 61 61 61 61 61 61 61 61 61 60 60 60 60 60 60 59 59 59 59 59 58 58 58 58 57 57 58 58 60 62 63 65 67 69 70 72 72 72 71 68 64 62 62 62 61 61 62 62 63 66 68 69 70 70 70 72 75 77 78 80 82 83 84 85 86 87 88 89 89 90 91 94 95 96 97 98 98 97 94 90 87 84 81 79 78 77 75 73 72 71 69 68 66 64 64 64 65 65 65 65 65 65 65 65 65 65 65 65 65 65 65 65 65 65 65 65 65 65 65 65 65 65 65 65 65 64 64 64 64 64 64 65 65 65 65 65 64 64 64 64 64 64 63 63 63 63 63 63 63 63 63 63 62 61 60 57 57 57 57 57 57 56 56 56 56 60 60 59 59 58 57 57 58 58 57 56 56 58 58 57 56 55 55 55 55 55 55 54 53 53 53 53 53 53 53 54 56 57 56 56 56 57 57 58 58 58 58 60 63 65 66 66 66 67 67 67 68 69 69 69 70 71 73 74 76 79 80 82 83 84 86 88 89 89 89 91 93 95 97 97 100 100 99 98 98 98 99 102 103 104 103 99 95 92 86 75 68 64 62 63 62 62 65 71 73 71 71 74 79 84 88 89 90 89 87 84 79 77 75 75 75 76 77 81 81 85 89 94 97 100 101 102 102 102 102 98 92 85 82 79 77 76 73 66 62 60 58 55 53 51 48 46 45 44 42 41 40 40 39 38 37 36 33 29 27 27 23 17 14 13 11 10 8 8 8 8 8 10 11 12 12 12 12 12 12 11 9 10 10 9 8 11 11 10 10 10 9 9 8 7 7 6 6 6 5 5 5 4 5 6 6 6 6 9 14 19 22 24 25 27 28 31 34 37 39 41 45 48 49 47 48 51 53 55 58 61 62 64 65 65 66 66 62 59 63 68 73 76 79 80 79 80 78 75 72 68 65 65 66 62 56 48 47 47 47 47 47 47 47 47 47 47 47 47 47 47 47 47 47 47 47 47 48 50 50 53 55 60 63 65 64 65 65 66 65 66 62 58 58 63 61 58 59 58 61 65 63 57 53 50 49 50 50 50 47 47 47 47 50 54 54 53 49 49 49 50 53 58 59 59 59 61 67 66 69 71 66 66 67 68 69 68 71 77 82 87 87 85 82 82 82 82 82 82 82 82 82 83 82 82 82 82 80 75 71 69 68 62 58 58 59 58 54 52 50 47 40 29 21 18 15 15 15 15 15 15 15 15 15 15 15 15 15 15 15 15 15 15 15 15 15 15 15 17 22 31 36 33 27 23 21 20 18 17 17 17 17 17 17 17 18 19 19 19 19 19 19 19 19 20 21 27 32 38 44 48 42 41 49 52 54 57 58 60 63 65 65 62 61 60 55 53 53 53 49 43 35 30 30 32 37 42 40 42 43 46 52 56 59 60 57 52 48 46 46 46 44 45 48 51 51 49 48 44 34 28 28 28 27 26 25 25 25 28 32
35 37 39 39 38 35 34 34 34 34 34 34 33 33 33 33 33 33 33 33 35 38 40 40 40 41 42 42 42 42 41 39 38 38 38 37 37 37 37 38 38 39 38 38 38 38 38 39 39 39 40 41 42 42 43 44 45 44 44 43 42 43 45 46 47 48 49 51 52 53 54 54 52 52 56 58 59 60 60 59 59 59 59 59 61 63 63 63 63 63 62 59 56 54 53 55 61 63 62 62 62 62 59 56 56 55 55 56 58 60 61 62 62 62 62 62 62 62 63 63 63 63 63 61 60 59 61 62 63 63 63 61 56 53 53 52 52 53 55 59 60 59 59 58 59 59 58 57 57 57 55 53 53 55 57 59 60 62 64 66 68 68 69 72 74 76 78 79 79 80 80 80 78 76 76 78 79 79 80 80 80 82 83 81 79 78 77 74 74 73 73 72 72 72 72 73 73 73 72 70 68 67 65 65 65 65 65 67 67 68 68 69 68 68 68 68 68 68 69 69 70 71 71 72 72 72 72 71 70 70 70 70 68 67 65 61 59 59 59 59 59 59 58 58 58 58 58 59 59 59 59 59 59 59 59 59 59 59 59 59 59 59 59 59 59 59 60 62 62 62 62 62 63 63 64 64 64 64 64 63 63 63 62 62 61 61 61 61 61 61 61 61 61 61 61 61 61 60 60 60 60 60 60 60 59 59 59 58 58 57 57 57 57 57 58 58 60 63 65 68 69 70 70 70 71 69 65 62 62 61 61 61 61 62 62 62 65 66 67 69 69 70 72 75 77 79 81 83 85 85 86 87 89 90 91 92 91 92 95 96 96 96 96 98 97 95 92 89 86 81 78 75 75 74 72 71 69 66 65 64 64 64 64 65 65 65 65 65 65 65 65 65 65 65 65 65 65 65 65 64 64 64 64 64 65 65 65 65 65 64 64 64 64 63 63 63 63 64 66 66 66 66 66 65 65 65 65 65 64 63 63 63 63 63 63 63 63 63 61 61 59 59 58 57 56 56 56 56 56 56 56 56 57 58 56 56 56 56 56 56 56 56 56 56 56 56 56 56 54 54 54 54 54 54 54 54 54 54 54 53 53 53 53 55 57 56 56 56 56 57 57 57 57 58 60 63 65 66 66 66 66 66 67 67 69 70 70 70 71 73 74 76 78 79 81 83 84 85 87 89 89 90 92 93 95 96 96 97 98 97 96 96 97 99 101 102 102 101 98 95 89 81 73 68 64 64 65 64 63 64 67 70 69 70 74 79 85 90 91 90 89 87 83 79 75 74 73 73 73 74 78 79 84 89 94 96 99 101 103 104 104 103 100 92 85 82 79 77 75 73 68 63 60 57 55 54 52 50 47 46 44 43 42 42 41 40 38 38 37 34 31 30 31 25 17 14 13 11 10 8 8 8 8 8 10 11 12 12 12 12 11 10 8 6 6 5 5 6 10 10 9 9 8 7 7 6 6 6 6 6 6 5 5 5 4 5 6 6 6 7 10 14 18 22 24 25 27 28 31 34 37 39 41 44 46 47 46 46 48 52 55 57 60 61 61 62 64 65 67 64 59 61 66 72 76 80 82 81 79 78 75 73 70 67 65 64 60 54 47 47 47 47 47 47 47 47 47 48 47 47 47 47 47 47 47 47 47 47 48 52 53 52 54 57 60 62 62 62 62 63 64 64 63 61 58 57 63 61 57 57 56 58 61 59 56 53 48 45 49 52 50 47 46 46 47 50 53 55 55 51 49 49 49 51 57 59 59 59 60 65 65 67 68 65 65 66 65 66 66 68 73 79 85 86 84 83 83 84 83 82 82 82 82 82 82 82 82 82 82 80 75 69 66 64 60 57 58 58 58 55 51 48 46 40 27 19 16 15 15 15 15 15 15 15 15 15 15 15 15 15 15 15 15 15 15 15 15 15 15 15 16 18 22 24 23 21 19 19 18 17 17 17 17 17 17 17 17 18 19 18 18 19 19 19 19 19 20 23 28 33 40 46 47 41 38 44 48 49 50 51 53 58 61 63 63 63 63 60 57 54 54 49 41 33 30 32 37 41 44 41 41 41 44 50 53 58 62 61 56 52 49 48 48 47 47 50 55 56 54 51 48 38 30 26 26 26 26 25 25 24 24 24
34 35 38 40 40 38 36 36 35 35 35 34 34 34 33 33 33 33 33 33 33 36 38 38 40 40 41 41 41 41 41 40 39 39 38 38 38 38 38 38 38 38 38 38 38 38 38 38 38 39 39 40 41 41 43 44 44 44 43 41 40 41 44 46 48 50 52 53 54 55 56 56 54 53 56 59 61 61 61 60 59 59 60 61 61 62 63 63 63 63 62 59 57 55 53 57 62 63 62 62 62 61 59 56 57 58 58 58 60 61 61 62 61 61 61 61 61 62 62 62 62 62 62 62 60 58 58 59 63 63 63 60 54 53 53 53 54 55 58 59 60 61 61 61 62 62 61 60 58 58 55 53 53 54 54 56 57 59 62 65 66 67 69 72 75 77 79 80 81 81 81 81 80 78 77 77 77 77 79 79 80 82 83 81 79 78 76 75 75 74 74 74 74 73 73 73 74 74 73 72 70 68 67 67 67 66 66 67 67 67 68 68 67 67 67 67 68 68 69 69 70 71 72 72 72 72 72 71 70 70 70 70 68 67 64 61 59 59 59 59 59 59 58 58 58 58 58 59 59 59 59 59 59 59 59 59 59 58 58 59 59 59 60 60 60 60 60 61 61 62 62 62 62 63 63 63 63 63 63 63 63 63 62 61 61 60 60 60 60 61 61 61 61 61 61 61 61 61 61 60 60 60 59 59 59 59 59 58 58 57 57 57 56 56 57 57 59 62 67 69 69 69 68 68 68 66 63 62 61 61 61 61 61 62 62 62 63 65 67 68 69 70 72 75 78 80 82 84 86 86 87 89 91 93 94 95 93 93 94 95 94 94 93 97 97 95 93 90 86 80 76 73 73 72 70 68 66 65 64 64 64 64 64 64 65 65 65 65 65 65 65 65 65 65 65 65 65 64 64 64 64 64 64 64 64 64 64 64 64 64 64 64 63 63 63 63 63 64 66 66 66 66 66 65 65 65 65 66 65 64 64 63 63 63 63 63 63 63 62 59 58 58 58 57 56 56 56 56 56 56 56 56 56 56 56 56 56 56 56 56 56 56 56 57 56 56 55 55 54 54 54 54 54 54 54 54 54 54 54 53 53 53 53 54 56 56 56 56 56 56 56 56 57 59 60 63 65 65 65 66 66 66 66 67 69 70 70 71 71 73 75 75 76 79 81 83 83 86 88 89 89 91 93 94 95 96 96 95 96 95 95 95 96 98 99 99 100 99 97 93 86 76 71 68 65 65 67 67 66 65 65 66 67 68 74 79 86 90 92 90 87 85 82 79 74 73 73 73 73 73 76 78 82 86 90 93 95 97 100 103 103 101 98 91 85 81 79 77 74 73 70 64 59 57 56 54 53 51 49 47 45 44 43 43 42 41 38 38 37 36 32 30 31 24 17 14 13 12 10 8 8 8 8 8 10 11 12 12 12 11 8 6 4 4 3 3 3 4 7 8 7 7 7 6 6 6 6 6 6 6 5 5 5 5 4 5 6 6 6 7 10 14 19 22 23 24 26 27 30 33 37 39 41 43 45 45 45 44 45 47 51 53 55 57 58 59 62 64 67 65 59 58 62 69 75 79 81 81 78 77 75 73 70 66 63 61 57 49 47 47 47 47 47 47 47 47 47 47 47 47 47 47 47 47 47 47 47 47 50 54 54 53 57 61 63 62 62 62 62 62 63 62 60 59 57 56 61 61 56 55 54 54 56 55 54 52 47 43 46 50 50 48 45 45 47 50 53 56 56 51 49 49 49 49 53 59 59 59 59 61 64 66 64 63 63 65 64 64 63 65 70 76 81 82 81 81 84 85 84 82 82 83 83 83 82 82 82 81 81 78 73 69 64 61 58 56 57 58 56 54 51 49 47 42 29 20 16 15 15 15 15 15 15 15 15 15 15 15 15 15 15 15 15 15 15 15 15 15 15 15 15 17 17 18 19 18 18 17 17 17 17 17 17 17 17 17 17 17 17 17 18 19 19 19 19 20 20 24 31 36 42 48 47 42 36 39 44 45 43 44 48 53 58 62 63 64 66 64 61 55 51 44 37 30 31 38 43 44 44 42 41 41 46 51 53 59 63 63 59 55 53 51 52 50 48 50 54 58 57 53 47 41 36 30 27 28 30 30 29 26 24 23
34 36 38 41 42 41 41 42 42 39 35 34 34 34 34 33 33 33 33 33 33 33 35 36 37 37 38 39 39 40 41 41 40 40 39 38 38 38 38 38 38 38 38 38 38 38 38 38 38 38 39 40 40 41 42 42 42 41 41 40 40 40 42 45 49 51 54 55 56 57 58 58 57 53 56 59 61 61 61 60 60 60 61 62 62 62 63 63 63 63 62 60 58 55 55 57 62 63 62 62 62 61 59 58 59 59 60 60 61 61 61 61 60 60 60 60 60 60 61 61 61 61 61 62 62 60 58 60 63 63 62 57 53 53 53 54 55 56 58 59 61 63 63 63 65 64 63 62 61 60 57 55 55 55 55 55 55 57 59 62 64 65 69 73 76 77 79 81 81 82 82 82 82 81 79 77 77 77 79 79 80 81 81 80 78 77 75 75 75 75 75 75 76 75 74 74 74 74 74 72 71 70 69 69 69 68 68 68 68 68 68 68 67 67 67 67 68 69 69 70 70 71 73 73 73 73 72 71 71 71 71 70 67 65 63 61 60 59 59 59 59 59 59 59 59 59 59 59 59 59 59 59 59 59 59 59 58 58 58 59 59 61 62 60 60 60 60 60 61 61 61 62 62 63 63 63 63 62 62 62 62 62 61 61 60 60 60 60 60 61 61 61 61 61 61 61 61 61 61 60 60 60 59 59 59 59 59 58 58 59 58 57 55 55 56 56 58 61 68 69 67 66 65 65 64 63 62 61 60 60 60 60 60 62 62 62 62 64 66 67 68 69 72 75 77 80 82 84 86 88 90 91 93 95 97 98 96 95 93 93 92 92 91 93 93 92 91 87 82 77 74 72 71 70 68 66 65 65 64 64 64 64 64 64 65 65 65 65 65 65 65 64 64 64 64 64 64 64 64 64 64 64 64 64 64 64 64 64 64 63 63 63 63 63 62 62 62 64 66 66 67 67 67 66 66 66 66 66 65 65 64 64 64 63 63 63 63 62 62 60 58 58 58 57 56 56 56 56 56 56 56 56 56 56 56 56 56 56 56 57 57 58 57 57 56 54 54 54 54 54 54 54 54 54 54 54 54 54 54 54 53 53 53 55 56 56 56 56 56 56 56 56 57 59 61 63 64 63 64 65 65 65 66 68 69 70 70 71 72 73 74 75 76 78 81 82 83 86 88 90 90 92 94 95 96 96 96 95 95 94 94 94 95 96 96 97 98 97 95 90 83 74 71 68 66 67 67 68 68 67 66 66 66 67 74 79 86 89 92 90 86 83 82 78 73 73 73 73 73 73 74 77 79 81 85 89 90 90 94 98 98 97 94 90 84 81 79 76 72 72 70 64 59 58 56 54 53 52 50 48 46 45 44 44 43 41 38 38 38 38 32 28 28 22 16 13 12 11 10 8 8 8 8 8 10 11 12 12 11 8 4 3 3 3 3 3 3 3 4 6 5 5 5 5 5 5 5 5 5 6 5 5 5 5 4 5 6 6 7 8 11 14 19 22 22 24 26 27 30 33 37 39 40 42 43 44 44 44 44 44 46 47 50 53 54 57 60 61 64 64 61 57 59 66 74 77 78 79 78 77 75 73 70 64 60 55 50 47 47 47 47 47 47 47 47 47 47 47 47 47 47 47 47 47 47 47 47 47 48 53 55 56 61 64 65 64 63 62 62 62 61 60 59 58 57 56 59 59 56 54 51 51 52 52 53 52 47 42 43 45 49 50 47 44 47 50 55 57 57 52 49 49 49 49 51 59 60 60 60 60 64 63 62 62 62 63 62 62 62 63 67 72 77 79 78 79 85 86 84 83 82 83 84 84 83 82 82 81 80 75 70 66 63 61 58 56 56 57 55 53 51 49 47 43 31 23 17 15 15 15 15 15 15 15 15 15 15 15 15 15 15 15 15 15 15 15 15 15 15 15 15 16 17 17 17 17 17 17 17 17 17 18 18 18 18 18 17 17 17 17 18 19 19 19 19 20 21 24 32 38 44 47 47 42 35 34 38 40 39 38 44 50 54 59 63 64 65 65 62 53 46 38 32 30 33 42 45 43 43 42 40 41 45 49 53 58 62 61 60 57 56 54 56 55 51 50 51 54 55 51 46 44 42 39 33 32 36 38 37 33 28 23
38 42 44 46 45 46 48 50 49 43 37 35 34 34 34 34 33 33 33 33 33 33 33 34 34 35 36 37 38 40 42 42 41 40 40 39 38 38 38 38 38 38 38 38 38 38 38 38 38 38 38 39 39 40 40 40 40 39 39 40 40 41 43 45 48 50 52 54 55 57 58 59 59 55 54 59 60 60 60 60 60 61 61 62 62 62 63 63 63 63 62 60 58 55 55 58 62 62 62 62 62 61 60 60 60 60 61 60 60 60 60 60 60 60 60 60 60 60 60 60 60 60 60 62 62 61 60 62 63 63 60 55 52 53 53 54 55 56 57 59 62 63 65 65 66 65 65 64 64 63 61 59 58 59 59 59 57 57 58 60 62 65 69 74 77 78 79 81 82 83 83 83 83 83 81 79 78 78 79 80 80 80 79 78 76 75 74 74 74 74 75 76 77 77 76 75 75 75 74 73 71 70 69 69 69 69 68 68 68 68 68 67 67 67 67 67 68 69 70 71 71 72 73 73 73 73 73 72 71 70 70 70 66 63 63 61 60 59 59 59 59 59 59 59 59 59 59 59 59 59 59 59 59 59 58 58 58 58 58 59 59 61 62 60 60 60 60 60 61 61 61 61 62 62 62 62 63 62 62 61 61 61 61 60 60 60 59 59 60 60 60 61 61 61 61 61 61 61 61 61 60 59 59 59 59 59 58 59 60 64 64 60 56 55 55 56 58 62 68 68 64 63 62 62 62 61 61 60 60 60 60 60 60 61 63 63 63 64 65 67 68 69 72 75 77 79 82 84 87 89 92 93 96 97 100 101 99 95 93 92 92 92 90 91 89 88 86 82 78 75 73 72 70 69 67 65 65 65 64 64 64 64 64 64 65 65 65 65 65 65 65 64 64 64 64 64 64 64 64 64 64 64 64 63 63 63 63 63 63 63 63 63 63 62 62 62 62 64 66 67 67 67 67 67 66 66 66 66 66 65 64 64 64 63 63 63 63 62 61 60 57 57 57 56 56 56 56 56 56 56 56 56 56 56 56 56 56 58 58 58 57 57 56 55 55 54 54 54 54 54 54 54 54 54 54 54 54 54 54 53 53 53 53 55 56 56 56 56 56 56 56 56 56 58 60 62 63 63 63 64 65 65 66 68 69 70 70 71 71 72 73 74 76 78 80 82 83 85 87 90 91 92 94 95 96 95 95 95 94 94 93 93 93 93 93 95 95 93 90 85 79 73 71 69 68 68 68 69 69 68 67 66 66 67 74 79 86 89 92 89 86 83 81 78 73 72 72 72 72 72 73 75 76 77 81 84 83 83 88 91 92 92 89 86 82 80 78 72 68 69 67 63 59 58 56 55 54 53 51 50 48 46 45 44 43 41 38 37 38 38 31 26 24 21 17 13 11 10 9 8 8 8 8 9 10 11 11 11 11 6 3 3 3 3 3 3 3 3 3 4 4 5 5 5 5 5 5 5 5 6 5 5 5 4 4 5 6 7 9 10 12 14 19 21 22 24 25 27 30 34 37 39 41 41 42 44 44 44 44 44 44 44 46 49 52 55 57 58 60 61 61 57 56 62 69 74 76 78 77 76 73 70 67 62 58 52 47 47 47 47 47 47 47 47 47 47 47 47 47 47 47 47 47 47 47 47 47 47 47 51 55 58 63 65 65 65 65 62 62 62 62 61 60 58 56 55 56 57 55 54 52 51 50 50 53 51 46 41 41 42 46 49 48 44 46 50 55 58 58 55 51 48 48 48 50 56 61 60 60 60 63 62 63 63 63 62 61 61 61 62 64 68 74 77 76 79 84 87 84 84 83 83 84 84 83 82 81 81 78 73 69 65 63 62 59 56 56 56 55 53 52 50 49 44 34 29 20 16 15 15 15 15 15 15 15 15 15 15 15 15 15 15 15 15 15 15 15 15 15 15 15 16 16 16 17 17 17 17 17 17 17 18 18 18 18 18 17 17 17 18 18 19 19 19 19 20 20 23 30 37 40 42 44 41 33 31 33 35 36 33 35 43 47 53 58 61 62 63 61 52 42 37 31 29 33 40 41 39 40 40 40 42 44 47 49 52 54 56 58 57 55 55 56 57 53 51 50 51 52 50 46 46 46 44 39 35 38 42 44 41 35 28
43 48 50 51 48 51 54 53 52 46 39 36 34 34 34 34 34 33 33 33 33 33 33 33 33 34 36 36 38 40 43 44 43 42 41 40 39 39 39 38 38 38 38 38 38 38 39 38 38 38 38 38 38 38 38 38 39 39 39 40 41 44 46 46 48 49 50 51 53 55 57 59 59 57 54 56 59 60 60 60 60 61 61 62 62 62 62 62 63 63 63 60 57 55 56 58 62 62 62 62 62 61 61 61 61 61 61 60 60 60 60 61 61 62 61 61 61 62 62 60 60 59 59 61 61 60 60 62 62 59 57 53 52 53 53 54 55 56 57 60 63 64 66 67 67 66 66 66 66 66 65 62 61 63 65 63 62 60 58 59 61 66 72 75 77 78 79 80 82 83 84 84 84 84 82 81 80 79 80 80 80 79 78 76 75 74 74 74 74 74 76 78 79 78 77 76 76 74 74 72 71 70 69 68 68 68 68 67 67 67 67 67 67 67 67 67 68 69 71 72 73 73 74 74 74 74 74 73 71 70 69 68 65 63 63 63 61 59 59 59 59 59 59 59 59 59 59 59 59 59 59 59 59 59 58 58 58 58 58 59 59 60 60 59 59 59 60 60 60 61 61 61 61 61 61 62 62 62 62 61 60 60 60 60 59 59 59 59 60 60 60 61 61 61 61 61 61 62 62 62 61 59 59 59 59 59 58 59 63 69 70 64 57 55 55 55 58 62 65 65 62 62 62 61 60 60 59 59 60 60 60 59 59 61 63 63 64 64 65 67 67 68 71 75 76 78 81 83 87 90 93 95 98 100 103 103 102 97 93 92 92 91 89 88 85 86 84 79 76 74 72 71 68 67 65 65 65 65 64 64 64 64 64 65 65 65 65 65 65 65 65 64 64 64 64 64 64 64 64 64 64 64 64 63 63 63 63 63 63 63 63 63 62 62 62 62 63 64 66 67 67 67 68 67 67 66 66 66 66 65 65 65 64 63 63 63 63 62 60 58 57 57 57 56 56 56 56 56 56 56 56 56 56 56 56 57 58 59 58 57 56 56 56 55 54 54 54 54 54 54 54 54 54 54 54 53 53 53 53 53 53 53 53 54 55 55 55 56 57 56 56 56 56 57 59 61 61 62 62 63 65 65 66 67 69 70 70 70 71 72 73 73 75 77 79 81 83 85 87 90 90 91 93 94 96 95 95 95 94 94 93 93 91 90 89 91 90 87 84 80 76 73 71 71 69 69 69 69 69 68 67 67 67 67 74 79 86 90 92 89 85 82 80 77 73 72 71 71 71 70 70 73 74 74 77 78 75 77 82 83 84 85 83 82 79 77 75 67 64 64 62 61 59 58 56 55 54 54 52 50 48 47 46 44 43 41 37 35 35 34 28 24 23 21 19 13 10 10 8 8 8 8 8 9 10 11 11 11 11 5 3 3 3 3 3 3 3 3 3 3 3 5 5 5 5 5 5 5 5 5 5 5 5 4 4 5 6 8 11 12 13 14 18 20 22 24 25 26 30 34 37 40 41 42 42 44 44 44 44 44 44 44 44 46 50 52 53 54 56 58 58 56 54 57 63 69 72 74 75 74 69 65 63 61 59 55 48 47 47 47 47 47 47 47 47 47 47 47 47 47 47 48 47 47 47 47 47 47 48 53 57 59 63 63 63 65 67 65 63 62 63 62 61 58 55 54 54 54 54 53 54 54 51 50 52 51 47 41 41 41 42 44 45 43 45 48 51 55 57 57 52 48 48 48 49 52 58 61 63 62 62 62 66 66 66 62 61 61 61 62 64 66 70 73 74 78 83 86 84 84 84 83 84 85 84 82 81 79 75 73 71 66 62 61 59 56 56 57 56 54 52 53 54 48 38 33 23 16 16 15 15 15 15 15 15 15 15 15 15 15 15 15 15 15 15 15 15 15 15 15 15 16 16 16 16 16 17 17 17 17 17 18 18 18 18 18 17 17 18 18 19 19 20 20 20 20 20 21 27 32 33 35 37 37 31 28 29 30 33 32 28 32 37 44 49 53 54 55 60 52 41 38 32 27 30 33 35 36 37 38 40 44 48 49 48 48 49 51 54 54 53 53 53 54 54 52 50 48 48 49 46 45 46 45 43 39 38 44 45 44 39 35
46 49 50 49 49 54 55 53 51 45 40 37 35 34 34 34 34 33 33 33 33 33 33 33 33 34 35 35 36 39 41 43 43 42 41 40 40 39 39 38 38 38 38 38 40 41 42 41 41 40 39 39 39 38 38 38 39 41 41 42 44 46 48 48 49 50 50 50 51 53 55 57 59 59 54 53 58 59 59 59 60 61 61 61 61 62 62 62 62 62 62 60 58 56 57 59 61 62 61 61 61 61 61 60 60 60 60 60 60 61 63 65 66 66 65 64 63 64 63 62 59 58 58 59 60 59 59 58 56 55 55 53 53 53 53 55 56 56 58 61 64 66 66 67 67 67 68 67 68 69 68 67 66 67 69 67 65 62 60 60 62 68 75 77 78 78 79 80 82 83 84 85 85 85 84 83 82 81 81 81 80 79 76 74 74 74 74 74 74 74 77 80 81 81 79 77 76 74 73 72 71 69 68 68 68 68 67 67 67 67 67 67 67 67 67 67 68 70 72 73 74 74 74 74 74 76 76 75 72 70 68 67 64 63 63 62 61 59 59 59 59 59 59 59 59 59 59 59 59 59 59 59 58 58 58 58 58 58 58 58 58 59 59 59 59 59 60 60 60 60 60 60 60 60 60 61 62 62 62 60 59 59 59 59 59 59 59 59 60 60 61 61 61 62 62 62 62 62 63 63 61 59 59 59 59 59 58 60 65 71 73 67 59 55 55 55 58 60 62 62 62 62 61 60 60 59 59 59 59 60 60 59 59 61 63 63 64 64 65 67 67 68 71 74 76 77 80 83 87 91 94 97 100 102 105 105 104 98 93 89 89 87 87 83 80 84 83 78 74 72 71 70 68 67 66 66 65 65 65 65 65 65 65 65 65 65 65 65 65 65 65 64 64 64 64 64 64 64 64 64 64 64 63 63 63 63 63 63 63 62 62 62 62 62 62 63 64 65 66 67 68 68 68 68 67 66 66 66 66 65 65 65 64 63 63 63 63 63 62 59 57 57 57 56 56 56 56 56 56 56 56 56 56 56 57 57 58 59 57 57 56 56 56 56 55 55 55 54 54 54 54 54 54 54 53 53 53 53 53 53 53 53 53 53 54 55 55 56 56 56 56 56 56 56 58 59 60 61 61 62 63 64 66 68 69 69 69 70 70 72 72 73 73 75 78 80 81 84 87 88 89 90 92 93 94 95 95 94 94 94 93 93 91 88 86 86 86 82 80 77 74 72 71 71 70 70 70 70 69 68 68 67 67 68 74 79 85 90 90 87 85 82 80 77 74 71 70 70 70 69 68 70 71 71 71 71 69 71 75 76 77 78 78 77 75 73 70 64 60 58 58 58 58 58 57 56 55 54 53 51 49 47 46 44 42 40 36 34 33 30 27 24 23 23 20 13 10 9 8 8 8 9 9 9 10 11 11 11 10 5 3 3 3 3 3 3 3 3 3 3 3 5 5 5 5 4 4 4 5 4 4 5 4 4 5 6 7 9 11 12 13 14 17 20 21 23 24 26 30 34 37 40 41 42 43 44 44 44 44 44 44 44 44 46 48 49 49 50 52 54 54 53 52 54 57 61 65 67 69 68 64 62 61 61 62 59 51 47 47 47 47 47 47 47 47 47 47 47 47 48 49 51 48 47 47 47 47 47 50 56 61 61 62 62 63 67 70 71 69 66 63 62 60 57 54 53 51 52 52 52 55 55 51 50 53 52 47 41 41 41 41 41 42 41 42 43 45 49 53 55 52 47 47 47 48 51 57 63 68 66 65 65 70 70 66 62 60 61 61 62 64 65 67 69 72 75 80 82 82 83 84 84 84 85 84 81 79 76 73 72 72 68 63 60 58 56 56 58 58 57 55 58 60 55 43 36 27 19 16 16 15 15 15 15 15 15 15 15 15 15 15 15 15 15 15 15 15 15 15 15 16 16 16 16 16 16 17 17 17 17 17 18 18 19 19 18 17 17 19 21 23 24 24 22 20 20 20 20 24 27 29 30 31 31 28 27 27 27 29 31 27 27 29 34 38 41 42 43 51 48 39 33 29 25 26 28 33 36 39 39 40 46 52 54 48 48 49 53 56 56 56 54 54 53 53 52 51 49 47 47 45 44 46 45 45 41 38 42 44 42 40 38
46 47 47 47 49 54 55 51 48 44 41 38 36 34 34 34 34 34 34 33 33 33 33 33 33 34 34 35 35 37 38 40 41 41 41 41 41 40 40 39 39 40 41 41 42 44 45 46 46 45 44 43 43 41 40 40 41 44 46 47 48 49 49 50 51 51 51 50 50 52 54 56 58 59 57 52 55 58 58 59 60 61 61 61 61 61 62 62 62 62 62 60 59 57 58 59 60 61 61 61 61 61 61 60 60 60 60 60 64 66 67 69 68 68 65 64 63 63 62 61 58 56 56 56 56 55 54 52 52 52 55 55 55 55 54 55 56 57 59 62 65 67 67 68 69 69 70 69 70 72 73 72 70 69 70 70 67 63 61 61 64 71 77 78 78 78 79 80 82 83 86 87 87 86 86 84 84 83 82 81 80 79 77 75 74 74 75 75 75 75 77 80 83 84 83 78 76 74 72 72 71 69 68 68 68 67 67 67 67 67 67 67 67 68 68 68 69 71 73 74 75 76 75 75 75 76 77 76 74 71 68 67 65 64 62 61 60 59 59 59 59 59 59 59 59 59 59 59 59 59 59 59 58 58 58 58 58 58 58 58 58 59 59 59 59 60 60 60 60 60 60 60 59 59 60 60 62 61 61 60 59 59 59 59 59 59 59 60 60 61 61 62 62 62 62 62 62 63 65 64 61 59 59 59 60 60 60 62 68 73 74 69 59 55 55 56 59 61 62 62 62 61 61 60 59 59 59 59 59 59 59 59 59 60 62 63 64 65 66 67 68 69 71 74 76 77 79 82 87 92 95 98 101 104 106 107 105 99 93 86 83 81 82 78 77 80 80 76 72 71 71 70 69 68 68 67 66 65 65 65 65 65 65 65 65 65 65 65 65 65 65 65 65 64 64 64 64 64 64 64 64 64 63 63 63 63 63 63 62 62 62 62 62 62 63 64 64 65 67 67 68 68 69 68 67 67 67 66 66 65 65 65 64 63 63 63 63 63 62 61 59 57 57 56 56 56 56 56 56 56 56 56 56 57 57 57 57 57 57 57 57 57 57 57 57 56 56 55 54 54 54 54 54 54 54 53 53 53 53 53 53 53 53 53 54 54 55 55 55 55 55 55 56 56 57 58 58 59 60 61 63 65 67 68 69 69 69 69 70 71 72 72 73 73 76 78 81 83 84 85 87 89 90 91 91 92 93 93 94 94 93 93 92 89 86 84 83 79 77 75 73 72 71 71 71 71 70 69 69 68 68 68 68 70 75 78 83 89 88 85 83 81 80 78 74 71 69 68 68 67 67 68 68 68 67 67 66 66 68 69 69 71 72 72 70 69 65 62 57 56 56 56 56 57 57 56 56 55 54 52 50 48 46 44 40 38 36 34 33 31 28 25 23 22 19 13 10 9 7 7 8 9 9 9 10 10 11 11 8 4 3 3 3 3 3 3 3 3 3 3 3 4 5 6 5 4 4 4 4 4 4 4 4 4 6 7 8 10 12 13 14 14 16 19 21 23 24 26 30 33 37 40 42 42 43 45 45 45 45 45 44 45 45 45 46 47 47 47 49 50 51 51 51 52 53 55 60 62 63 63 62 62 63 63 64 60 55 51 49 47 47 47 47 47 47 47 47 47 47 51 52 53 49 47 47 47 47 49 52 57 62 62 64 63 64 69 71 74 73 70 64 60 59 56 53 51 50 50 50 52 54 52 49 49 54 52 46 40 40 40 42 42 41 41 41 41 41 43 47 51 50 46 46 46 47 52 58 66 72 72 71 69 73 73 68 62 59 60 60 62 63 64 65 67 70 73 76 79 81 83 84 83 83 83 83 81 77 74 72 71 70 68 65 61 58 56 56 56 58 58 58 61 65 65 52 40 32 24 20 19 18 16 15 15 15 15 15 15 15 15 15 15 15 15 15 15 15 15 15 16 16 16 16 16 16 16 16 16 16 17 17 18 18 19 19 19 18 19 23 27 30 32 31 29 25 22 20 20 23 25 27 29 29 28 27 27 27 27 27 28 27 27 27 28 30 31 32 33 38 40 35 28 26 24 24 26 32 37 41 39 40 45 51 55 50 50 52 58 61 62 63 61 60 55 52 52 51 50 47 46 44 44 46 44 43 39 38 39 41 41 40 40
44 47 48 49 51 54 53 49 46 43 41 38 36 35 34 34 34 34 34 33 33 33 33 33 33 34 34 34 34 35 36 37 39 39 40 40 41 41 41 40 41 42 43 44 45 47 49 50 50 49 48 48 47 45 44 43 45 48 50 51 51 52 51 52 53 53 52 51 51 52 54 55 56 58 58 53 53 55 58 59 59 60 61 61 61 61 61 61 61 61 62 61 59 56 56 56 59 60 60 60 60 60 60 60 60 60 60 61 66 68 69 69 66 64 61 61 61 61 60 59 55 53 53 53 52 52 51 51 51 52 54 52 54 57 57 58 59 60 61 63 65 67 68 69 71 71 71 70 72 74 76 77 72 70 70 71 68 65 62 63 65 72 76 77 77 77 78 80 82 84 87 89 89 88 87 86 85 84 84 83 82 80 79 76 74 74 76 75 75 75 77 80 84 85 85 80 76 73 73 72 71 70 68 67 67 67 67 67 67 67 67 67 67 68 68 69 70 73 75 76 77 77 76 76 76 76 77 77 75 72 69 67 65 64 62 60 59 59 59 59 59 59 59 59 59 59 59 59 59 58 58 58 58 58 58 58 58 58 58 58 58 59 59 60 61 61 59 59 60 60 60 60 59 59 59 60 62 60 59 58 58 58 59 59 59 59 60 60 61 62 63 64 63 63 63 62 64 65 65 64 61 59 59 60 60 61 62 65 70 74 73 67 59 55 56 58 60 62 62 62 62 61 61 60 59 59 59 59 59 59 59 59 59 60 62 63 65 66 67 68 69 70 71 74 76 77 79 82 87 92 95 98 102 106 107 107 104 98 93 86 81 78 77 75 74 75 75 72 71 71 71 70 69 69 68 68 67 65 65 65 65 65 65 65 65 65 65 65 65 65 65 65 65 65 65 65 65 64 64 64 64 64 63 63 63 63 63 62 62 62 62 62 62 62 63 64 64 65 67 67 68 68 68 68 67 67 67 66 66 65 65 65 64 63 63 63 63 63 63 62 61 58 57 56 56 56 56 56 56 56 56 56 56 57 57 57 57 57 57 57 58 58 58 58 57 56 55 55 54 54 54 54 53 53 54 54 53 53 53 53 54 54 53 53 53 54 54 54 55 55 55 55 55 56 57 57 57 58 59 60 62 65 67 68 68 68 68 68 70 70 71 72 72 73 75 77 79 79 80 83 84 86 87 89 88 90 92 93 95 95 95 94 92 89 86 83 81 78 75 73 73 72 74 73 71 70 70 69 68 68 68 68 68 72 75 76 78 84 85 84 82 81 80 78 74 70 68 67 67 67 66 66 66 66 65 65 63 63 63 63 63 65 66 67 66 64 61 59 56 56 56 56 56 57 58 57 57 56 55 53 51 49 46 44 41 39 38 36 35 32 30 26 23 21 17 14 11 8 6 6 8 9 9 9 9 9 10 7 4 3 3 3 3 3 3 3 3 3 3 3 3 4 5 5 4 4 4 4 4 4 4 4 4 5 6 7 9 11 12 14 15 14 15 18 21 23 24 26 31 34 38 41 43 43 44 45 45 45 45 45 45 45 45 45 46 47 47 47 47 49 50 51 51 52 52 53 57 61 63 65 64 64 64 63 62 60 57 55 53 51 47 47 47 47 47 47 47 47 48 53 54 53 49 47 47 47 49 52 55 58 62 64 65 65 65 68 69 72 72 69 64 60 58 55 52 50 49 49 49 51 51 48 47 49 52 48 43 40 40 40 43 43 42 41 41 41 41 41 42 45 48 46 45 45 46 52 61 69 74 75 73 71 72 74 68 61 59 58 58 60 61 62 64 67 70 73 74 78 82 83 83 82 82 83 82 81 77 74 73 72 71 69 65 63 60 56 56 56 56 58 59 63 69 71 62 45 36 29 26 24 22 19 16 15 15 15 15 15 15 15 15 15 15 15 15 15 15 16 16 16 16 16 16 16 16 16 16 16 16 16 16 17 18 19 19 20 21 24 28 33 36 39 39 36 32 27 22 20 23 25 27 29 29 27 27 27 27 27 27 27 27 27 27 27 27 26 27 27 30 31 30 26 24 23 23 24 30 34 36 37 38 40 46 51 49 49 52 57 61 62 64 64 64 59 54 50 49 49 47 46 44 42 45 43 41 38 38 38 40 42 42 43
47 51 53 53 55 55 53 48 45 43 41 39 37 36 35 35 34 34 34 34 33 33 33 33 33 33 34 34 34 35 35 36 37 38 38 39 41 41 41 42 42 44 45 46 48 49 51 53 53 53 52 51 50 49 48 46 48 52 54 53 53 54 53 54 54 54 53 52 51 51 53 53 54 56 58 55 52 53 56 58 59 60 60 60 60 60 61 60 60 61 61 61 59 56 53 53 59 60 59 59 59 60 60 60 60 60 60 62 65 67 66 64 62 60 59 59 60 60 59 58 54 52 52 51 51 51 52 52 52 52 51 51 54 59 61 63 64 64 65 65 66 68 69 70 71 72 72 72 72 74 77 78 74 71 71 71 69 67 64 64 65 70 74 76 76 76 77 80 83 86 88 90 89 88 88 87 86 86 85 84 83 81 80 76 74 74 76 75 74 75 77 80 84 85 85 81 76 74 74 73 72 70 68 67 67 67 67 67 67 67 67 67 68 68 68 69 70 74 76 78 78 78 78 77 77 77 77 78 76 73 70 67 64 64 62 60 59 59 59 59 59 59 59 59 59 59 59 59 59 58 58 58 58 58 58 58 58 58 58 58 58 59 59 60 60 60 59 59 59 60 60 60 59 59 59 60 61 58 58 58 58 58 59 59 59 59 60 61 62 65 66 66 65 65 64 64 64 65 65 64 61 59 60 61 62 62 63 67 71 71 70 63 57 55 56 58 60 62 62 62 62 61 61 60 60 60 59 59 58 58 58 58 59 61 62 63 65 67 68 69 70 70 71 74 75 76 78 82 87 92 95 98 102 105 106 105 103 97 91 87 81 76 74 73 72 72 71 71 70 70 70 70 70 69 69 69 68 66 65 65 65 65 65 65 65 65 65 65 65 66 66 66 65 65 65 65 65 64 64 64 64 64 64 63 63 63 63 62 62 62 62 62 62 63 64 65 65 65 67 68 69 69 68 68 67 67 67 66 66 65 65 65 64 63 63 63 63 63 63 63 62 59 57 57 56 56 56 56 56 56 56 56 56 57 57 57 57 57 59 59 60 60 60 59 58 56 55 54 54 54 53 53 53 53 53 54 54 54 54 54 54 55 53 53 53 53 53 54 54 54 54 54 54 56 57 56 56 56 58 59 61 63 65 66 66 67 67 67 68 69 70 71 72 74 75 76 77 76 77 80 81 81 82 85 85 89 93 95 98 98 98 95 93 89 86 82 82 80 74 74 74 74 76 75 72 70 69 69 68 68 68 68 70 72 74 74 75 78 81 82 81 80 78 75 71 69 67 67 67 65 65 65 65 65 64 63 62 64 61 60 60 61 62 63 62 60 58 57 56 55 56 56 56 57 59 59 58 57 55 53 52 50 48 45 43 40 39 37 35 33 31 28 24 20 16 14 11 7 6 6 8 9 9 9 8 8 8 4 3 3 3 3 3 3 3 3 3 3 3 3 3 4 4 4 4 4 5 5 5 6 6 7 7 7 7 8 11 12 13 15 17 17 17 19 21 23 24 26 31 37 40 42 44 45 45 46 46 46 46 46 46 46 46 46 46 47 47 47 48 50 51 51 51 52 52 53 56 61 65 66 65 65 63 61 61 60 58 56 56 55 48 47 47 47 47 47 47 47 52 55 54 53 49 47 47 49 52 55 58 61 63 65 66 66 66 65 65 67 66 65 62 59 57 55 52 50 48 48 48 50 48 47 47 48 48 44 41 40 40 41 42 43 42 43 44 44 41 41 41 41 43 43 43 44 45 49 58 67 74 74 72 70 69 70 64 59 59 58 57 58 59 62 63 65 68 70 72 76 81 82 79 79 81 80 80 79 77 73 71 72 72 71 67 64 61 56 56 56 56 59 62 66 71 70 64 50 40 33 30 28 26 23 18 16 16 15 15 15 15 15 15 15 15 15 15 15 16 16 16 16 17 16 16 16 16 16 16 16 16 16 15 16 17 19 20 23 26 29 33 37 41 46 47 44 39 33 29 24 24 26 27 28 28 27 27 27 27 27 27 27 27 27 27 27 27 26 26 26 26 26 25 24 23 23 23 23 27 30 32 34 36 37 44 48 46 47 47 51 54 56 59 62 62 61 58 52 51 49 47 46 44 41 42 42 40 38 38 38 39 42 44 45
53 55 57 57 57 56 52 47 45 43 41 40 39 37 36 35 35 34 34 34 33 33 33 33 33 33 34 34 34 35 35 36 36 37 38 39 40 40 41 42 44 46 47 49 51 52 54 55 56 55 54 53 52 51 50 48 50 54 55 55 55 55 55 56 56 55 54 53 52 52 52 53 53 53 55 55 53 52 54 58 59 60 60 60 60 60 60 60 59 58 60 61 59 57 54 55 59 59 57 58 59 59 59 59 59 59 59 61 63 64 62 60 60 60 60 60 60 60 59 59 54 52 52 52 52 52 52 51 51 51 51 54 58 62 65 67 67 67 67 67 68 70 71 72 72 73 73 75 74 74 76 79 76 72 72 71 70 69 66 64 65 68 72 75 75 76 77 80 83 87 90 90 90 89 89 88 87 86 85 85 83 82 80 76 74 74 75 74 74 74 77 81 83 84 83 82 78 76 76 75 73 70 68 68 68 68 67 67 67 67 68 68 69 68 69 70 71 74 77 79 79 79 78 77 77 77 78 79 78 75 71 67 63 61 61 59 59 59 59 59 59 59 59 59 59 59 59 58 58 58 58 58 58 58 58 58 58 58 58 58 58 59 59 59 59 59 59 59 59 59 59 60 59 59 59 59 59 57 57 58 58 58 58 59 59 59 60 62 64 67 68 68 66 65 65 65 65 64 64 62 61 60 62 64 63 62 64 68 70 69 66 59 55 55 57 58 60 61 61 61 61 61 61 60 60 60 60 60 58 57 58 59 60 61 62 64 65 67 69 70 70 71 72 74 74 76 78 82 86 91 95 98 101 104 104 102 100 96 91 87 80 74 71 70 70 70 70 70 70 70 70 70 70 69 69 69 69 67 66 65 65 65 65 65 65 65 65 65 65 66 66 66 66 65 65 64 64 64 64 64 65 65 64 64 63 62 62 62 62 62 62 62 62 63 64 65 65 66 67 68 68 68 68 68 67 67 67 66 66 65 65 65 65 64 64 64 64 64 63 63 62 61 59 56 56 56 56 56 56 56 56 56 56 57 57 57 57 57 59 60 61 61 61 58 56 55 54 54 53 53 53 53 53 53 53 54 54 56 56 55 53 53 53 53 53 53 53 54 54 54 54 54 54 56 56 56 56 56 56 58 58 60 61 62 63 65 66 67 67 69 70 71 72 74 74 75 77 74 73 75 77 77 78 80 84 88 94 99 102 101 100 98 96 91 86 83 86 85 79 75 74 75 77 77 73 70 68 68 68 68 69 70 71 72 74 74 75 76 79 80 79 78 74 72 69 68 68 67 67 65 65 65 65 64 64 64 64 68 63 58 57 58 59 59 58 57 56 55 55 55 55 56 56 57 59 60 59 57 56 53 52 50 49 47 44 41 40 38 37 35 34 32 24 18 13 11 9 7 6 6 7 8 8 8 7 7 6 3 3 3 3 3 3 3 3 3 3 3 3 3 3 3 3 3 3 5 6 6 5 9 9 10 11 11 10 9 13 14 14 16 18 19 19 20 21 23 24 26 32 39 42 44 45 47 47 47 47 47 47 46 46 46 46 47 47 47 48 48 49 50 51 51 51 52 53 56 58 61 63 64 64 63 61 61 60 59 58 55 54 53 48 47 47 47 47 47 47 49 55 55 54 53 49 47 48 50 54 58 61 63 64 65 66 66 65 63 61 61 60 60 58 56 55 54 51 49 47 47 47 48 47 47 47 47 47 41 40 40 40 41 41 42 42 44 46 46 43 43 42 41 41 41 42 44 45 47 52 61 71 73 72 69 67 65 60 55 57 58 57 56 59 62 62 63 66 67 70 73 76 79 76 75 78 77 76 74 72 70 68 67 70 70 68 66 62 56 56 58 61 64 68 71 71 66 62 53 43 36 32 32 31 28 23 18 16 15 15 15 15 15 15 15 15 15 15 15 16 16 16 17 18 18 16 16 16 16 16 15 15 15 15 15 16 18 21 25 30 32 36 41 46 50 53 52 47 41 35 30 28 29 29 28 27 27 27 27 27 27 27 27 27 27 27 27 27 26 26 26 25 25 24 23 23 23 23 23 24 26 28 30 33 35 40 43 41 42 44 48 51 54 58 61 62 64 62 58 55 52 48 46 44 41 40 40 40 39 38 38 38 42 44 45
57 58 59 59 59 56 51 47 45 44 42 41 40 39 37 36 36 35 35 35 34 33 33 33 33 33 34 34 34 35 35 36 36 36 37 38 38 40 41 43 45 47 49 51 54 56 57 58 58 57 56 54 52 52 51 49 50 52 54 55 56 57 57 57 57 56 55 55 55 54 54 53 52 52 53 55 54 52 53 57 59 60 60 60 60 60 59 58 57 56 59 61 60 59 59 59 59 58 54 56 58 59 57 57 57 57 58 60 61 61 60 61 61 61 61 61 61 60 60 59 54 52 52 52 52 52 52 51 51 51 55 60 63 65 67 68 69 69 69 69 70 71 72 73 73 74 75 78 76 75 77 79 79 74 72 72 71 71 68 65 65 69 73 75 75 76 77 80 83 87 90 91 90 90 90 89 88 87 85 84 83 81 79 76 74 73 73 73 73 74 77 81 82 82 81 81 78 78 77 77 75 71 69 69 69 68 68 68 68 68 69 71 72 71 71 71 72 75 78 80 80 80 78 77 77 77 78 80 78 76 72 67 61 59 59 59 59 59 59 59 59 59 59 59 59 59 59 58 58 58 58 58 58 58 58 58 58 58 58 58 58 58 59 59 59 59 59 59 59 59 59 59 59 59 58 58 58 57 57 57 57 58 58 59 59 59 60 62 66 68 67 66 66 66 66 66 65 64 63 61 61 61 64 68 66 63 64 67 68 66 62 57 56 56 57 57 58 59 60 61 61 62 61 60 59 59 60 60 58 57 59 61 62 63 64 65 66 67 69 70 71 71 72 74 74 75 78 81 85 90 94 98 100 102 100 98 96 94 90 85 78 72 69 69 69 69 69 69 69 70 70 70 70 69 69 69 69 68 66 66 66 67 67 67 66 65 65 65 66 66 66 66 65 65 65 64 64 64 64 65 65 66 66 64 64 63 62 62 62 62 62 62 62 63 64 65 65 65 67 67 68 68 68 68 68 67 67 67 66 65 65 65 65 65 65 64 64 64 63 63 62 62 59 56 56 56 56 56 56 56 56 56 56 57 57 57 57 57 58 60 61 60 60 57 54 53 53 53 53 53 53 53 53 53 54 54 54 55 55 55 53 53 53 53 53 54 54 54 54 54 54 54 54 54 55 55 55 56 56 56 56 57 58 59 60 64 65 65 66 69 70 71 72 73 73 74 75 73 71 71 74 75 77 79 84 88 94 101 103 103 103 101 98 91 87 85 88 89 86 80 77 76 76 76 73 70 68 68 68 68 70 72 73 73 74 74 75 77 79 79 76 75 72 71 69 69 68 68 67 66 66 66 65 64 64 64 66 67 63 60 57 56 56 56 56 55 55 54 54 54 55 55 55 57 59 60 59 57 55 53 52 50 49 47 45 43 41 39 38 37 36 34 27 18 12 9 7 6 6 6 6 7 7 6 5 5 5 3 3 3 3 3 3 3 3 3 3 3 3 3 3 3 3 3 4 6 6 6 6 12 13 13 14 16 15 15 17 17 16 17 19 21 21 21 21 23 24 26 32 40 44 45 46 48 49 49 48 48 48 48 47 47 47 48 48 47 47 47 49 50 50 51 51 52 53 57 59 59 59 61 62 61 61 60 59 58 57 53 52 50 47 47 47 47 47 47 48 51 55 55 55 54 51 47 48 52 55 60 62 63 65 65 65 65 63 61 58 55 55 55 54 53 52 52 50 49 46 46 46 46 46 47 48 48 47 41 40 40 40 40 40 40 42 44 45 45 45 46 47 43 42 41 41 43 44 46 48 57 65 70 71 69 65 62 57 52 51 53 55 55 57 60 60 60 64 65 67 70 71 74 73 72 73 72 72 71 68 67 66 65 66 67 68 68 63 56 56 59 64 70 71 75 72 66 62 54 44 37 34 35 35 33 28 21 17 15 15 15 15 15 15 15 15 15 15 15 16 17 18 20 23 23 20 19 17 16 16 15 15 15 15 15 15 18 22 28 33 34 38 44 51 53 56 57 53 48 42 36 34 33 31 28 27 27 27 27 27 27 27 27 27 27 27 27 27 26 25 25 25 24 23 23 23 23 23 23 24 25 26 28 31 33 35 36 36 37 45 53 59 61 61 61 61 65 65 63 59 55 48 46 43 41 40 40 40 39 38 38 38 41 42 42
60 60 61 61 60 58 52 48 47 45 44 42 41 40 38 37 37 36 35 35 34 33 33 33 33 33 34 34 34 35 35 35 35 35 36 37 37 39 41 43 46 48 50 52 55 57 60 61 60 58 56 54 53 52 52 50 50 51 53 54 56 57 58 58 57 57 57 57 58 58 57 55 54 52 52 54 55 53 53 56 58 59 60 60 60 60 59 58 54 54 59 61 60 60 60 61 59 55 52 54 57 57 55 53 54 56 56 58 60 60 62 63 62 61 61 61 61 61 61 59 53 52 52 52 52 52 51 51 51 55 60 64 66 66 67 68 70 70 70 71 72 73 74 74 74 75 77 80 80 79 79 80 80 76 75 74 73 72 68 65 67 71 74 75 75 76 77 80 83 87 90 91 91 90 90 89 89 87 85 83 82 80 78 75 73 72 72 72 73 73 76 80 82 80 79 79 77 77 77 77 76 72 70 70 70 69 69 69 69 70 71 73 75 74 73 73 74 77 80 81 81 81 79 77 77 77 77 78 77 74 70 64 60 58 58 58 58 59 59 59 59 59 59 59 58 58 58 58 58 58 58 58 58 58 58 58 58 58 58 58 58 58 58 58 58 58 59 59 59 59 59 59 59 59 58 58 57 57 57 57 57 58 58 59 59 59 62 64 65 66 65 65 65 65 65 65 65 64 61 61 61 64 69 72 69 63 64 65 66 63 59 56 56 56 57 57 58 59 60 61 62 61 60 59 59 59 59 59 58 58 60 63 64 65 65 66 67 68 70 71 71 72 72 74 74 75 77 80 84 89 94 98 99 98 96 96 94 93 89 83 77 72 69 69 69 69 69 69 69 69 69 69 69 69 69 69 68 68 67 67 67 69 70 70 69 68 67 67 67 66 66 65 65 65 65 64 64 64 64 64 66 66 66 65 65 65 64 63 62 62 62 62 63 63 64 65 65 65 67 67 67 67 68 68 68 68 68 67 66 66 66 67 68 67 65 65 65 64 64 63 62 62 60 57 56 56 56 56 56 56 56 56 56 56 56 56 56 56 57 58 60 58 57 56 54 53 53 53 52 52 52 52 52 53 54 54 54 54 54 53 53 53 52 52 53 54 54 54 54 53 53 53 53 54 54 54 55 55 55 55 56 56 56 57 57 61 62 64 65 68 69 70 70 70 71 72 73 72 71 71 73 76 79 82 84 88 95 101 103 105 107 104 99 92 90 87 88 92 91 86 84 82 76 74 73 70 68 68 68 69 72 75 74 74 74 76 76 78 79 78 74 72 71 71 71 69 68 68 68 68 68 68 68 66 66 66 66 66 64 63 60 56 54 53 54 53 53 53 53 54 54 55 55 56 58 59 59 57 55 53 52 50 50 48 45 43 42 40 40 39 38 36 31 22 13 9 7 6 5 5 5 6 6 5 4 4 3 3 3 3 3 3 3 3 3 3 3 3 3 3 3 3 3 4 5 6 6 6 7 14 16 16 17 19 19 19 19 19 18 19 20 21 21 21 22 23 23 25 32 40 44 46 47 50 50 51 50 50 49 49 48 48 49 49 48 47 47 47 47 48 49 50 51 52 53 56 57 57 57 61 63 62 61 59 58 56 54 52 50 48 47 47 47 47 47 48 51 53 54 56 56 55 52 47 48 51 54 60 62 63 65 65 65 65 62 59 55 53 53 53 54 53 51 51 50 48 46 45 45 44 44 48 49 49 46 40 40 40 40 40 40 40 41 42 42 42 43 47 51 49 46 42 41 41 43 45 46 52 60 66 69 68 65 61 56 50 47 47 51 54 57 59 59 59 62 63 66 68 69 71 71 70 70 69 69 69 67 65 65 64 64 65 65 66 64 57 56 57 62 69 72 78 75 68 63 52 43 35 34 38 39 37 31 24 18 15 15 15 15 15 15 15 15 15 15 15 17 19 22 26 29 29 26 24 19 17 16 15 15 15 15 15 15 19 24 30 35 35 39 46 54 57 58 60 58 55 48 42 39 37 33 28 28 27 27 27 27 28 30 29 28 27 27 27 27 26 24 24 24 24 23 23 23 23 25 26 27 30 31 33 34 33 33 34 34 37 48 58 67 70 69 64 62 61 62 63 60 56 48 46 43 41 40 40 40 39 38 38 39 42 42 41
61 60 60 59 57 55 51 49 48 48 46 44 42 41 39 39 38 37 36 36 35 33 33 33 33 33 35 35 35 35 36 35 35 35 35 35 36 37 38 40 42 45 48 51 55 57 59 61 61 60 57 55 54 54 54 53 52 53 54 55 55 58 58 58 59 59 59 59 59 59 59 57 55 54 53 53 55 54 54 54 56 59 60 60 60 60 59 59 53 53 58 61 61 60 60 60 56 52 51 54 57 56 55 54 54 55 56 57 59 60 62 63 62 62 62 62 62 63 61 58 53 52 52 52 52 52 51 51 52 57 61 65 67 67 67 69 70 71 72 73 74 75 76 76 76 76 78 82 83 82 81 81 81 79 78 77 74 72 67 66 67 71 74 75 76 77 79 81 84 88 91 92 91 90 90 89 88 86 84 82 80 78 76 73 73 72 71 71 72 73 76 78 80 79 78 78 77 77 77 77 76 73 72 73 71 71 71 71 71 71 73 76 77 77 76 76 76 79 82 83 83 82 81 79 78 78 76 75 73 70 66 61 59 58 58 58 58 59 59 59 59 59 59 59 58 58 58 58 58 58 58 58 58 58 57 57 57 57 57 58 58 58 58 58 58 58 59 59 59 59 59 59 59 59 58 58 57 56 57 57 57 58 58 59 59 60 64 66 65 65 66 66 65 64 64 63 63 63 61 62 65 70 76 77 71 65 65 65 64 61 57 56 56 56 57 57 58 58 60 62 62 61 59 59 59 59 59 59 59 59 60 62 65 66 66 66 67 68 70 71 71 72 73 74 74 74 77 80 83 88 92 95 96 95 95 95 94 91 89 82 76 72 69 69 69 69 69 69 69 69 69 69 69 69 69 69 68 68 68 68 68 71 72 72 71 70 69 69 69 69 66 65 65 65 65 64 64 64 64 64 65 65 65 66 66 65 65 64 62 62 62 62 63 64 65 65 65 66 67 67 67 67 68 68 68 68 68 68 68 68 69 70 71 70 68 65 65 65 63 63 62 62 60 58 57 56 56 56 56 56 56 56 56 56 56 56 56 56 56 56 57 56 56 55 54 53 53 53 52 52 52 52 52 52 54 54 54 54 53 53 53 53 52 52 53 54 54 54 54 53 53 53 53 53 54 54 54 55 55 55 55 55 56 56 56 58 59 61 63 66 68 68 68 68 69 71 71 71 71 71 72 77 81 84 86 89 96 101 104 109 110 106 100 95 93 89 88 92 92 90 90 88 80 73 70 68 68 68 68 69 74 78 78 78 78 79 78 77 76 74 72 71 71 71 71 69 69 69 69 69 69 70 70 70 70 70 69 69 68 66 62 59 54 52 52 51 52 52 53 54 54 54 54 56 58 58 58 57 55 52 51 50 50 48 46 44 43 42 42 41 40 38 34 28 16 10 6 5 5 5 5 6 6 5 3 3 3 3 3 3 3 3 3 3 3 3 3 3 3 3 3 3 4 5 6 7 10 10 11 16 18 18 18 19 20 20 20 20 20 20 21 21 21 22 22 23 23 24 29 38 44 45 48 52 52 52 52 52 52 50 50 50 50 50 48 47 47 47 47 47 48 50 52 52 53 55 56 56 57 61 63 62 60 57 55 53 51 49 48 47 47 47 47 47 47 50 53 53 55 58 58 56 52 45 46 50 53 57 61 62 64 65 64 63 60 58 55 53 54 56 56 54 52 51 50 47 46 45 44 42 42 47 49 47 44 40 40 40 40 40 40 40 40 40 40 40 41 45 53 54 50 44 41 41 43 45 46 48 56 62 65 67 64 58 53 50 46 46 48 54 57 59 59 59 60 62 65 67 70 72 71 70 69 69 68 67 67 65 65 64 63 63 63 63 62 58 56 56 59 66 70 77 76 66 59 48 40 35 36 40 42 39 32 24 18 15 15 15 15 15 15 15 15 15 15 15 17 21 24 29 33 34 32 29 23 17 16 15 15 15 15 15 15 19 26 31 34 35 38 46 55 59 60 61 61 60 54 48 44 40 34 28 28 27 27 28 30 32 34 34 32 29 27 26 26 26 24 23 23 23 23 23 23 25 30 33 35 37 39 40 41 38 37 36 35 39 47 56 65 73 74 71 67 61 59 59 58 54 48 47 45 40 40 40 40 40 40 39 42 45 45 45
58 56 56 54 52 50 49 50 49 50 48 46 44 42 40 40 40 38 37 36 36 34 33 33 33 33 34 35 35 35 36 35 35 35 35 34 34 34 35 35 37 39 43 48 52 54 56 60 61 61 58 56 56 56 56 55 54 55 56 56 56 58 58 59 60 60 60 60 60 59 58 56 55 55 54 53 54 54 54 53 56 59 60 60 60 60 60 60 57 56 58 61 61 60 60 58 54 52 51 53 55 56 58 58 57 58 57 57 58 59 60 61 62 62 62 62 63 64 62 58 54 53 52 51 51 51 51 52 54 57 61 65 67 67 68 70 71 72 73 74 75 76 77 77 78 77 79 81 83 83 82 81 81 80 79 78 74 69 66 66 67 69 72 75 77 79 81 83 86 89 92 92 91 90 90 88 87 84 82 80 77 75 74 73 72 71 71 71 72 73 76 78 80 78 77 77 77 77 77 77 76 74 75 75 73 72 72 72 72 73 75 78 79 79 79 79 79 81 83 84 86 85 83 82 80 79 75 71 68 64 62 59 58 58 58 58 58 59 59 59 59 59 59 59 58 58 58 58 58 58 58 58 57 57 57 57 57 57 57 57 57 57 58 58 58 58 58 59 59 59 59 59 59 59 58 58 56 56 57 57 57 57 58 59 59 61 64 66 66 68 70 70 67 65 63 63 63 62 65 68 71 76 82 80 72 67 66 66 64 60 56 55 56 56 57 57 57 58 60 62 62 59 58 59 58 58 58 58 59 59 59 60 64 65 66 67 68 69 70 71 71 72 73 74 74 74 76 79 82 85 88 89 93 94 95 95 93 90 86 79 74 71 69 69 69 69 69 69 69 69 69 69 69 69 69 69 68 68 68 69 70 73 74 74 73 72 71 71 71 71 68 65 65 65 65 64 64 64 63 63 63 64 64 65 64 64 64 63 62 62 63 63 64 64 65 65 65 66 67 67 67 67 68 68 68 69 69 69 69 71 73 75 75 74 71 67 65 65 64 62 62 61 59 57 57 57 57 56 56 56 56 56 56 55 55 55 55 55 55 55 55 55 55 55 54 53 53 53 52 52 51 51 51 52 53 55 54 54 53 53 52 52 52 52 52 53 53 53 53 53 53 53 53 53 54 54 54 54 54 55 55 55 55 55 56 56 57 58 60 63 67 68 66 66 68 69 69 70 71 71 73 78 83 85 87 90 97 102 105 110 111 106 101 97 95 91 86 87 90 92 91 89 83 74 68 68 68 68 68 71 75 80 82 82 82 81 79 76 74 72 72 71 71 71 70 69 69 69 69 69 69 70 70 71 73 72 71 71 71 69 66 61 56 52 50 50 51 51 52 53 53 53 54 55 57 57 57 57 54 52 51 50 50 48 46 45 44 43 43 41 41 38 34 29 19 11 5 5 4 4 4 5 5 4 3 3 3 3 3 3 3 3 3 3 3 3 3 3 3 3 3 4 5 6 7 10 15 16 15 18 18 19 19 19 20 21 20 20 22 22 21 22 22 22 22 22 23 23 27 35 42 43 49 53 54 55 55 55 55 53 51 51 51 50 49 47 47 47 47 47 48 50 52 53 54 55 56 56 57 61 63 62 59 56 53 50 48 47 47 47 47 47 47 47 49 51 53 53 58 60 59 57 51 44 44 46 50 55 60 61 63 63 61 60 59 57 57 56 56 57 56 54 53 52 50 47 44 43 43 41 41 44 46 45 41 40 40 40 40 40 40 40 40 40 40 40 40 45 53 55 51 45 42 42 43 45 45 45 50 56 59 63 63 56 52 50 47 46 47 51 56 57 58 59 62 64 66 68 71 73 71 70 70 69 68 66 66 65 65 64 63 62 62 62 61 58 56 59 63 66 69 73 72 62 55 47 41 37 40 43 43 39 32 23 17 15 15 15 15 15 15 15 15 15 15 15 17 22 24 27 29 34 36 35 29 21 16 15 15 15 15 15 15 18 28 31 33 35 37 44 52 57 60 61 61 61 58 51 46 41 33 27 27 28 29 30 32 35 38 39 39 37 33 28 26 26 24 23 23 23 23 23 24 28 36 40 41 43 44 46 47 47 44 41 38 39 46 52 58 67 69 68 67 62 59 55 53 50 49 48 44 39 39 39 39 39 40 40 42 45 46 46
54 52 51 50 49 49 49 51 51 51 50 47 45 43 42 42 40 38 38 37 36 34 33 33 33 33 34 35 35 36 36 35 34 34 34 34 34 34 34 34 34 36 39 43 47 49 51 57 60 60 59 58 58 58 57 56 56 57 58 58 58 59 59 60 61 62 62 61 60 59 57 56 56 56 56 55 54 54 55 53 54 58 60 60 60 60 60 60 59 59 59 61 60 60 59 56 54 53 51 50 51 54 58 59 59 59 58 59 59 60 60 61 62 62 62 63 64 64 63 61 58 55 54 53 52 51 52 53 56 59 63 65 67 68 70 72 75 75 76 75 76 78 78 79 80 79 79 79 79 80 79 77 77 77 76 75 71 67 67 67 67 67 71 75 77 79 82 85 88 91 92 92 91 90 89 86 84 81 78 77 75 73 72 72 72 71 71 71 72 73 75 77 78 77 77 77 77 77 77 77 77 76 77 77 75 74 74 74 74 75 76 78 81 81 81 81 81 83 85 86 88 88 86 84 82 78 74 67 64 60 59 58 58 58 58 58 58 59 59 59 59 59 59 59 58 58 58 58 58 58 58 57 57 57 57 57 57 57 57 57 57 57 58 58 58 58 58 59 59 59 59 59 59 59 58 58 56 56 57 57 57 57 57 59 59 61 64 66 68 70 72 73 70 65 64 63 64 65 70 74 77 82 85 81 72 68 67 66 65 61 56 55 56 56 57 57 57 58 59 61 60 57 57 59 57 57 57 58 59 59 59 59 62 64 66 67 68 69 71 72 72 72 73 74 74 74 75 78 81 82 84 84 89 92 94 94 92 90 83 77 72 70 69 69 69 69 69 69 69 69 69 69 69 69 69 69 68 69 71 73 74 75 76 75 74 73 73 73 72 71 70 66 65 65 64 64 64 64 63 63 63 63 62 62 62 62 62 62 62 62 63 63 64 65 66 66 66 66 67 67 68 68 68 69 69 69 70 71 71 73 77 79 79 77 74 71 67 66 64 63 61 60 59 57 57 57 57 56 56 56 56 56 55 55 54 54 54 55 55 54 55 55 55 55 54 54 54 53 52 52 51 51 51 51 53 55 56 54 53 53 52 52 52 51 51 51 52 52 52 53 53 53 53 53 54 54 54 54 54 55 55 55 55 55 56 56 56 57 58 61 64 66 66 66 67 69 70 70 71 73 77 81 84 86 88 92 98 102 105 107 108 106 103 99 97 93 86 82 88 90 88 86 80 72 68 68 68 68 70 74 77 82 84 83 83 81 78 76 74 73 72 71 71 71 70 69 69 69 69 69 69 70 70 71 73 73 73 73 73 72 69 63 58 54 49 48 50 50 51 52 52 51 52 54 55 56 57 56 53 52 52 51 50 49 47 45 44 43 43 41 41 38 33 28 20 12 5 5 4 3 3 3 4 3 3 3 3 3 4 3 3 3 3 3 3 3 3 3 3 3 4 5 5 6 8 11 16 17 17 18 18 17 20 20 21 22 22 22 24 24 23 22 22 22 22 22 23 23 25 32 40 42 49 53 55 57 57 57 57 55 53 52 51 50 48 47 47 47 47 47 48 50 52 53 54 56 56 58 59 62 64 62 58 54 50 47 47 47 47 47 47 47 47 49 50 52 53 54 59 61 59 56 50 44 44 44 46 51 56 59 60 61 59 59 59 58 58 57 57 57 55 54 53 50 48 46 44 43 42 41 41 42 43 42 40 40 40 40 40 40 40 40 40 40 40 40 40 47 52 52 52 46 43 43 43 44 44 44 45 49 53 57 58 54 51 50 48 46 46 48 52 53 56 60 65 69 70 72 74 75 75 75 73 71 70 67 65 65 65 65 63 62 61 61 61 60 59 64 67 67 66 68 68 59 54 48 44 42 44 46 44 40 30 21 16 15 15 15 15 15 15 15 15 15 15 15 17 23 24 24 24 28 35 38 34 27 19 15 15 15 15 15 15 17 27 31 33 35 35 40 46 51 58 61 60 61 58 51 45 37 30 26 26 27 29 31 33 36 39 42 46 46 43 36 30 27 25 23 23 23 23 25 30 34 42 45 46 47 48 50 52 55 53 50 42 38 42 46 53 59 59 57 56 55 56 52 50 48 48 47 43 39 39 39 39 39 40 40 40 42 43 43
