ncols         746
nrows         32
xllcorner     -72.4100811111
yllcorner     42.26104
cellsize      1.0E-5
NODATA_value  -9999
160 160 160 160 160 160 160 160 160 160 160 160 160 160 160 160 160 160 160 160 160 160 160 160 160 160 160 160 160 160 160 160 161 168 171 176 178 184 193 200 207 215 222 231 238 244 247 250 255 264 273 283 296 305 311 317 321 325 327 331 332 332 333 334 335 334 334 334 333 332 331 329 326 325 323 321 319 317 314 311 309 306 303 299 295 291 288 285 282 278 271 267 268 273 275 278 279 280 280 277 276 274 269 269 271 270 268 262 257 258 257 257 261 265 272 279 284 288 291 295 301 297 280 259 240 227 217 208 201 194 189 184 179 176 176 180 183 179 176 172 167 162 160 159 160 160 159 159 159 161 167 173 177 180 172 159 159 159 160 160 160 160 160 160 160 160 160 160 160 160 160 160 160 160 160 160 160 160 160 160 160 160 160 160 160 160 160 160 160 160 160 160 160 160 160 160 160 160 160 160 160 160 160 160 160 160 160 160 160 160 160 160 160 160 160 160 160 160 160 160 160 160 160 160 160 160 160 160 160 161 162 163 164 168 172 177 178 173 164 159 160 160 160 160 160 160 160 160 160 160 160 160 160 160 160 160 160 160 163 167 170 172 174 176 176 175 173 170 168 166 164 163 162 161 161 161 161 161 163 164 163 159 159 159 160 160 160 160 160 160 160 160 160 160 160 160 160 160 160 160 160 160 160 160 160 160 160 160 160 160 160 163 166 168 169 169 167 169 173 177 181 183 185 187 188 190 195 196 192 189 182 176 173 173 177 184 199 210 216 215 214 213 210 204 199 197 198 196 196 193 191 190 189 186 181 175 169 166 163 163 166 167 172 179 181 182 185 189 192 195 197 196 192 189 184 178 176 173 169 164 161 160 160 160 160 160 160 160 160 160 160 160 160 160 160 160 163 172 179 181 183 184 184 182 177 173 170 167 166 166 166 164 163 163 163 163 163 163 163 164 166 171 175 178 180 183 188 190 193 197 202 205 209 213 219 224 227 230 234 238 242 245 247 247 245 243 241 241 241 241 241 243 245 247 249 249 248 247 246 246 246 246 246 246 246 247 250 254 262 269 275 282 288 292 296 299 301 299 299 303 308 314 318 320 322 322 317 310 307 305 303 303 303 303 301 298 296 295 295 295 295 295 295 295 295 295 295 295 295 296 299 304 310 311 313 315 315 314 312 310 309 308 307 308 308 308 307 306 305 305 304 304 304 304 304 304 306 312 316 320 325 330 335 338 338 338 339 340 340 340 341 342 345 344 341 340 337 332 327 323 319 317 316 316 316 316 316 316 316 317 319 321 322 324 326 328 329 331 332 332 330 328 324 320 317 313 309 306 304 302 299 297 296 295 295 295 294 292 290 291 294 297 298 297 298 299 298 295 294 291 289 288 288 288 289 289 289 287 286 284 282 282 282 282 284 286 290 294 297 300 301 302 302 299 299 302 303 303 302 301 300 300 301 302 304 307 310 308 305 301 300 300 300 300 299 299 298 296 294 289 286 283 281 277 274 273 273 271 267 264 262 260 259 260 264 266 267 267 270 272 273 272 273 275 278 281 286 291 296 300 302 303 302 298 295 293 287 278 271 267 267 267 268 271 273 272 272 273 273 272 270 267 265 263 261 260 258 257 255 251 248 244 241 237 233 228 223 218 216 216 216 215 215 214 211 207 203 200 198 197 197 196 195 192 190 187
160 160 160 160 160 160 160 160 160 160 160 160 160 160 160 160 160 160 160 160 160 160 160 160 160 160 160 160 160 160 160 160 159 165 169 175 178 185 193 200 208 217 225 231 239 245 248 250 255 263 271 281 293 304 310 316 321 325 328 331 332 333 333 334 335 334 334 334 333 333 332 330 328 326 324 322 320 318 316 314 310 308 305 302 298 293 289 286 283 279 273 267 264 268 273 277 279 280 279 276 274 270 266 267 269 266 263 258 255 256 256 257 258 261 267 273 278 283 286 291 297 293 278 256 240 227 217 208 202 194 189 186 181 177 174 176 180 179 175 170 165 161 160 159 160 160 159 159 159 159 164 169 173 173 165 159 159 159 160 160 160 160 160 160 160 160 160 160 160 160 160 160 160 160 160 160 160 160 160 160 160 160 160 160 160 160 160 160 160 160 160 160 160 160 160 160 160 160 160 160 160 160 160 160 160 160 160 160 160 160 160 160 160 160 160 160 160 160 160 160 160 160 160 160 160 160 160 160 160 160 161 162 164 168 173 179 183 179 170 162 159 160 160 160 160 160 160 160 160 160 160 160 160 160 160 160 160 160 163 167 169 171 172 172 172 171 170 169 166 163 162 161 161 161 161 161 161 161 162 164 162 160 160 160 160 160 160 160 160 160 160 160 160 160 160 160 160 160 160 160 160 160 160 160 160 160 160 159 159 159 162 166 167 169 170 171 169 170 173 177 180 183 184 186 186 189 194 194 190 186 180 176 173 172 175 182 194 204 212 210 206 202 200 195 190 190 189 189 189 187 184 184 185 180 176 171 166 165 162 162 163 166 170 173 175 178 183 187 191 194 193 190 187 183 178 174 172 168 165 162 160 160 160 160 160 160 160 160 160 160 160 160 160 160 160 160 166 175 179 184 187 189 187 184 179 175 171 168 167 167 166 163 163 163 163 163 163 163 163 164 166 169 175 178 179 182 186 190 194 199 203 208 212 217 224 227 230 233 237 240 243 246 248 248 247 243 241 241 241 241 241 243 245 247 247 247 247 246 245 245 245 245 245 245 245 247 249 254 262 269 276 283 288 292 296 297 297 297 300 303 308 315 319 322 324 322 314 307 303 302 300 300 300 300 298 296 295 295 295 295 295 295 295 295 295 295 295 295 296 296 299 303 308 309 311 314 315 314 311 308 307 306 305 305 305 305 305 305 304 304 304 304 304 304 304 304 307 312 316 320 325 330 335 337 337 338 339 340 340 340 341 343 345 343 341 340 336 331 326 323 319 317 316 315 314 314 314 314 315 317 318 319 321 323 325 327 329 331 332 332 331 329 325 321 317 312 310 307 305 304 301 299 297 296 295 295 293 291 289 290 294 296 296 296 298 298 297 294 292 289 287 287 287 288 289 289 289 288 286 284 283 282 282 282 283 285 289 292 294 296 298 298 298 296 297 299 299 299 299 299 298 298 298 299 301 303 307 307 304 300 299 299 300 300 299 299 297 296 293 288 284 283 281 277 272 270 270 268 265 262 260 258 259 260 263 266 266 266 269 273 273 272 272 275 277 281 286 291 296 300 302 302 301 297 295 294 287 276 268 265 266 267 268 271 273 273 273 273 274 272 271 268 266 264 262 260 258 256 254 250 248 245 241 237 233 228 222 218 213 211 212 212 211 210 208 205 202 199 197 196 195 195 194 192 190 187
160 160 160 160 160 160 160 160 160 160 160 160 160 160 160 160 160 160 160 160 160 160 160 160 160 160 160 160 160 160 160 160 159 164 168 173 178 188 195 203 210 219 227 233 240 246 248 249 253 261 270 279 291 302 309 316 321 325 328 331 333 333 334 334 335 334 334 334 334 333 332 331 329 328 326 324 322 320 317 314 311 309 307 303 299 295 290 287 285 281 276 269 264 264 270 275 278 279 278 275 272 267 263 265 265 262 260 256 254 255 254 255 256 258 263 266 271 275 280 286 291 288 273 254 239 227 217 207 202 197 190 187 182 178 173 173 176 177 175 169 164 160 159 159 160 160 160 160 159 159 161 166 170 168 161 159 159 159 160 160 160 160 160 160 160 160 160 160 160 160 160 160 160 160 160 160 160 160 160 160 160 160 160 160 160 160 160 160 160 160 160 160 160 160 160 160 160 160 160 160 160 160 160 160 160 160 160 160 160 160 160 160 160 160 160 160 160 160 160 160 160 160 160 160 160 160 160 160 160 160 160 161 163 167 173 181 185 183 175 165 159 160 160 160 160 160 160 160 160 160 160 160 160 160 160 160 160 160 165 169 169 170 170 169 169 169 168 166 163 162 161 161 161 161 161 161 161 161 162 163 162 160 160 160 160 160 160 160 160 160 160 160 160 160 160 160 160 160 160 160 160 160 160 160 160 160 160 159 159 161 164 167 169 170 172 173 171 170 173 176 179 182 183 185 185 187 193 192 188 184 179 176 172 171 173 178 188 197 203 203 199 195 189 186 183 181 180 181 182 180 178 178 179 176 172 166 164 163 162 162 162 164 166 169 172 176 181 185 188 189 187 184 181 179 175 171 169 165 162 162 160 160 160 160 160 160 160 160 160 160 160 160 160 160 160 160 167 176 180 186 190 191 189 185 180 176 172 168 168 166 164 163 163 163 163 163 163 163 163 163 165 168 174 178 178 181 186 190 194 199 204 209 215 221 225 228 232 235 238 241 245 247 249 250 249 244 241 241 242 242 242 243 245 246 245 245 245 245 245 245 245 245 245 245 245 246 248 252 260 268 275 281 286 290 292 294 296 295 298 303 308 314 320 323 324 319 310 303 301 299 298 297 297 297 296 295 295 295 295 295 295 295 295 295 295 295 295 296 296 296 299 302 306 308 310 313 314 312 309 307 305 305 305 304 304 304 304 304 304 304 304 304 304 304 304 304 307 312 316 320 325 330 335 337 337 338 339 339 340 340 341 343 343 341 340 339 336 330 326 323 319 317 315 314 314 314 313 313 314 315 317 318 321 323 325 327 329 331 332 332 332 330 325 321 317 312 310 307 306 305 302 300 299 296 296 295 293 291 289 289 291 292 293 294 295 295 294 292 290 288 287 287 287 288 289 289 289 288 286 284 283 282 282 282 282 285 289 291 292 293 294 295 295 294 295 296 297 297 298 297 297 297 296 296 298 300 304 305 303 299 299 299 299 300 299 299 297 295 292 287 283 281 280 277 271 267 266 266 263 260 258 257 259 260 262 264 264 265 268 272 273 272 272 274 276 280 285 291 297 300 301 300 299 297 296 295 286 273 266 265 267 268 269 271 273 273 274 274 274 272 271 268 267 264 263 261 259 256 253 250 248 245 242 237 234 229 222 217 213 210 207 207 208 207 205 203 200 199 196 195 194 193 192 190 188 186
160 160 160 160 160 160 160 160 160 160 160 160 160 160 160 160 160 160 160 160 160 160 160 160 160 160 160 160 160 160 160 160 160 160 162 170 178 190 197 205 211 221 228 234 241 246 248 248 252 259 269 277 287 297 307 315 321 325 328 331 333 333 334 334 335 335 335 334 334 333 333 332 330 329 327 325 323 321 318 316 313 310 308 304 300 297 293 289 286 283 277 271 264 261 266 273 277 278 277 273 270 265 261 263 263 259 255 253 253 253 252 253 255 257 260 261 264 268 274 280 284 282 267 253 238 227 216 205 202 200 194 188 183 179 174 171 171 174 174 169 164 160 159 159 160 160 160 160 159 159 160 163 166 164 160 160 160 160 160 160 160 160 160 160 160 160 160 160 160 160 160 160 160 160 160 160 160 160 160 160 160 160 160 160 160 160 160 160 160 160 160 160 160 160 160 160 160 160 160 160 160 160 160 160 160 160 160 160 160 160 160 160 160 160 160 160 160 160 160 160 160 160 160 160 160 160 160 160 160 160 160 160 162 166 173 182 188 186 179 166 160 160 160 160 160 160 160 160 160 160 160 160 160 160 160 160 160 160 168 170 170 169 168 167 167 167 166 163 161 160 159 160 160 160 160 161 161 161 162 164 163 160 160 160 160 160 160 160 160 160 160 160 160 160 160 160 160 160 160 160 160 160 160 160 160 160 160 160 161 163 166 168 170 172 174 174 172 170 173 176 179 181 182 183 183 185 190 190 186 182 178 175 172 171 171 174 182 191 196 196 192 186 181 178 177 174 172 174 175 173 172 172 172 172 169 164 162 162 162 161 160 161 163 166 170 173 177 179 182 184 182 178 176 175 172 168 166 163 162 161 160 160 160 160 160 160 160 160 160 160 160 160 160 160 160 161 167 175 181 189 193 193 190 185 180 175 171 168 166 164 163 163 163 163 163 163 163 163 163 163 164 168 174 176 177 180 186 190 195 199 205 210 217 221 225 230 234 238 240 243 245 248 251 253 251 246 242 241 242 242 242 243 245 245 245 245 245 245 245 245 245 245 245 245 245 246 248 250 256 263 270 276 284 289 289 290 294 293 296 301 306 314 319 323 321 314 305 300 298 297 295 295 295 295 295 295 295 295 295 295 295 295 295 295 295 295 296 296 296 296 298 301 304 306 308 311 312 310 308 306 304 304 304 304 304 304 304 304 304 304 304 304 304 304 304 304 307 312 316 320 325 330 335 337 337 338 338 339 339 340 340 343 342 340 340 339 335 330 325 323 319 317 316 314 314 312 312 312 312 313 316 318 321 323 324 327 329 331 332 332 332 330 326 323 318 313 310 308 306 305 303 301 299 297 296 295 293 292 290 287 288 290 291 292 292 292 292 291 289 287 286 286 287 289 289 288 288 288 286 284 283 282 282 282 282 284 287 290 291 291 292 292 292 292 292 294 295 295 295 295 295 295 295 293 295 298 301 302 301 298 298 298 299 299 299 299 298 295 292 287 282 279 279 277 271 265 262 262 261 258 257 257 259 259 261 262 263 264 266 269 270 271 272 274 276 279 284 290 297 298 298 298 296 296 296 294 283 270 265 266 267 268 270 272 273 273 274 274 273 272 271 269 267 265 263 262 259 256 253 249 248 245 242 238 234 229 222 217 213 209 205 202 205 206 203 201 199 197 196 194 192 189 187 186 186 186
160 160 160 160 160 160 160 160 160 160 160 160 160 160 160 160 160 160 160 160 160 160 160 160 160 160 160 160 160 160 160 160 160 160 161 169 178 190 198 206 212 221 228 235 240 246 247 247 250 257 266 276 284 293 304 313 320 324 328 331 333 333 334 335 335 335 335 335 334 334 333 333 331 330 328 326 324 322 319 317 314 311 308 305 301 297 294 290 286 283 278 272 265 260 263 271 276 277 276 271 267 263 260 261 260 255 252 251 252 251 251 253 257 258 260 261 263 266 270 273 278 277 264 252 238 225 214 204 200 200 198 191 186 181 176 170 169 170 171 169 164 161 160 160 160 160 160 160 160 160 160 162 162 160 160 160 160 160 160 160 160 160 160 160 160 160 160 160 160 160 160 160 160 160 160 160 160 160 160 160 160 160 160 160 160 160 160 160 160 160 160 160 160 160 160 160 160 160 160 160 160 160 160 160 160 160 160 160 160 160 160 160 160 160 160 160 160 160 160 160 160 160 160 160 160 160 160 160 160 160 160 160 161 165 172 182 189 189 181 170 160 160 160 160 160 160 160 160 160 160 160 160 160 160 160 160 160 160 169 170 170 168 167 167 167 166 165 163 161 160 159 159 159 160 160 160 161 161 163 165 161 159 159 160 160 160 160 160 160 160 160 160 160 160 160 160 160 160 160 160 160 160 160 160 160 159 159 160 162 165 168 170 172 173 174 174 173 171 172 175 178 180 180 182 182 184 188 188 185 180 177 174 171 171 170 173 179 186 190 189 185 180 175 173 172 170 167 168 169 168 166 165 166 168 166 163 162 162 162 161 160 160 162 164 167 171 174 177 180 180 178 175 173 173 170 166 164 162 161 161 160 160 160 160 160 160 160 160 160 160 160 160 160 160 160 161 167 175 182 192 196 195 190 185 179 174 170 166 164 163 163 163 163 163 163 163 163 163 163 163 163 168 173 174 176 182 186 190 196 200 205 211 218 221 225 230 235 239 241 244 246 249 252 254 253 247 242 241 241 241 242 243 244 244 244 244 244 245 245 245 245 245 245 245 245 246 248 250 253 259 267 276 283 286 286 288 290 291 295 300 305 313 318 320 316 309 301 297 296 295 295 295 295 295 295 295 295 295 295 295 295 295 295 295 295 296 296 296 296 296 298 300 303 305 307 310 310 309 307 305 304 304 304 304 304 304 304 304 304 304 304 304 304 304 304 304 307 312 316 319 325 330 334 336 336 337 338 338 339 339 340 343 341 339 339 338 335 330 325 323 320 318 316 314 313 312 311 311 311 312 315 318 321 323 324 326 328 331 333 333 333 331 327 324 319 313 310 308 306 306 304 302 299 297 296 295 294 293 291 287 287 288 290 291 291 291 291 290 287 285 285 285 287 289 289 287 287 287 286 284 283 282 282 282 282 283 286 288 290 290 291 291 290 290 290 291 292 293 294 293 293 293 293 292 293 296 298 299 298 297 297 298 299 299 299 299 298 295 291 286 280 278 278 276 271 265 262 260 259 257 257 257 258 258 259 261 262 264 266 269 269 270 272 274 276 278 283 289 296 297 297 296 293 295 294 290 280 269 265 266 267 269 271 272 273 273 274 274 274 273 271 269 267 265 263 262 260 257 252 249 248 246 243 239 235 229 222 217 213 209 204 200 203 205 202 200 198 197 196 192 189 186 185 186 186 186
160 160 160 160 160 160 160 160 160 160 160 160 160 160 160 160 160 160 160 160 160 160 160 160 160 160 160 160 160 160 160 160 160 159 159 164 179 190 198 205 212 220 228 235 239 243 247 247 248 254 263 273 282 292 304 313 320 325 328 331 333 334 335 335 335 335 335 335 335 334 333 333 332 331 330 328 325 323 321 318 314 312 309 306 301 297 294 290 287 283 279 273 265 259 260 269 275 276 275 269 265 260 258 259 257 253 249 250 251 248 250 254 257 258 261 262 263 265 266 268 272 272 262 249 235 223 213 203 197 198 199 196 189 184 179 173 169 168 168 168 164 161 160 160 160 160 160 160 160 160 160 162 162 160 160 160 160 160 160 160 160 160 160 160 160 160 160 160 160 160 160 160 160 160 160 160 160 160 160 160 160 160 160 160 160 160 160 160 160 160 160 160 160 160 160 160 160 160 160 160 160 160 160 160 159 159 160 160 160 160 160 160 160 160 160 160 160 160 160 160 160 160 160 160 160 160 160 160 160 160 160 160 160 163 172 182 190 190 183 172 161 160 160 160 160 160 160 160 160 160 160 160 160 160 160 160 160 161 169 170 169 167 165 166 166 165 164 163 161 160 159 159 159 160 159 160 161 161 163 165 160 159 159 160 160 160 160 160 160 160 160 160 160 160 160 160 160 160 160 160 160 160 160 160 160 159 159 162 165 168 170 172 173 174 174 174 173 172 172 175 177 178 178 180 180 182 185 186 183 179 176 173 171 170 170 172 176 180 184 183 180 176 174 171 169 167 166 165 165 164 162 162 162 164 162 162 162 162 162 161 160 160 160 161 163 169 172 174 176 175 173 171 170 170 168 163 162 161 161 160 160 160 160 160 160 160 160 160 160 160 160 160 160 160 160 163 169 175 184 195 198 195 189 183 179 174 169 165 163 163 163 163 163 163 163 163 163 163 163 163 163 168 171 173 177 183 187 192 197 201 206 212 218 221 226 231 236 240 243 245 247 249 253 255 254 248 242 241 241 241 242 243 243 244 244 244 244 244 245 245 245 245 245 245 245 246 248 250 252 258 266 276 280 282 284 286 288 290 295 299 305 313 317 316 310 303 298 296 295 295 295 295 295 295 295 295 295 295 295 295 295 295 295 295 295 296 296 296 296 296 297 300 301 303 306 308 308 307 306 305 304 304 304 304 304 304 304 304 304 304 304 304 304 304 304 304 307 312 316 319 324 329 334 336 336 337 337 338 339 339 340 340 340 339 339 337 334 330 326 323 318 316 315 314 313 312 311 310 310 311 315 318 321 323 324 326 328 331 333 333 334 332 328 324 320 313 309 308 306 306 304 302 299 297 296 296 295 293 291 288 286 286 290 291 291 290 290 288 285 284 284 285 287 288 287 287 287 287 287 285 283 282 282 282 282 283 285 287 288 289 289 289 288 287 287 288 288 290 291 291 290 290 290 290 291 293 295 296 295 296 297 297 298 299 299 299 297 295 289 284 279 277 276 274 268 263 260 258 257 257 257 257 257 257 258 260 262 264 267 267 267 269 272 274 276 278 283 289 295 295 295 294 291 291 291 285 276 267 264 266 268 270 272 273 273 273 274 274 274 273 272 269 267 265 264 263 260 257 252 249 249 247 245 242 237 230 222 217 212 208 204 198 199 202 202 200 197 195 193 190 187 186 185 188 188 187
160 160 160 160 160 160 160 160 160 160 160 160 160 160 160 160 160 160 160 160 160 160 160 160 160 160 160 160 160 160 160 160 160 159 159 162 178 190 198 204 210 218 227 233 237 241 244 244 246 252 261 271 280 290 302 312 319 325 328 331 333 334 335 336 336 336 336 335 335 334 333 333 332 332 331 329 327 325 322 319 316 312 310 307 303 300 295 290 287 283 279 274 266 259 258 266 273 275 272 267 263 257 256 256 253 250 248 249 247 246 249 253 255 258 261 263 264 264 265 266 268 271 262 248 236 225 213 204 197 194 197 197 192 187 182 177 172 168 165 165 164 161 160 160 160 160 160 160 160 160 161 164 167 164 160 160 160 160 160 160 160 160 160 160 160 160 160 160 160 160 160 160 160 160 160 160 160 160 160 160 160 160 160 160 160 160 160 160 160 160 160 160 160 160 160 160 160 160 160 160 160 160 160 160 159 159 160 160 160 160 160 160 160 160 160 160 160 160 160 160 160 160 160 160 160 160 160 160 160 160 160 159 159 160 168 179 189 190 184 173 161 160 160 160 160 160 160 160 160 160 160 160 160 160 160 160 160 161 164 167 168 166 165 165 166 165 165 163 161 160 160 160 160 160 159 159 161 162 165 167 161 159 159 160 160 160 160 160 160 160 160 160 160 160 160 160 160 160 160 160 160 160 160 160 160 159 161 165 168 170 173 174 175 175 175 174 174 173 173 175 176 176 177 177 178 180 183 184 181 176 173 171 170 169 169 170 173 175 177 177 176 174 172 169 167 166 165 164 163 162 162 162 162 162 162 162 162 161 161 160 160 160 160 160 161 166 170 170 170 170 170 168 167 166 164 162 160 160 160 160 160 160 160 160 160 160 160 160 160 160 160 160 160 160 161 165 171 176 185 196 198 193 188 183 178 173 168 165 163 163 163 163 163 163 163 163 163 163 163 163 164 168 171 174 178 183 189 193 198 203 207 213 218 223 228 233 237 241 244 246 247 251 254 256 254 249 243 241 241 241 241 242 243 243 243 243 243 243 245 245 245 245 245 245 245 245 247 250 253 258 266 272 277 280 282 284 286 290 295 300 306 313 314 311 305 298 296 296 295 295 295 295 295 295 295 295 295 295 295 295 295 295 295 295 295 295 296 296 296 296 297 299 300 302 304 307 307 306 305 304 304 304 304 304 304 304 304 304 304 304 304 304 304 304 304 304 307 312 316 320 323 329 333 335 335 336 337 338 339 339 339 338 339 339 339 336 333 330 327 322 317 314 313 313 312 312 311 310 310 311 315 318 320 322 324 326 328 331 333 333 334 333 329 325 319 312 308 307 306 306 304 302 299 298 297 296 295 293 291 288 285 285 288 290 289 288 287 286 283 282 284 285 286 285 285 285 286 287 287 285 283 282 282 282 282 284 285 286 287 288 288 287 286 284 285 285 285 287 288 289 288 288 288 288 289 290 292 293 293 294 296 297 298 298 299 298 296 292 287 283 278 274 273 272 267 261 258 257 257 256 256 256 257 257 258 260 264 265 265 265 266 268 271 274 276 277 282 288 292 292 291 290 288 287 286 281 272 264 263 266 269 270 272 273 274 274 274 274 274 273 272 269 267 265 264 263 260 256 252 250 249 248 246 243 237 231 223 217 211 207 204 198 195 196 196 197 195 193 191 188 186 186 188 191 189 188
160 160 160 160 160 160 160 160 160 160 160 160 160 160 160 160 160 160 160 160 160 160 160 160 160 160 160 160 160 160 160 160 160 160 160 160 168 186 197 201 208 215 222 228 234 238 241 241 245 251 258 268 278 289 299 308 318 324 328 331 333 334 335 336 336 336 336 336 335 334 334 334 333 333 332 331 329 326 323 319 316 313 310 308 304 301 296 292 287 283 279 274 267 259 256 263 271 272 270 264 259 254 253 255 251 248 247 247 245 244 248 252 254 257 261 263 264 265 265 265 265 276 270 248 237 226 216 206 198 193 193 197 194 189 183 178 173 168 165 163 162 161 160 160 160 160 160 160 160 160 162 166 168 165 159 160 160 160 160 160 160 160 160 160 160 160 160 160 160 160 160 160 160 160 160 160 160 160 160 160 160 160 160 160 160 160 160 160 160 160 160 160 160 160 160 160 160 160 160 160 160 160 160 160 163 163 160 160 160 160 160 160 160 160 160 160 160 160 160 160 160 160 160 160 160 160 160 160 160 160 160 159 159 159 165 176 185 187 181 172 161 160 160 160 160 160 160 160 160 160 160 160 160 160 160 160 160 160 161 163 168 168 168 167 166 165 166 164 162 161 162 162 161 160 160 159 160 162 166 168 161 160 160 160 160 160 160 160 160 160 160 160 160 160 160 160 160 160 160 160 160 160 160 160 160 159 165 169 171 174 176 176 176 176 176 175 174 174 174 175 176 175 175 176 176 178 181 181 178 174 170 169 169 169 168 168 170 171 173 174 174 172 170 168 166 165 164 163 162 162 162 162 162 162 162 162 162 161 161 160 160 160 160 160 160 162 165 167 167 168 167 166 164 163 162 160 160 160 160 160 160 160 160 160 160 160 160 160 160 160 160 160 160 160 162 168 172 177 186 193 193 190 187 183 178 173 169 166 163 163 163 163 163 163 163 163 163 163 163 163 166 170 173 176 180 184 190 194 200 206 211 217 222 226 229 233 238 242 245 247 249 252 256 258 256 251 245 241 241 241 241 242 243 243 243 243 242 243 244 245 246 245 245 245 245 245 247 250 254 258 264 269 274 278 280 282 285 290 295 301 307 311 308 305 299 295 295 296 295 295 295 295 295 295 295 295 295 295 295 295 295 295 295 295 295 295 296 296 296 296 297 299 300 301 303 306 305 305 304 304 304 305 305 305 305 304 304 304 304 304 304 304 304 304 304 304 307 312 316 320 323 328 332 334 335 336 337 338 339 339 339 338 338 339 339 336 333 330 328 322 316 313 312 312 312 311 311 310 310 311 314 317 320 322 324 326 328 331 332 333 334 334 329 325 318 311 308 307 306 306 305 302 300 298 298 297 295 293 290 288 284 284 287 289 287 286 285 283 282 282 283 284 284 284 284 284 285 286 285 283 282 282 282 282 283 284 285 286 287 288 288 286 284 282 282 282 283 284 285 286 286 286 287 287 287 288 290 290 291 294 296 297 297 297 298 297 294 289 285 282 278 273 271 269 265 260 257 257 257 256 256 256 256 256 258 260 264 263 263 264 265 267 271 273 275 277 281 286 290 288 287 287 284 283 281 276 268 263 263 267 269 270 272 274 274 274 274 274 274 273 272 270 267 265 264 263 260 256 252 250 249 248 247 243 237 230 223 216 210 206 203 198 195 192 192 193 191 189 189 187 186 186 189 193 191 189
164 160 159 159 160 160 160 160 160 160 160 160 160 160 160 160 160 160 160 160 160 160 160 160 160 160 160 160 160 160 160 160 160 160 160 160 163 181 192 196 204 212 220 227 233 237 239 240 245 249 255 264 275 285 296 307 317 324 328 331 333 333 335 335 336 336 336 336 335 334 334 334 334 333 332 331 330 327 324 321 317 314 311 309 305 301 297 293 288 283 278 273 266 259 255 261 269 270 267 262 257 251 250 252 250 246 244 244 243 243 247 251 255 259 263 265 265 265 265 265 265 268 264 250 239 228 218 209 201 195 191 192 194 191 186 180 175 170 165 162 161 160 160 160 160 160 160 160 160 161 164 167 168 166 160 160 160 160 160 160 160 160 160 160 160 160 160 160 160 160 160 160 160 160 160 160 160 160 160 160 160 160 160 160 160 160 160 160 160 160 160 160 160 160 160 160 160 160 160 160 159 159 159 163 166 165 163 163 163 162 162 160 160 160 160 160 160 160 160 160 160 160 160 160 160 160 160 160 160 160 160 159 159 159 162 175 183 183 178 170 160 160 160 160 160 160 160 160 160 160 160 160 160 160 160 160 160 160 160 163 169 170 171 171 169 166 166 165 164 164 165 165 163 161 160 159 160 163 167 169 163 159 159 159 160 160 160 160 160 160 160 160 160 160 160 160 160 160 160 160 160 160 160 160 159 162 168 173 176 178 178 177 177 176 176 176 175 175 174 174 174 173 173 173 174 176 178 177 174 169 167 168 168 168 168 168 170 171 172 173 173 171 169 168 168 167 166 163 162 162 162 162 162 162 162 162 162 162 161 160 160 160 160 160 160 161 162 163 164 165 166 164 162 162 161 160 160 160 160 160 160 160 160 160 160 160 160 160 160 160 160 160 160 160 162 168 173 178 185 190 191 188 185 181 178 173 169 166 164 163 163 163 163 163 163 163 163 163 163 165 168 172 175 179 184 187 191 196 203 209 216 222 226 228 231 235 239 243 246 248 250 253 259 261 260 253 246 241 241 241 241 242 242 243 243 242 242 243 244 245 246 246 246 246 245 246 247 250 253 258 263 268 272 276 279 281 284 290 296 301 306 305 302 299 297 295 295 295 295 295 295 295 295 295 295 295 295 295 295 295 295 295 295 295 295 295 296 296 296 296 297 299 299 301 302 304 305 304 304 304 307 307 307 306 305 304 304 304 304 304 304 304 304 304 304 304 307 311 314 318 322 326 330 333 334 336 336 338 339 339 339 338 338 338 338 335 332 330 328 322 316 313 311 311 311 310 310 310 310 311 313 317 320 322 324 326 328 330 332 333 335 334 327 322 316 310 308 307 306 306 304 303 301 299 298 295 293 292 289 288 284 282 286 287 286 283 283 282 281 281 282 282 282 282 284 284 284 284 282 282 282 282 282 282 283 284 285 286 287 287 287 285 283 281 281 281 281 282 283 284 283 284 285 284 285 286 287 288 289 293 295 296 296 295 294 294 290 286 284 282 279 273 269 265 261 258 257 256 256 256 256 255 256 256 256 258 260 261 262 264 265 267 271 273 275 277 280 284 285 283 282 282 279 277 276 271 264 262 264 268 270 270 272 273 274 274 273 273 273 273 273 270 267 265 263 262 260 256 251 250 249 249 247 242 235 229 222 214 209 205 202 199 196 192 191 190 190 188 187 186 186 185 188 193 192 190
167 161 159 159 160 160 160 160 160 160 160 160 160 160 160 160 160 160 160 160 160 160 160 160 160 160 160 160 160 160 160 160 160 160 160 160 161 173 183 189 199 209 219 227 234 237 238 241 245 248 254 263 274 283 294 304 313 322 327 330 332 333 334 335 335 336 336 336 335 334 333 333 333 333 332 332 330 328 325 321 318 315 312 309 305 301 298 294 289 283 278 273 265 258 254 259 266 268 265 261 256 250 247 249 248 245 241 241 242 243 247 252 256 261 265 266 266 266 266 265 265 265 262 253 240 229 220 212 203 196 190 188 190 191 187 182 176 171 166 162 160 160 160 160 160 160 160 160 160 162 165 168 169 167 161 160 160 160 160 160 160 160 160 160 160 160 160 160 160 160 160 160 160 160 160 160 160 160 160 160 160 160 160 160 160 160 160 160 160 160 160 160 160 160 160 160 160 160 160 160 159 159 159 165 167 167 167 168 168 167 167 164 161 160 160 160 160 160 160 160 160 160 160 160 160 160 160 160 160 160 160 160 160 159 161 172 180 179 173 168 160 160 160 160 160 160 160 160 160 160 160 160 160 160 160 160 160 160 160 164 170 171 172 173 173 169 166 166 166 166 166 166 164 161 160 159 160 163 168 171 166 159 159 159 160 160 160 160 160 160 160 160 160 160 160 160 160 160 160 160 160 160 159 159 160 166 172 177 179 179 179 178 178 177 177 177 176 175 175 174 172 172 172 171 172 173 174 174 171 166 167 167 168 168 168 168 170 171 172 173 172 171 171 172 172 172 170 167 165 162 162 162 162 162 162 162 162 162 162 161 160 160 160 160 160 160 161 162 162 163 164 162 160 160 160 160 160 160 160 160 160 160 160 160 160 160 160 160 160 160 160 160 160 160 163 168 174 179 184 188 190 187 184 181 177 174 169 166 166 166 165 165 163 163 163 163 163 163 163 166 170 173 177 183 188 191 195 199 206 212 219 224 228 230 232 236 240 244 247 249 252 255 260 263 262 254 246 241 241 241 241 242 242 242 242 242 242 243 244 244 246 247 247 247 247 247 248 250 253 258 263 268 271 274 276 278 283 290 296 300 302 299 295 296 296 295 295 295 295 295 295 295 295 295 295 295 295 295 295 295 295 295 295 295 295 295 296 296 296 296 297 298 299 300 301 304 305 304 304 307 309 308 308 307 305 304 304 304 304 304 304 304 304 304 304 304 306 310 314 317 321 325 330 333 334 335 336 338 339 339 339 338 337 337 336 334 332 330 328 322 316 311 310 310 310 310 310 310 310 310 313 316 319 322 323 326 328 330 332 333 335 333 325 320 315 310 308 306 306 306 304 303 301 300 299 295 291 291 290 288 284 282 284 285 283 282 281 280 279 280 281 281 281 282 283 283 280 280 282 282 282 282 282 282 283 284 285 287 287 287 287 285 282 281 281 281 281 281 281 281 281 281 281 283 284 284 284 285 288 291 294 295 295 293 291 290 286 283 283 282 279 273 268 264 260 258 257 256 256 255 255 255 255 255 255 256 258 260 262 264 266 268 271 273 276 278 280 281 280 278 277 276 275 273 270 266 261 261 265 269 270 271 271 273 274 274 273 273 273 273 273 271 268 265 263 262 260 256 251 249 248 249 247 239 233 227 221 214 208 204 201 197 195 192 190 189 188 187 186 186 186 185 187 193 192 191
171 164 159 159 159 160 160 160 160 160 160 160 160 160 160 160 160 160 160 160 160 160 160 160 160 160 160 160 160 160 160 160 160 160 160 160 160 164 173 182 192 203 216 227 235 238 238 241 244 247 254 263 272 281 291 302 312 321 326 330 332 332 333 333 333 334 334 334 334 333 332 332 332 333 333 332 331 328 325 322 318 315 312 309 305 301 298 293 289 283 278 272 265 257 253 257 265 267 263 259 255 250 246 246 246 244 240 239 241 245 249 253 258 262 266 267 267 266 266 266 266 266 264 256 242 230 222 214 206 199 193 188 186 187 187 183 177 172 166 162 160 160 160 160 160 160 160 160 160 161 166 170 171 170 162 159 160 160 160 160 160 160 160 160 160 160 160 160 160 160 160 160 160 160 160 160 160 160 160 160 160 160 160 160 160 160 160 160 160 160 160 160 160 160 160 160 160 160 160 159 159 159 161 166 170 171 172 172 172 171 170 167 163 161 160 160 160 160 160 160 160 160 160 160 160 160 160 160 160 160 160 160 160 159 161 167 175 174 169 164 160 160 160 160 160 160 160 160 160 160 160 160 160 160 160 160 159 159 160 165 171 173 174 175 175 171 166 166 165 165 166 166 165 162 160 159 160 163 168 172 168 161 159 159 160 160 160 160 160 160 160 160 160 160 160 160 160 160 160 160 160 160 159 159 163 171 177 180 181 182 181 180 180 179 179 178 177 176 175 174 171 170 170 169 170 171 172 171 168 166 167 167 168 168 168 168 171 172 172 173 172 172 172 174 175 175 174 170 168 164 162 162 162 162 162 162 163 164 162 162 160 160 160 160 160 160 160 161 161 161 162 160 160 160 160 160 160 160 160 160 160 160 160 160 160 160 160 160 160 160 160 160 160 160 163 168 174 179 183 186 188 186 183 181 177 174 170 169 169 169 167 166 164 164 164 164 163 163 166 170 173 176 180 185 191 195 198 203 208 214 220 225 229 231 234 238 242 245 248 251 253 256 261 265 263 255 246 242 241 241 241 241 241 241 241 242 242 243 244 245 246 248 248 249 249 249 249 251 254 258 263 268 271 272 274 277 283 290 294 297 296 294 294 296 296 295 295 295 295 295 295 295 295 295 295 295 295 295 295 295 295 296 295 295 295 295 295 296 296 296 297 298 299 300 302 304 305 305 307 310 311 309 308 306 305 304 304 304 304 304 304 304 304 304 304 304 306 310 314 318 322 326 330 333 334 335 336 338 339 339 339 338 336 335 334 333 331 330 328 323 316 311 310 310 310 310 310 310 310 310 312 315 319 322 323 326 328 330 332 333 335 331 322 317 313 309 307 306 306 306 305 304 302 301 299 295 291 290 289 288 284 280 282 282 281 281 280 279 278 279 280 280 280 281 281 279 278 280 282 283 284 284 283 283 284 284 286 287 288 288 287 286 283 283 282 281 281 281 281 281 281 280 280 281 282 282 282 283 285 288 291 292 292 290 288 286 283 281 282 281 279 273 268 264 260 258 257 256 255 255 255 255 255 255 255 255 257 259 261 264 266 269 271 274 276 278 280 278 276 275 273 272 270 267 264 261 259 261 267 270 270 270 271 273 274 274 273 273 272 274 274 271 268 265 263 261 259 256 251 248 247 249 246 238 231 226 220 214 208 204 199 195 193 192 190 189 188 186 186 185 185 186 189 191 192 192
175 169 162 159 159 160 160 160 160 160 160 160 160 160 160 160 160 160 160 160 160 160 160 160 160 160 160 160 160 160 160 160 160 160 160 160 160 161 167 175 185 196 209 222 231 235 237 239 242 246 254 262 270 280 290 299 309 319 325 329 331 332 333 333 332 333 333 333 333 332 332 332 332 332 332 332 331 329 326 322 318 315 312 309 305 301 297 292 288 283 278 272 264 257 252 256 263 265 262 258 254 250 246 244 244 244 240 239 241 246 250 254 259 262 266 268 268 267 267 267 267 269 267 257 243 233 225 217 211 203 196 191 186 183 183 181 176 169 164 161 160 160 160 160 160 160 160 160 160 161 166 171 174 173 165 159 160 160 160 160 160 160 160 160 160 160 160 160 160 160 160 160 160 160 160 160 160 160 160 160 160 160 160 160 160 160 160 160 160 160 160 160 160 160 160 160 160 160 160 159 159 160 165 170 174 177 178 178 177 175 173 170 166 161 160 160 160 160 160 160 160 160 160 160 160 160 160 160 160 160 160 160 160 160 160 162 169 168 164 160 160 160 160 160 160 160 160 160 160 160 160 160 160 160 160 159 159 159 162 168 172 175 176 176 176 174 170 167 165 165 166 166 165 162 160 159 160 163 168 172 170 164 161 160 160 160 160 160 160 160 160 160 160 160 160 160 160 160 160 160 160 159 159 162 167 175 182 183 183 183 183 182 181 181 180 179 178 177 176 174 172 170 169 168 168 169 169 167 166 166 166 167 167 167 168 168 171 173 173 173 173 173 174 175 176 176 175 173 171 167 162 162 162 162 162 162 165 166 163 162 161 160 160 160 160 160 160 160 160 160 160 160 160 160 160 160 160 160 160 160 160 160 160 160 160 160 160 160 160 160 160 160 160 161 164 168 173 178 182 184 185 185 183 181 180 177 175 172 171 170 168 166 165 165 165 164 164 166 170 176 179 182 185 188 195 200 203 206 210 216 221 226 230 232 236 239 243 246 249 254 256 258 262 265 263 256 247 242 240 240 240 241 241 241 241 242 243 244 245 245 246 249 249 250 250 250 250 253 257 261 266 270 271 272 273 277 283 289 292 293 293 293 294 296 296 295 295 295 295 295 295 295 295 295 295 295 295 295 295 295 295 296 296 295 295 295 295 296 296 296 297 298 299 300 302 304 306 307 310 311 311 309 307 305 305 304 304 304 304 304 304 304 304 304 304 304 306 311 314 318 322 326 331 334 334 335 336 338 338 338 338 335 334 333 332 332 331 330 328 323 316 311 310 310 310 310 310 310 310 310 312 315 319 321 323 326 327 330 331 333 334 328 320 316 312 308 306 306 306 306 306 304 302 301 300 296 292 289 288 287 284 279 279 280 280 279 279 277 277 279 279 280 279 278 277 278 279 281 283 284 285 285 285 285 285 287 288 289 289 289 289 288 286 284 283 282 282 281 281 281 281 280 279 279 279 280 280 281 282 284 288 288 288 287 284 283 280 280 282 281 278 272 268 264 260 258 257 256 255 255 255 255 255 255 255 255 256 258 261 265 267 269 272 274 277 278 279 277 275 274 273 271 267 263 261 259 259 263 268 270 270 269 270 272 273 273 273 272 272 274 275 272 267 264 262 261 259 256 251 248 247 246 244 237 230 226 220 214 208 204 201 197 193 191 190 188 187 186 185 185 185 188 190 190 192 193
179 171 163 159 159 160 160 160 160 160 160 160 160 160 160 160 160 160 160 160 160 160 160 160 160 160 160 160 160 160 160 160 160 160 160 160 160 160 162 170 178 188 202 213 223 230 235 237 240 245 253 261 269 278 288 297 306 316 323 328 330 331 332 332 331 331 332 331 331 331 330 330 330 331 331 331 331 329 326 322 319 316 312 309 304 300 296 291 286 283 278 272 264 256 251 254 261 263 261 256 252 250 247 244 242 242 240 238 241 245 250 254 259 262 267 269 268 268 267 267 267 269 268 259 246 236 228 220 214 206 198 193 187 182 179 176 172 167 162 160 160 160 160 160 160 160 160 160 160 162 167 173 176 175 167 160 160 160 160 160 160 160 160 160 160 160 160 160 160 160 160 160 160 160 160 160 160 160 160 160 160 160 160 160 160 160 160 160 160 160 160 160 160 160 160 160 160 160 160 159 159 163 168 174 178 182 183 183 182 180 176 173 168 163 160 160 160 160 160 160 160 160 160 160 160 160 160 160 160 160 160 160 160 160 160 160 163 163 160 159 160 160 160 160 160 160 160 160 160 160 160 160 160 160 160 159 159 160 166 171 175 178 179 179 178 176 173 170 166 165 166 166 165 161 159 159 160 162 168 172 171 164 162 160 160 160 160 160 160 160 160 160 160 160 160 160 160 160 160 160 160 160 160 166 174 182 184 185 186 186 185 184 183 182 181 180 179 178 177 175 174 171 169 168 167 167 167 166 166 166 166 167 167 167 168 168 172 173 174 175 174 174 176 177 178 177 176 174 173 169 164 162 162 162 162 163 166 166 164 164 161 161 160 160 160 160 160 160 160 160 160 160 160 160 160 160 160 160 160 160 160 160 160 160 160 160 160 160 160 160 160 160 160 161 164 168 172 177 181 183 184 184 183 182 181 179 176 173 172 171 167 166 166 166 166 166 169 171 174 180 183 185 188 192 198 203 207 210 213 217 222 226 230 234 238 241 244 247 251 256 258 259 261 262 260 254 247 242 240 240 240 241 241 241 241 242 243 245 246 246 247 249 250 251 251 251 251 254 259 262 267 271 272 272 274 278 282 287 290 292 293 295 296 298 299 295 295 295 295 295 295 295 295 295 295 295 295 295 295 295 295 296 295 295 295 295 295 296 296 296 297 298 299 299 302 304 307 309 311 311 311 309 307 305 305 304 304 304 304 304 304 304 304 304 304 304 306 311 314 318 323 327 331 334 334 336 336 337 337 337 335 333 332 332 332 332 330 329 327 323 316 311 310 310 310 310 310 310 310 310 312 316 319 321 323 325 327 329 331 333 331 325 319 315 312 308 305 305 306 306 305 304 302 301 299 296 292 289 287 286 283 279 278 279 279 278 277 276 276 278 278 278 277 276 276 279 282 284 285 286 286 286 287 287 287 289 290 291 291 291 291 289 288 286 285 284 283 283 282 281 281 280 279 278 278 278 279 279 279 280 282 284 284 284 281 279 277 278 281 281 277 270 267 263 261 258 257 256 255 255 255 255 254 254 254 254 255 258 261 265 267 269 272 275 278 279 279 277 276 276 276 271 267 262 259 258 258 264 268 270 269 269 269 272 273 273 272 272 272 274 275 272 267 264 262 260 258 254 251 248 247 243 239 234 229 225 219 214 211 209 205 200 195 191 188 186 185 185 185 185 186 189 190 190 193 197
180 172 164 159 159 160 160 160 160 160 160 160 160 160 160 160 160 160 160 160 160 160 160 160 160 160 160 160 160 160 160 160 160 160 160 160 160 160 160 165 173 181 192 204 215 224 230 235 240 245 252 260 268 276 285 294 303 313 321 326 328 330 331 331 331 330 330 330 330 330 329 329 329 330 330 330 330 329 326 322 319 315 312 309 303 299 296 291 286 282 277 272 264 255 249 252 259 261 260 255 250 248 247 245 241 241 239 237 239 244 249 254 259 262 267 269 269 269 268 268 268 271 269 261 249 238 229 221 215 208 200 195 189 183 178 174 170 165 161 159 159 160 160 160 160 160 160 160 160 162 168 174 177 177 169 160 160 160 160 160 160 160 160 160 160 160 160 160 160 160 160 160 160 160 160 160 160 160 160 160 160 160 160 160 160 160 160 160 160 160 160 160 160 160 160 160 160 160 160 160 160 165 171 177 182 184 186 187 185 184 181 175 171 165 160 160 160 160 160 160 160 160 160 160 160 160 160 160 160 160 160 160 160 160 160 160 160 160 160 159 160 160 160 160 160 160 160 160 160 160 160 160 160 160 160 159 159 165 170 175 178 180 182 183 181 178 176 172 167 166 165 165 163 160 159 159 160 162 167 172 171 164 161 160 160 160 160 160 160 160 160 160 160 160 160 160 160 160 160 160 160 160 164 174 182 184 186 188 189 189 188 187 186 184 183 181 180 179 178 177 176 174 171 169 167 166 167 166 166 166 166 167 167 167 167 168 170 173 174 175 175 175 177 178 179 178 177 175 174 170 165 162 162 162 162 163 165 165 166 166 162 161 160 160 160 160 160 160 160 160 160 160 160 160 160 160 160 161 161 160 160 160 160 160 160 160 160 160 160 160 160 160 160 161 164 167 170 174 178 181 183 183 183 183 182 180 177 176 175 172 167 167 167 168 170 172 173 174 175 180 183 186 191 195 200 206 210 212 216 219 223 227 230 234 238 242 245 248 252 256 259 259 260 259 255 251 246 241 239 239 240 240 240 241 241 241 244 246 247 247 247 249 250 252 252 252 253 255 260 264 268 272 272 272 274 278 281 285 290 293 296 299 300 300 301 297 295 295 295 295 295 295 295 295 295 295 295 295 295 295 295 296 295 295 295 295 295 295 296 296 297 298 299 299 301 304 308 311 312 312 311 309 307 305 305 304 304 304 304 304 304 304 304 304 304 304 306 311 315 319 323 327 331 334 334 336 337 337 335 333 332 332 332 332 332 332 329 328 326 322 316 311 310 310 310 310 310 310 310 310 312 316 319 321 323 325 327 328 329 330 328 323 318 314 312 308 305 305 305 305 305 304 302 300 299 295 291 288 286 284 282 279 277 278 278 278 276 275 275 276 277 276 275 275 278 282 286 288 288 287 287 287 288 288 289 290 291 292 292 292 292 291 290 288 287 286 285 284 283 283 282 281 279 278 277 276 276 276 276 276 278 280 281 281 278 276 275 276 279 279 275 269 266 263 261 259 257 256 255 255 255 255 254 254 254 254 254 258 262 266 267 269 273 275 278 279 280 278 278 279 279 273 267 261 258 257 259 264 269 269 269 269 269 270 272 272 272 272 272 273 274 272 268 264 262 260 257 253 250 248 247 243 238 232 228 223 219 215 213 211 208 202 197 191 187 185 185 184 185 191 193 193 194 195 197 199
182 175 168 162 160 160 160 160 160 160 160 160 160 160 160 160 160 160 160 160 160 160 160 160 160 160 160 160 160 160 160 160 160 160 160 160 160 160 159 160 167 176 185 198 209 218 227 234 238 244 251 259 267 275 284 293 301 310 318 324 327 329 330 330 330 329 329 329 329 328 328 328 328 328 328 329 329 328 325 322 318 315 312 308 303 300 296 291 286 281 276 272 264 255 249 249 254 259 259 254 249 246 245 243 240 239 238 235 238 244 249 253 258 262 265 268 268 268 269 269 269 272 271 262 252 241 231 223 217 210 203 197 192 186 181 176 170 165 161 159 159 160 160 160 160 160 160 160 160 162 167 173 178 179 170 160 160 160 160 160 160 160 160 160 160 160 160 160 160 160 160 160 160 160 160 160 160 160 160 160 160 160 160 160 160 160 160 160 160 160 160 160 160 160 160 160 160 160 160 160 161 168 175 181 185 189 191 191 190 188 184 178 172 166 160 160 160 160 160 160 160 160 160 160 160 160 160 160 160 160 160 160 160 160 160 160 160 160 160 159 160 160 160 160 160 160 160 160 160 160 160 160 160 160 160 159 164 169 174 178 181 185 187 187 184 181 178 175 169 166 165 163 161 160 159 159 159 160 165 171 171 164 159 159 159 160 160 160 160 160 160 160 160 160 160 160 160 160 160 160 160 161 171 182 185 187 190 192 192 192 191 189 187 186 184 182 181 180 180 179 177 175 172 170 168 166 167 166 166 166 166 167 167 167 167 168 169 172 174 176 176 176 178 180 180 179 178 175 174 171 168 163 161 161 162 163 163 162 164 165 162 161 161 160 160 160 160 160 160 160 160 160 160 160 160 160 160 161 161 160 160 160 160 160 160 160 160 160 160 161 161 161 161 161 164 165 168 171 176 180 182 182 182 182 183 182 179 178 177 174 170 168 169 171 173 173 174 174 175 179 183 189 194 198 202 208 212 215 218 222 225 228 231 235 238 242 245 249 253 257 260 261 260 259 254 248 244 240 239 239 240 240 240 240 240 241 244 246 247 247 248 249 251 252 253 255 255 257 261 264 268 272 273 273 274 278 282 287 292 296 299 303 304 304 303 298 295 295 295 295 295 295 295 295 295 295 295 295 295 295 295 296 295 295 295 295 295 295 296 296 296 298 299 299 300 304 308 312 312 312 311 309 307 305 305 304 304 304 304 304 304 304 304 304 304 304 306 310 315 319 323 327 331 334 334 336 336 336 334 332 332 332 331 332 332 332 329 327 325 321 315 311 310 310 310 310 310 310 310 310 312 315 318 320 322 324 325 326 326 326 324 321 318 315 312 307 305 304 305 305 304 304 302 300 298 295 291 288 286 284 280 278 276 276 278 279 277 274 274 275 275 274 274 275 279 285 289 292 292 291 289 290 291 290 290 291 293 294 294 293 293 293 292 291 290 288 286 286 285 285 284 282 281 279 276 274 273 272 271 271 274 277 278 278 276 273 272 274 277 276 272 267 265 263 261 260 257 256 256 255 255 254 254 253 253 253 254 257 261 265 267 269 273 275 278 279 280 281 282 282 280 274 266 261 257 257 260 264 266 267 268 268 268 270 271 271 272 272 272 273 273 272 268 264 261 260 257 253 250 249 248 243 238 231 226 222 219 216 215 214 209 203 197 191 186 185 185 184 186 193 196 197 197 199 200 200
185 179 172 165 160 160 160 160 160 160 160 160 160 160 160 160 160 160 160 160 160 160 160 160 160 160 160 160 160 160 160 160 160 160 160 160 160 160 159 159 163 172 183 194 205 218 228 234 238 242 249 257 265 273 280 289 298 307 315 321 325 327 329 329 329 329 328 328 327 327 327 327 327 327 327 328 328 326 324 321 318 315 312 308 303 300 296 292 287 281 276 273 266 257 249 247 251 256 257 253 248 245 243 242 239 237 236 234 238 244 249 254 258 262 265 266 266 267 269 267 268 271 271 264 254 242 233 225 218 212 205 198 193 188 183 178 172 166 161 160 160 160 160 160 160 160 160 160 160 161 166 172 178 179 170 160 160 160 160 160 160 160 160 160 160 160 160 160 160 160 160 160 160 160 160 160 160 160 160 160 160 160 160 160 160 160 160 160 160 160 160 160 160 160 160 160 160 160 160 160 165 171 178 185 191 194 195 195 194 191 187 180 174 166 160 160 160 160 160 160 160 160 160 160 160 160 160 160 160 160 160 160 160 160 160 160 160 160 160 160 160 160 160 160 160 160 160 160 160 160 160 160 160 159 159 162 168 173 178 182 186 189 191 190 188 184 181 178 172 167 165 164 161 160 160 159 159 159 162 169 170 164 159 159 159 160 160 160 160 160 160 160 160 160 160 160 160 160 160 160 160 168 180 186 189 191 194 195 196 196 195 193 190 188 186 185 183 182 181 180 179 177 174 172 170 169 168 166 166 166 166 167 167 167 167 168 168 172 174 176 176 177 179 180 181 181 180 178 177 174 170 165 161 161 161 163 162 162 162 162 162 162 161 160 160 160 160 160 160 160 160 160 160 160 160 160 160 160 160 160 160 160 160 160 160 160 160 160 160 161 162 162 162 162 163 165 168 171 175 179 181 182 182 182 183 183 182 181 179 176 173 169 170 171 173 173 173 173 174 180 186 192 197 200 205 210 213 216 220 224 227 230 232 235 239 242 246 250 253 257 261 263 262 260 254 246 241 239 239 239 240 240 240 240 240 241 244 246 247 247 249 251 252 253 254 255 257 259 262 264 268 272 274 274 275 279 284 290 295 300 303 306 308 308 306 299 295 295 295 295 295 295 295 295 295 295 295 296 296 296 295 296 295 295 295 295 295 295 296 296 296 298 299 299 301 306 310 312 313 313 311 308 306 305 305 305 304 304 304 304 304 304 304 305 305 305 307 310 315 319 323 327 331 334 334 335 336 336 334 332 332 332 331 332 332 333 329 326 323 319 315 311 310 310 310 310 310 310 310 310 311 315 318 320 321 322 322 322 323 323 322 320 317 315 311 306 303 303 304 304 304 304 302 300 298 295 291 288 286 284 280 278 275 275 277 279 278 274 274 274 274 273 274 276 280 287 292 296 297 295 294 294 294 293 292 293 295 296 296 295 295 295 294 293 293 291 289 287 287 287 286 284 283 281 279 276 273 270 267 266 269 273 275 275 273 270 269 273 275 273 269 264 263 261 260 259 258 257 257 255 254 254 253 253 253 253 253 256 259 263 266 268 271 275 278 279 280 282 284 283 279 273 264 259 255 256 260 263 265 266 267 267 268 270 271 271 271 272 272 273 273 271 268 263 260 259 257 253 250 249 248 245 238 231 225 222 219 217 217 215 209 201 194 189 185 185 185 184 184 189 194 197 197 200 200 199
190 183 176 168 161 159 159 160 160 160 160 160 160 160 160 160 160 160 160 160 160 160 160 160 160 160 160 160 160 160 160 160 160 160 160 160 160 160 159 159 160 167 177 189 203 215 226 233 237 240 247 255 263 270 277 285 296 305 312 318 323 326 328 328 328 328 327 326 326 326 325 325 324 325 325 326 326 325 323 321 318 315 311 307 303 300 296 292 287 281 274 272 267 259 251 246 248 253 255 252 247 244 241 240 238 235 233 233 238 243 248 254 258 262 265 266 266 267 268 265 264 268 271 266 255 243 234 226 219 213 205 199 194 188 182 178 172 167 162 160 160 160 160 160 160 160 160 160 159 160 164 169 175 177 170 160 160 160 160 160 160 160 160 160 160 160 160 160 160 160 160 160 160 160 160 160 160 160 160 160 160 160 160 160 160 160 160 160 160 160 160 160 160 160 160 160 160 160 160 160 168 174 181 191 196 199 201 202 200 196 190 183 175 167 160 160 160 160 160 160 160 160 160 160 160 160 160 160 160 160 160 160 160 160 160 160 160 160 160 160 160 160 160 160 160 160 160 160 160 160 160 160 160 159 160 165 171 177 181 185 189 192 194 193 191 187 183 180 176 170 165 165 162 160 159 159 159 159 160 165 165 160 160 160 160 160 160 160 160 160 160 160 160 160 160 160 160 160 160 160 161 174 185 189 193 197 199 199 199 199 198 196 193 190 188 186 185 183 183 181 180 178 176 174 173 171 169 167 167 166 167 168 168 167 167 168 168 172 175 176 176 178 180 181 182 182 180 179 178 176 173 168 163 162 161 162 162 162 162 162 161 160 160 160 160 160 160 160 160 160 160 160 160 160 160 160 160 160 160 160 160 160 160 160 160 160 160 160 161 161 162 162 162 163 164 167 170 173 177 179 180 181 182 182 182 183 182 181 180 177 174 171 170 171 172 172 173 173 175 180 186 194 199 203 208 212 215 218 222 225 229 231 233 236 239 243 247 251 254 258 263 266 265 263 255 246 240 239 239 239 239 240 239 239 240 241 243 246 247 248 250 252 253 254 255 257 258 260 262 265 269 273 275 275 276 281 287 294 299 304 307 310 311 311 307 300 295 295 294 294 294 294 295 295 295 295 295 296 296 296 296 296 295 295 295 295 295 295 295 295 296 298 299 299 303 307 311 313 313 313 312 309 307 306 305 305 305 304 304 304 304 304 305 307 306 306 308 311 315 318 323 327 331 334 334 336 337 337 336 334 332 332 330 329 330 332 328 325 323 320 316 312 310 310 310 310 310 310 310 310 312 314 318 319 320 320 320 319 320 320 320 319 316 313 310 305 302 303 304 304 304 304 302 301 298 294 289 286 284 283 280 278 276 274 274 278 278 276 273 273 273 272 273 276 281 287 295 300 301 299 298 297 297 295 294 294 296 297 298 298 298 297 297 297 296 294 292 290 289 289 288 286 285 283 281 279 276 273 269 265 264 266 269 271 270 268 268 271 272 270 265 262 262 260 258 258 258 259 257 255 254 253 253 253 253 253 253 255 258 261 264 266 269 272 276 279 280 282 284 283 278 270 263 257 255 256 260 263 264 266 267 267 269 270 271 271 271 271 272 273 273 271 267 263 260 258 256 252 249 247 248 246 239 231 225 221 219 219 219 216 210 201 193 188 185 185 184 184 184 185 188 192 197 198 198 198
195 187 179 170 162 159 159 160 160 160 160 160 160 160 160 160 160 160 160 160 160 160 160 160 160 160 160 160 160 160 160 160 160 160 160 160 160 160 160 160 160 163 172 182 195 208 220 230 235 239 244 251 260 269 276 282 292 302 308 314 320 324 327 327 327 327 327 326 324 324 324 324 323 324 324 325 325 324 322 320 317 313 310 307 303 299 296 291 285 279 272 270 268 260 252 246 245 249 253 251 247 243 240 239 238 234 231 232 237 243 247 253 257 261 265 266 266 266 267 264 261 266 271 268 256 243 234 226 220 214 207 200 194 188 182 177 172 167 163 159 160 160 160 160 160 160 160 160 159 159 162 167 172 173 168 160 160 160 160 160 160 160 160 160 160 160 160 160 160 160 160 160 160 160 160 160 160 160 160 160 160 160 160 160 160 160 160 160 160 160 160 160 160 160 160 160 160 160 159 161 169 176 184 195 200 203 207 209 207 201 194 185 176 167 161 160 160 160 160 160 160 160 160 160 160 160 160 160 160 160 160 160 160 160 160 160 160 160 160 160 160 160 160 160 160 160 160 160 160 160 160 160 160 160 162 169 175 180 184 189 193 195 197 196 194 189 185 182 178 172 167 165 163 160 159 160 159 159 159 161 162 160 160 160 160 160 160 160 160 160 160 160 160 160 160 160 160 160 160 160 169 181 188 193 198 202 203 203 203 202 200 199 196 194 191 189 187 185 184 183 181 179 178 177 175 174 172 169 168 168 170 171 171 169 167 168 169 173 175 176 177 178 180 183 183 182 181 179 179 177 174 170 165 162 162 162 162 162 162 162 161 160 160 160 160 160 160 160 160 160 160 160 160 160 160 160 160 160 160 160 160 161 161 161 161 161 161 161 161 162 162 163 163 164 166 168 171 174 177 180 180 181 182 182 182 183 182 181 180 178 174 171 170 170 171 172 173 173 176 182 188 195 201 206 211 214 216 219 222 226 229 232 234 236 239 243 248 252 255 259 266 268 266 264 256 246 239 239 239 239 239 239 239 239 239 240 242 244 247 248 250 252 254 255 256 257 259 261 263 266 270 274 275 275 277 283 290 297 302 306 311 313 314 313 308 299 295 294 294 294 294 294 295 295 295 295 295 296 297 297 297 296 295 295 295 295 295 295 295 295 297 299 299 300 304 308 312 313 314 314 313 311 309 307 306 306 305 305 304 304 304 304 306 308 308 307 309 312 315 319 323 327 331 334 334 336 337 337 337 337 335 333 330 328 328 328 328 325 324 321 318 314 311 310 310 310 310 310 311 311 313 315 318 319 319 319 318 318 318 318 319 317 314 311 308 303 301 303 304 304 304 304 303 301 299 294 289 284 282 282 281 279 276 273 272 276 278 276 273 272 272 272 273 276 281 287 295 302 305 305 303 300 300 297 295 296 298 299 299 300 300 300 300 299 299 297 294 292 291 290 289 289 287 286 285 283 279 276 273 268 264 262 263 266 266 264 266 269 270 267 263 261 260 258 257 257 259 259 257 254 253 253 253 253 253 253 253 255 257 259 261 264 266 269 273 276 279 280 281 279 274 267 261 255 254 256 260 262 263 266 267 268 269 270 271 271 271 271 272 272 272 270 267 262 259 257 255 251 247 246 247 244 238 230 224 221 220 220 220 217 211 203 193 187 184 184 184 184 184 184 185 187 192 195 196 197
199 192 183 173 164 159 159 160 160 160 160 160 160 160 160 160 160 160 160 160 160 160 160 160 160 160 160 160 160 160 160 160 160 160 160 160 160 160 160 160 160 160 167 177 188 201 213 223 231 236 242 248 256 266 273 280 290 300 306 311 317 323 325 325 325 325 325 325 324 322 322 322 321 322 322 323 323 323 321 319 316 312 309 305 302 298 294 289 284 278 271 268 267 261 254 247 242 244 249 250 246 242 239 237 237 233 230 230 236 242 247 252 257 262 266 266 266 266 266 261 259 264 271 268 256 242 233 225 220 215 209 202 196 190 184 178 173 168 163 159 160 160 160 160 160 160 160 160 159 159 161 165 170 170 164 160 160 160 160 160 160 160 160 160 160 160 160 160 160 160 160 160 160 160 160 160 160 160 160 160 160 160 160 160 160 160 160 160 160 160 160 160 160 160 160 160 160 160 159 161 170 177 184 197 202 208 212 214 212 208 199 187 177 168 161 160 160 160 160 160 160 160 160 160 160 160 160 160 160 160 160 160 160 160 160 160 160 160 160 160 160 160 160 160 160 160 160 160 160 160 160 160 160 160 164 172 179 184 188 192 196 199 200 199 197 192 188 184 179 175 170 165 163 160 159 160 160 160 159 160 160 160 160 160 160 160 160 160 160 160 160 160 160 160 160 160 160 159 159 159 173 186 192 199 204 207 208 208 207 206 204 202 199 197 195 192 190 188 185 184 182 181 179 178 177 176 174 171 170 171 173 174 173 172 169 168 169 173 175 176 176 178 181 184 184 183 181 180 179 177 175 172 168 164 163 163 165 164 163 163 161 160 160 160 160 160 160 160 160 160 160 160 161 161 160 160 160 160 160 160 161 162 163 163 162 162 162 162 162 163 164 164 164 166 168 169 172 175 178 181 181 181 182 182 182 183 183 182 181 178 175 172 171 171 171 172 173 174 179 186 192 197 202 208 213 216 218 220 224 227 229 233 235 237 240 244 249 253 255 260 268 271 267 264 257 248 241 240 239 239 239 239 239 239 239 238 240 243 247 248 250 253 254 255 256 258 260 262 264 266 270 275 275 275 279 285 292 299 303 308 314 316 316 313 307 298 294 294 294 294 294 294 295 295 295 295 295 295 296 297 297 298 295 295 295 295 295 295 295 295 297 300 301 303 307 311 313 314 314 314 314 311 309 308 307 306 306 305 304 304 304 304 306 308 308 309 310 313 317 321 325 328 331 334 334 336 338 338 339 339 337 334 329 328 328 328 327 325 324 323 321 318 314 311 310 310 310 311 311 312 313 315 317 317 317 317 317 316 315 317 317 314 311 308 305 300 300 303 304 304 305 305 303 302 300 295 289 283 280 281 281 279 276 273 272 275 277 274 272 271 271 271 272 274 280 287 295 303 307 308 306 304 302 299 297 297 299 301 302 302 302 302 302 301 300 299 297 294 293 292 291 290 289 288 287 285 283 280 276 270 264 260 259 262 262 261 264 267 267 264 261 260 259 257 256 257 259 258 256 253 253 253 253 253 253 253 253 254 256 257 258 260 263 266 269 272 275 276 276 274 270 263 258 253 254 256 260 261 263 266 267 267 269 270 270 270 270 271 272 271 271 270 267 262 259 257 255 251 246 243 243 241 236 229 224 221 221 222 222 220 213 204 195 188 184 184 184 184 184 183 183 184 186 189 192 195
203 195 186 177 168 161 159 159 160 160 160 160 160 160 160 160 160 160 160 160 160 160 160 160 160 160 160 160 160 160 160 160 160 160 160 160 160 160 160 160 159 159 163 173 185 196 208 218 226 233 239 245 254 262 270 278 288 298 305 310 316 322 324 324 324 324 324 325 324 321 320 320 319 319 321 321 322 321 319 317 315 312 308 304 301 297 294 289 284 277 271 267 265 262 256 249 242 241 244 246 245 242 238 236 235 232 230 230 235 240 246 251 257 262 266 267 267 267 264 258 256 262 270 266 254 241 231 224 220 215 210 204 197 192 186 180 174 169 164 160 160 160 160 160 160 160 160 160 160 159 160 164 168 169 163 160 160 160 160 160 160 160 160 160 160 160 160 160 160 160 160 160 160 160 160 160 160 160 160 160 160 160 160 160 160 160 160 160 160 160 160 160 160 160 160 160 160 160 160 163 170 175 183 197 207 212 215 218 217 214 203 188 178 168 162 160 160 160 160 160 160 160 160 160 160 160 160 160 160 160 160 160 160 160 160 160 160 160 160 160 160 160 160 160 160 160 160 160 160 160 160 159 159 160 167 176 182 187 192 196 199 202 204 203 200 195 189 185 180 176 170 165 163 160 159 160 160 160 160 160 160 160 160 160 160 160 160 160 160 160 160 160 160 160 160 160 160 159 159 164 179 190 198 206 211 214 213 212 211 210 208 206 203 200 198 195 193 191 188 186 184 182 181 180 179 178 175 172 172 174 176 176 175 173 170 168 169 172 174 175 176 178 182 184 185 183 181 180 180 178 175 173 170 167 165 166 166 165 164 164 162 160 160 160 160 160 160 160 160 160 160 160 161 161 160 160 160 160 160 162 163 164 164 164 164 163 163 163 163 164 164 165 165 168 170 171 173 175 179 182 182 182 183 184 183 183 183 183 182 179 176 173 172 172 172 172 173 177 182 188 194 198 204 210 214 217 219 222 225 227 230 233 235 238 241 245 250 254 256 261 268 271 268 265 258 249 242 241 239 239 239 239 239 239 239 238 239 243 247 248 250 253 254 256 256 258 260 262 264 266 270 274 276 277 281 286 293 300 304 309 314 316 315 312 305 297 293 294 294 294 294 295 295 295 295 295 295 295 296 296 297 299 297 295 296 297 298 299 298 296 298 301 303 305 308 312 314 315 315 315 314 311 309 308 308 307 306 305 304 304 304 304 305 308 308 310 311 314 318 321 325 329 332 334 334 336 338 339 340 340 338 334 329 329 329 328 327 325 325 325 325 323 318 313 310 310 310 311 311 312 313 315 316 317 317 316 315 314 314 314 315 312 309 305 302 299 299 302 304 304 305 305 303 302 301 296 290 284 279 279 279 278 275 272 271 274 275 273 271 270 270 271 272 274 280 287 295 303 308 309 309 307 305 302 299 298 300 302 303 303 303 303 303 303 302 301 299 297 296 294 292 292 290 290 289 288 286 283 277 271 265 259 255 256 257 259 263 264 264 262 258 258 258 255 255 257 258 257 256 254 253 253 253 253 253 253 253 254 255 256 257 257 259 261 265 268 271 272 272 270 265 260 255 252 254 256 259 259 262 265 266 267 268 270 270 270 270 271 271 271 270 269 267 262 259 258 255 251 245 241 239 237 233 228 223 221 221 223 224 222 216 207 197 189 184 184 184 184 183 183 183 182 182 185 190 194
206 199 191 182 171 161 159 159 160 160 160 160 160 160 160 160 160 160 160 160 160 160 160 160 160 160 160 160 160 160 160 160 160 160 160 160 160 160 160 160 159 159 160 168 180 191 204 214 223 231 235 242 252 260 268 276 284 295 303 308 313 319 323 323 323 323 324 324 323 321 319 317 317 318 319 319 320 319 318 316 313 311 307 304 300 296 293 289 284 277 271 267 263 261 256 250 244 239 240 242 242 239 237 235 233 231 230 230 233 238 244 250 255 261 267 268 268 267 263 256 254 260 267 262 251 238 227 221 219 215 210 205 198 193 187 181 175 170 164 160 160 160 160 160 160 160 160 160 160 159 159 161 165 165 161 159 160 160 160 160 160 160 160 160 160 160 160 160 160 160 160 160 160 160 160 160 160 160 160 160 160 160 160 160 160 160 160 160 160 160 160 160 160 160 160 160 160 160 160 163 169 177 190 202 211 216 221 224 224 220 206 188 178 169 162 160 160 160 160 160 160 160 160 160 160 160 160 160 160 160 160 160 160 160 160 160 160 160 160 160 160 160 160 160 160 160 160 160 160 160 160 159 159 163 171 179 185 191 196 199 203 206 208 207 204 198 192 187 181 177 170 165 161 160 159 160 160 160 160 160 160 160 160 160 160 160 160 160 160 160 160 160 160 160 160 160 160 159 159 172 185 196 206 214 220 222 220 217 215 214 212 209 207 204 201 198 196 193 190 187 185 183 182 182 180 179 177 174 173 175 177 178 176 174 171 168 168 170 172 174 176 178 180 183 184 182 180 179 179 178 176 174 171 169 167 167 167 165 164 164 163 161 160 160 160 160 160 160 160 160 160 160 161 161 161 161 161 160 161 163 165 166 166 165 165 165 164 164 164 164 165 165 166 170 172 173 174 179 183 185 186 186 188 188 186 184 183 183 182 179 176 173 172 172 173 176 177 180 185 189 194 200 207 212 215 219 221 223 226 228 230 234 236 239 242 245 250 254 257 262 268 270 268 266 258 249 243 243 240 239 239 239 239 239 239 238 238 241 245 248 250 252 254 256 256 259 260 263 265 268 270 273 275 278 281 287 294 298 303 308 312 313 311 307 302 296 293 294 294 294 294 295 295 295 295 295 295 296 296 296 297 299 298 298 300 301 303 304 302 300 300 302 305 306 310 313 315 316 315 315 313 311 309 308 308 307 306 305 304 304 304 304 305 307 308 310 311 314 318 322 327 330 333 335 335 336 337 339 340 341 339 334 330 329 329 328 327 326 327 328 329 328 323 316 310 310 310 310 310 311 312 314 315 316 316 315 314 313 312 311 311 310 306 303 299 297 298 301 303 304 305 306 304 302 300 297 291 285 279 277 277 277 274 271 270 272 272 272 270 268 268 270 271 274 280 286 294 302 307 310 310 308 307 304 300 300 301 303 304 304 305 305 305 305 304 303 302 300 297 296 295 294 293 292 291 290 288 284 277 271 265 258 253 252 254 258 261 261 261 259 255 254 255 254 254 257 258 257 256 255 253 253 253 253 253 253 253 254 255 256 256 256 258 259 260 262 266 267 267 264 260 257 253 252 253 256 257 258 261 264 265 266 268 269 269 269 270 271 270 270 269 268 266 263 259 258 254 251 246 240 236 233 230 226 223 222 222 224 226 224 218 209 198 190 184 183 183 183 182 182 182 182 182 184 189 193
209 203 195 185 173 162 159 159 160 160 160 160 160 160 160 160 160 160 160 160 160 160 160 160 160 160 160 160 160 160 160 160 160 160 160 160 160 160 160 160 159 159 159 163 175 187 199 212 223 231 234 239 248 257 266 274 283 293 301 306 310 316 322 323 322 322 323 323 322 321 319 316 315 315 317 318 319 318 317 315 312 309 306 303 299 296 293 288 283 278 274 268 263 259 255 250 245 239 238 238 237 236 235 233 231 230 229 229 231 236 241 248 254 260 266 268 268 267 262 255 253 258 262 257 246 235 227 220 217 215 210 205 199 193 186 181 176 171 165 160 160 160 160 160 160 160 160 160 160 159 159 160 162 162 160 159 160 160 160 160 160 160 160 160 160 160 160 160 160 160 160 160 160 160 160 160 160 160 160 160 160 160 160 160 160 160 160 160 160 160 160 160 160 160 160 160 160 160 160 163 171 185 198 208 214 220 226 229 228 224 208 189 178 169 162 160 160 160 160 160 160 160 160 160 160 160 160 160 160 160 160 160 160 160 160 160 160 160 160 160 160 160 160 160 160 160 160 160 160 160 160 160 160 166 174 182 189 195 199 202 206 209 211 211 208 202 195 189 182 178 170 164 161 160 160 160 160 160 160 160 160 160 160 160 160 160 160 160 160 160 160 160 160 160 160 160 159 159 159 173 189 201 212 221 227 226 224 221 219 218 216 213 210 207 204 200 198 195 191 188 186 184 183 183 182 180 178 175 174 176 179 179 177 175 172 169 168 168 170 173 176 177 179 182 183 181 179 178 178 178 176 175 172 170 169 168 167 166 165 165 163 161 160 160 160 160 160 160 160 160 160 160 161 163 163 162 162 162 163 165 167 168 167 167 167 167 166 166 165 165 165 166 168 172 175 177 178 181 185 186 187 189 190 189 187 185 183 181 179 178 176 174 173 174 176 178 180 183 187 190 195 202 209 213 216 219 222 225 228 229 231 234 237 239 242 245 250 254 257 262 267 269 268 266 258 250 244 244 242 240 239 239 239 238 238 238 238 241 245 247 249 252 254 256 256 259 261 263 266 269 270 272 274 277 281 286 291 295 299 305 308 309 308 304 299 294 293 294 294 294 294 295 295 295 295 295 295 296 296 296 296 300 300 301 303 305 308 308 307 304 302 303 306 307 310 314 316 316 316 315 313 311 309 308 308 307 307 305 305 305 304 304 305 307 308 309 311 315 319 322 327 331 333 335 335 336 337 339 340 341 340 335 330 329 329 328 327 329 332 332 332 330 325 317 311 310 310 310 310 310 311 313 315 316 316 315 313 312 311 309 308 307 304 301 297 295 297 301 303 304 305 306 304 302 300 297 292 285 279 276 276 276 273 270 269 269 270 270 268 266 267 269 271 275 280 285 292 301 306 310 311 309 308 305 302 301 302 304 305 305 306 307 307 307 307 305 304 301 299 299 298 296 295 293 292 291 289 284 277 271 264 257 252 249 252 257 259 258 258 257 254 252 251 252 254 258 260 259 257 257 255 253 253 253 253 253 254 254 255 256 256 257 258 259 260 260 263 264 262 258 256 254 252 251 252 255 255 257 261 264 264 265 267 268 269 269 270 271 270 269 269 268 266 263 260 258 254 251 247 240 235 230 227 225 223 223 223 225 227 226 220 210 199 190 183 183 183 183 182 182 182 182 184 187 190 193
211 205 197 186 174 163 160 160 160 160 160 160 160 160 160 160 160 160 160 160 160 160 160 160 160 160 160 160 160 160 160 160 160 160 160 160 160 160 160 160 159 159 159 162 173 185 198 211 223 231 234 238 247 256 265 273 282 292 300 305 309 315 321 323 321 321 322 322 322 320 318 315 314 314 317 318 318 318 316 314 311 309 306 302 299 295 292 288 283 279 275 270 263 259 254 250 246 240 237 237 236 235 233 232 230 229 229 229 230 235 240 247 253 260 266 267 267 266 261 254 252 257 261 256 244 234 227 220 216 214 210 205 199 193 185 180 176 171 166 161 160 160 160 160 160 160 160 160 160 159 159 160 161 161 159 159 160 160 160 160 160 160 160 160 160 160 160 160 160 160 160 160 160 160 160 160 160 160 160 160 160 160 160 160 160 160 160 160 160 160 160 160 160 160 160 159 159 159 160 163 174 189 200 210 215 222 228 230 229 225 209 190 178 168 161 160 160 160 160 160 160 160 160 160 160 160 160 160 160 160 160 160 160 160 160 160 160 160 160 160 160 160 160 160 160 160 160 160 160 160 160 160 161 168 176 183 190 196 200 203 207 211 212 212 209 203 196 190 183 178 170 164 161 160 160 160 160 160 160 160 160 160 160 160 160 160 160 160 160 160 160 160 160 160 160 160 159 159 159 174 190 202 215 224 228 228 225 222 221 220 218 215 212 209 205 201 199 196 192 189 186 185 184 183 183 180 178 175 175 177 180 179 177 176 173 170 167 167 169 172 175 176 179 181 182 180 178 178 178 177 176 175 172 171 170 168 167 166 166 166 164 161 160 160 160 160 160 160 160 160 160 161 162 163 163 162 163 163 163 166 168 169 168 168 168 168 167 167 166 166 166 167 169 173 176 178 179 182 185 186 188 190 191 190 187 185 182 180 179 178 177 174 173 174 176 178 181 184 187 191 195 203 210 213 217 220 223 226 228 229 231 234 237 239 242 245 250 254 257 262 266 268 267 266 257 250 245 244 242 241 239 240 239 238 238 238 238 240 244 247 249 252 254 256 256 258 261 263 266 269 270 271 273 276 280 285 290 293 298 303 307 307 307 303 299 294 293 293 294 294 294 295 295 295 295 295 295 296 296 296 297 300 301 302 304 306 309 310 308 305 303 304 306 308 310 314 316 317 316 315 313 311 309 308 308 307 307 305 305 305 304 304 305 307 308 310 312 316 320 323 327 331 334 334 334 335 336 339 340 341 340 335 330 329 329 329 328 331 333 333 333 331 326 318 312 310 310 310 310 310 310 312 314 315 315 314 313 311 310 309 307 306 303 300 296 294 296 300 303 304 305 306 304 302 300 296 292 285 278 275 275 275 273 270 269 269 269 269 267 266 266 268 271 274 280 284 291 300 306 309 311 310 308 306 302 302 302 304 305 306 306 307 308 308 308 306 305 301 300 300 299 297 295 293 292 292 289 283 276 270 263 257 251 248 251 256 258 257 256 256 253 251 250 252 254 258 261 259 257 257 256 253 253 253 253 254 254 254 255 256 256 257 259 260 260 260 262 263 260 256 254 253 252 250 252 254 254 256 261 263 264 265 267 267 269 269 270 271 269 269 269 268 266 263 260 258 254 251 247 240 235 230 227 225 224 223 223 225 227 226 221 211 200 190 183 183 183 183 182 182 182 182 184 188 191 192
214 208 199 189 178 167 160 160 160 160 160 160 160 160 160 160 160 160 160 160 160 160 160 160 160 160 160 160 160 160 160 160 160 160 160 160 160 160 160 160 159 159 159 160 167 179 193 209 221 230 234 237 243 254 264 272 279 288 296 303 308 313 319 322 320 320 321 321 321 320 317 315 313 314 316 316 317 316 315 313 311 308 305 302 298 295 292 288 284 280 276 271 266 260 255 251 247 242 238 236 233 231 230 230 229 228 228 228 229 233 239 247 253 258 264 265 265 264 261 253 251 256 258 251 240 232 228 220 215 213 210 205 199 193 187 179 173 170 166 161 160 160 160 160 160 160 160 160 160 160 160 160 160 160 160 160 160 160 160 160 160 160 160 160 160 160 160 160 160 160 160 160 160 160 160 160 160 160 160 160 160 160 160 160 160 160 160 160 160 160 160 160 160 160 160 159 159 160 164 169 182 195 203 212 219 225 230 233 232 226 212 192 177 167 160 160 160 160 160 160 160 160 160 160 160 160 160 160 160 160 160 160 160 160 160 160 160 160 160 160 160 160 160 160 160 160 160 160 160 160 160 160 161 170 178 186 193 198 201 205 209 213 214 214 211 205 198 192 184 178 170 163 161 160 160 160 160 160 160 160 160 160 160 160 160 160 160 160 160 160 160 160 160 160 160 160 159 159 159 175 192 208 222 228 230 230 229 227 226 225 223 220 216 212 207 203 200 197 193 189 187 185 184 184 183 181 179 176 176 178 180 180 178 176 174 171 167 166 167 171 173 176 179 181 179 178 178 177 177 177 176 175 172 171 170 169 168 168 168 169 167 163 160 160 160 160 160 160 160 160 160 161 162 162 162 162 163 164 165 168 171 173 173 173 172 171 169 169 168 168 168 168 171 173 177 180 181 183 185 187 188 191 192 190 185 182 181 179 179 178 177 175 173 174 176 178 180 184 187 192 197 204 210 214 217 220 224 226 228 230 232 235 237 239 242 245 250 254 257 261 265 266 266 265 257 250 245 245 242 241 240 240 239 239 238 237 237 240 244 247 249 252 254 256 256 258 260 263 266 269 270 271 273 276 279 281 284 289 295 300 304 305 304 302 298 293 293 293 294 294 294 295 295 295 295 295 295 296 296 296 297 301 302 303 307 309 312 313 311 308 306 305 306 308 310 314 315 316 316 315 314 312 310 309 308 308 307 305 304 304 304 304 305 307 308 310 312 316 320 323 328 331 334 334 334 335 336 338 339 340 340 336 331 329 329 329 329 332 335 334 334 332 328 320 313 310 310 310 310 310 310 312 314 314 314 314 312 310 309 306 304 303 301 298 294 293 296 299 302 304 305 306 304 302 300 296 291 285 279 275 274 274 272 270 269 268 268 268 266 266 266 268 270 274 279 284 290 299 305 309 310 310 308 306 303 302 303 304 305 306 307 308 310 310 309 307 305 303 302 302 301 298 296 295 294 292 289 282 275 268 262 255 250 247 248 253 255 254 253 255 252 249 249 252 255 258 262 261 259 260 257 253 253 253 254 254 256 255 255 256 256 257 260 260 260 261 263 264 259 253 252 251 251 249 251 252 253 255 260 262 263 265 266 267 268 269 270 270 269 269 269 268 266 263 260 258 254 251 247 241 235 230 227 225 224 224 224 226 227 226 222 212 200 190 184 183 183 183 182 182 182 182 184 188 191 190
217 211 203 194 183 171 162 160 160 160 160 160 160 160 160 160 160 160 160 160 160 160 160 160 160 160 160 160 160 160 160 160 160 160 160 160 160 160 160 160 160 160 159 160 163 176 191 208 220 229 235 237 241 251 261 268 275 283 292 300 305 310 316 320 319 319 320 320 320 319 317 314 312 312 314 315 315 315 314 312 310 308 305 302 297 294 292 288 285 281 277 272 267 263 258 255 250 245 242 239 235 231 229 227 227 227 227 227 228 233 237 244 250 254 260 261 261 261 258 253 251 253 253 246 237 231 227 221 215 211 209 206 200 195 188 180 173 169 166 161 160 160 160 160 160 160 160 160 160 160 160 160 160 160 160 160 160 160 160 160 160 160 160 160 160 160 160 160 160 160 160 160 160 160 160 160 160 160 160 160 160 160 160 160 160 160 160 160 160 160 160 160 160 160 160 160 160 165 170 176 186 198 206 215 222 228 232 235 233 226 214 193 176 166 160 160 160 160 160 160 160 160 160 160 160 160 160 160 160 160 160 160 160 160 160 160 160 160 160 160 160 160 160 160 160 160 160 160 160 160 160 160 163 172 180 188 195 199 204 208 212 215 216 216 212 207 200 195 187 179 170 163 161 160 160 160 160 160 160 160 160 160 160 160 160 160 160 160 160 160 160 160 160 160 160 160 159 159 160 176 194 212 224 229 231 231 231 231 230 230 227 224 220 215 210 205 201 198 194 190 187 186 185 185 184 182 181 178 176 178 181 181 179 177 175 171 167 166 166 168 170 174 178 177 173 173 175 176 176 175 175 174 172 171 170 169 169 170 171 171 170 165 160 160 160 160 160 160 160 160 160 161 162 162 162 162 163 166 169 173 176 179 180 180 177 173 171 170 171 172 172 170 172 174 177 181 183 184 186 188 189 192 193 190 185 181 179 179 179 178 178 177 173 174 177 178 180 184 188 194 199 205 212 216 219 222 224 227 229 231 233 235 237 239 242 245 250 254 256 260 263 264 265 264 256 250 246 245 243 242 241 240 240 239 238 237 237 240 243 246 249 252 254 255 256 258 260 262 264 267 269 271 272 274 276 278 281 285 291 297 300 303 302 300 297 293 292 293 294 295 295 295 295 295 295 296 296 296 296 296 297 301 303 304 309 312 317 318 315 311 307 305 306 306 309 312 314 315 316 315 315 314 312 310 309 308 307 305 304 304 304 304 306 308 309 310 312 317 320 323 328 331 333 333 333 333 334 336 338 338 338 336 331 330 330 330 330 333 335 335 335 333 329 323 316 310 310 310 310 310 310 311 312 313 314 313 311 309 307 304 302 301 298 295 292 291 295 298 301 303 305 306 304 302 300 296 291 285 279 275 273 273 272 269 268 268 268 267 265 265 266 267 270 273 279 284 291 299 305 307 309 309 308 306 303 303 303 305 306 307 308 310 312 312 310 308 307 305 303 303 302 299 297 296 295 293 289 281 273 266 260 253 248 245 245 249 251 250 249 250 249 248 250 254 256 258 262 263 261 261 257 253 253 253 254 256 257 256 255 256 256 257 260 261 261 262 263 264 258 252 251 250 249 249 250 251 251 254 258 261 263 264 266 266 268 269 270 270 269 269 269 268 267 263 261 259 255 251 246 242 236 230 227 225 224 224 224 226 228 226 222 212 200 191 184 182 182 182 182 182 182 182 183 185 187 187
219 214 207 200 190 176 164 159 160 160 160 160 160 160 160 160 160 160 160 160 160 160 160 160 160 160 160 160 160 160 160 160 160 160 160 160 160 160 160 160 160 160 160 159 160 176 192 207 219 227 233 235 238 246 256 264 271 280 288 295 300 306 313 317 317 317 317 319 319 318 316 313 310 310 312 313 313 313 312 311 309 307 305 301 297 294 292 288 285 282 277 274 270 265 261 257 253 249 245 241 238 234 230 227 226 226 225 225 226 230 234 239 245 250 254 256 256 256 253 249 250 249 247 242 236 232 229 224 217 211 208 205 200 196 188 181 174 168 165 161 160 160 160 160 160 160 160 160 160 160 160 160 160 160 160 160 160 160 160 160 160 160 160 160 160 160 160 160 160 160 160 160 160 160 160 160 160 160 160 160 160 160 160 160 160 160 160 160 160 160 160 160 160 160 160 160 163 167 176 182 191 201 209 217 224 230 233 235 234 226 213 193 175 165 160 160 160 160 160 160 160 160 160 160 160 160 160 160 160 160 160 160 160 160 160 160 160 160 160 160 160 160 160 160 160 160 160 160 160 160 159 159 165 175 182 191 197 202 206 210 214 217 218 217 215 209 202 196 190 182 174 165 160 160 160 160 160 160 160 160 160 160 160 160 160 160 160 160 160 160 160 160 160 160 160 160 159 159 161 177 195 212 224 230 231 232 232 233 234 234 231 227 223 217 212 207 203 198 195 191 188 187 186 185 184 183 182 180 178 180 182 182 180 178 176 171 168 165 165 166 167 170 172 170 168 170 172 173 173 173 173 173 172 169 169 170 171 171 174 175 174 167 161 160 160 160 160 160 160 160 160 161 162 162 162 163 166 170 174 178 180 182 184 183 180 176 174 174 175 176 176 174 174 177 180 183 185 186 187 188 190 193 195 192 188 184 182 179 179 179 179 177 173 175 177 179 181 184 190 196 202 207 213 218 221 224 227 228 230 231 233 235 237 239 242 245 249 253 256 259 262 263 263 260 253 250 248 246 245 244 242 240 240 238 237 236 237 239 243 246 249 251 253 254 256 258 259 261 262 265 267 269 270 272 273 275 279 284 289 294 299 301 299 297 295 293 292 293 294 297 298 297 297 296 296 299 299 297 296 296 299 301 303 305 311 314 320 322 318 313 309 306 305 305 307 310 313 314 316 316 317 315 313 311 310 309 308 306 304 304 304 304 307 308 309 310 312 317 321 323 328 331 333 332 332 332 333 335 336 336 336 334 331 330 330 330 331 334 336 337 336 335 332 327 320 312 310 310 310 310 310 310 311 311 312 311 311 308 306 303 300 298 294 292 290 290 293 297 301 303 304 305 304 302 299 295 290 285 279 275 272 272 271 269 267 266 266 265 264 265 265 267 270 274 279 286 292 299 303 306 307 307 307 306 304 304 304 305 307 309 310 312 315 315 311 309 308 306 304 303 301 300 298 297 296 294 288 279 272 265 258 252 246 244 243 245 247 247 246 246 246 250 253 256 258 259 262 263 262 261 256 253 253 253 255 257 259 257 255 256 256 257 260 261 262 263 264 264 258 252 251 250 249 248 250 250 249 252 257 260 263 264 264 266 268 269 270 270 269 269 269 268 267 264 261 259 256 252 246 242 235 230 227 225 225 224 224 226 228 226 222 212 201 191 183 181 181 182 182 182 182 182 182 184 184 186
222 218 212 204 194 180 166 159 160 160 160 160 160 160 160 160 160 160 160 160 160 160 160 160 160 160 160 160 160 160 160 160 160 160 160 160 160 160 160 160 160 160 160 159 160 177 195 208 217 223 230 234 236 242 251 260 269 276 284 290 295 301 308 314 314 314 315 317 318 316 314 312 308 308 309 311 312 312 311 310 308 306 303 301 297 294 292 289 286 282 277 275 271 266 261 258 254 250 246 241 238 235 231 227 225 225 225 224 225 228 231 235 240 246 250 251 251 250 247 245 246 245 243 241 238 234 230 225 219 213 207 204 200 195 188 181 174 168 164 161 160 160 160 160 160 160 160 160 160 160 160 160 160 160 160 160 160 160 160 160 160 160 160 160 160 160 160 160 160 160 160 160 160 160 160 160 160 160 160 160 160 160 160 160 160 160 160 160 160 160 160 160 160 160 160 160 163 168 179 187 194 202 210 219 225 231 234 235 232 222 208 192 175 165 160 160 160 160 160 160 160 160 160 160 160 160 160 160 160 160 160 160 160 160 160 160 160 160 160 160 160 160 160 160 160 160 160 160 160 160 159 159 167 176 184 193 199 203 208 213 217 219 219 218 216 210 204 198 191 185 179 169 160 160 160 160 160 160 160 160 160 160 160 160 160 160 160 160 160 160 160 160 160 160 160 160 159 159 161 177 195 209 222 228 231 230 231 232 233 235 234 230 224 218 212 207 203 198 196 192 188 187 186 186 185 184 183 182 179 181 183 182 181 179 176 173 168 165 165 165 165 165 166 165 166 169 172 173 173 173 172 172 171 168 169 171 172 173 176 180 179 169 162 160 160 160 160 160 160 160 160 161 162 162 162 165 168 173 177 180 181 183 185 185 181 177 176 177 180 180 180 178 176 179 182 184 186 189 190 190 191 194 196 195 191 189 188 184 181 180 180 176 174 175 177 177 181 185 191 198 203 209 214 219 222 225 228 229 230 232 234 236 238 240 243 246 249 252 255 258 261 262 260 256 252 250 248 247 246 245 243 240 239 238 236 236 237 239 242 245 248 250 252 253 255 257 258 260 261 263 265 267 268 268 271 273 277 283 288 292 298 300 297 293 293 292 292 293 296 300 303 302 302 299 299 302 303 301 298 297 299 301 302 306 312 316 321 323 318 313 309 305 304 304 306 309 312 314 316 317 317 316 314 312 311 310 309 306 304 304 304 304 306 308 309 310 312 317 321 323 327 331 332 332 332 332 332 334 335 334 334 333 331 330 330 330 332 335 337 337 337 336 334 330 324 315 310 310 310 310 310 310 310 310 310 309 308 307 305 303 300 296 293 291 290 290 292 296 299 301 303 305 304 302 298 294 289 284 278 274 271 271 270 268 267 266 264 264 264 265 265 267 271 275 280 287 294 299 303 305 306 306 306 305 305 305 305 306 309 312 313 315 319 317 313 311 310 307 304 302 301 299 298 297 297 295 288 278 269 262 256 249 245 242 242 242 244 244 243 244 246 252 255 259 260 260 262 263 264 260 256 253 253 253 255 258 260 257 255 256 256 257 260 262 263 264 265 265 259 252 251 250 249 247 247 248 248 252 257 260 262 263 263 264 267 268 269 270 270 269 269 268 267 264 261 260 257 253 246 241 235 230 227 226 225 225 225 226 227 226 221 211 202 191 181 181 181 181 181 181 181 181 182 182 184 185
226 223 215 205 195 181 167 160 160 160 160 160 160 160 160 160 160 160 160 160 160 160 160 160 160 160 160 160 160 160 160 160 160 160 160 160 160 160 160 160 160 160 160 159 160 176 195 210 218 224 231 235 236 238 244 254 262 270 278 285 290 296 302 308 310 310 312 314 315 314 312 309 307 306 308 309 309 310 310 309 307 306 303 301 297 294 290 288 286 282 278 275 271 266 261 258 253 249 245 241 238 235 230 225 224 224 224 224 224 224 228 233 238 243 247 248 247 244 242 240 240 240 241 241 239 235 230 226 220 214 208 204 200 195 187 180 174 168 162 160 160 160 160 160 160 160 160 160 160 160 160 160 160 160 160 160 160 160 160 160 160 160 160 160 160 160 160 160 160 160 160 160 160 160 160 160 160 160 160 160 160 160 160 160 160 160 160 160 160 160 160 160 160 160 160 160 163 170 181 189 196 203 211 220 226 231 233 234 231 218 205 192 175 164 160 160 160 160 160 160 160 160 160 160 160 160 160 160 160 160 160 160 160 160 160 160 160 160 160 160 160 160 160 160 160 160 160 160 160 160 159 161 169 178 186 194 200 205 211 215 220 221 220 219 217 212 204 199 194 188 182 171 161 160 160 160 160 160 160 160 160 160 160 160 160 160 160 160 160 160 160 160 160 160 160 160 159 159 160 172 193 207 217 225 228 224 224 225 227 230 234 230 223 215 209 205 202 198 196 192 188 187 187 187 186 185 183 182 181 181 183 182 181 180 178 175 169 165 165 164 163 163 163 163 165 169 172 173 173 173 173 172 170 167 168 172 173 175 179 183 182 172 164 160 160 160 160 160 160 160 160 162 162 162 163 166 170 175 179 181 182 184 186 186 182 179 179 181 183 182 182 179 178 180 183 185 188 192 195 195 195 197 199 197 193 190 189 187 184 182 180 177 174 175 175 176 181 186 191 198 205 211 215 220 223 226 229 230 231 232 235 237 239 241 243 246 250 251 254 258 260 260 256 253 251 250 249 248 247 246 243 240 238 237 236 236 237 239 242 244 247 249 251 253 254 255 257 259 261 262 264 265 265 266 270 272 276 282 286 291 296 298 294 291 291 291 293 297 301 304 306 306 306 304 304 306 306 302 298 298 298 300 302 305 312 316 322 323 317 311 306 303 302 304 306 308 311 313 316 317 318 316 314 313 312 311 309 306 304 304 304 304 305 308 309 310 313 317 320 323 327 331 332 332 332 332 332 333 333 333 333 332 331 331 331 331 333 337 339 339 339 339 336 332 327 319 312 310 310 310 310 310 310 309 309 308 307 305 303 302 300 296 292 290 289 288 290 294 297 300 301 303 302 300 296 292 287 282 277 273 270 269 269 268 267 265 263 263 264 265 265 268 271 275 281 287 295 300 303 304 305 306 306 305 305 305 305 306 311 314 315 318 320 319 315 312 311 308 304 302 301 299 299 299 298 296 287 276 267 260 254 249 244 241 240 241 242 242 242 244 248 253 256 260 261 262 262 263 264 260 254 253 253 254 256 259 260 258 256 256 256 256 259 262 264 265 266 266 260 252 250 251 250 246 244 246 248 253 257 259 261 261 261 263 266 268 269 269 269 269 269 268 267 265 262 260 256 253 246 241 236 230 227 225 225 224 222 224 227 226 220 210 201 193 184 181 181 181 181 181 181 181 181 182 185 186
228 227 220 208 195 180 167 160 160 160 160 160 160 160 160 160 160 160 160 160 160 160 160 160 160 160 160 160 160 160 160 160 160 160 160 160 160 160 160 160 160 160 160 159 161 176 197 212 221 229 233 237 237 237 239 248 257 264 273 280 285 291 297 302 305 305 307 310 311 311 309 306 305 305 306 307 308 308 308 308 307 306 304 301 297 293 290 288 286 283 279 275 272 266 261 257 251 246 242 240 237 233 227 223 223 223 223 223 222 222 226 231 236 240 244 244 243 239 237 234 234 238 240 242 240 235 230 226 221 214 208 203 199 195 187 180 174 168 162 160 160 160 160 160 160 160 160 160 160 160 160 160 160 160 160 160 160 160 160 160 160 160 160 160 160 160 160 160 160 160 160 160 160 160 160 160 160 160 160 160 160 160 160 160 160 160 160 160 160 160 160 160 160 160 160 161 164 171 183 191 197 204 211 220 227 230 232 232 228 216 202 189 173 162 159 160 160 160 160 160 160 160 160 160 160 160 160 160 160 160 160 160 160 160 160 160 160 160 160 160 160 160 160 160 160 160 160 160 160 160 160 162 169 179 187 195 201 207 212 217 222 223 221 218 216 212 206 200 195 190 185 173 162 160 160 160 160 160 160 160 160 160 160 160 160 160 160 160 160 160 160 160 160 160 160 160 160 160 160 167 189 203 211 220 223 218 217 219 221 225 230 229 221 213 207 202 199 197 196 193 188 186 186 187 187 185 183 182 182 182 183 183 182 181 179 176 171 165 164 163 162 162 162 162 164 169 172 174 175 175 175 174 170 167 167 171 174 178 184 189 187 175 166 160 160 160 159 159 159 159 160 161 162 163 165 167 171 176 180 183 184 184 185 185 183 181 180 182 183 183 182 179 179 181 183 185 191 196 199 199 198 199 200 198 193 189 188 186 183 183 181 177 175 175 175 177 182 186 192 199 207 212 217 221 225 227 229 230 231 233 235 237 239 241 243 246 248 251 254 257 259 259 254 251 251 250 249 248 247 245 243 240 238 236 236 236 237 239 241 243 246 249 251 253 253 254 256 258 260 261 263 264 263 265 269 271 276 281 286 289 291 292 291 291 291 291 295 300 304 308 309 310 309 308 308 309 307 302 298 298 299 300 302 305 312 315 320 320 316 310 306 302 301 303 305 307 311 313 316 317 318 317 315 313 313 311 310 307 304 304 304 304 305 306 308 310 313 316 320 323 327 329 331 331 331 332 332 333 332 332 332 332 331 331 331 332 334 339 341 342 343 343 340 336 330 322 313 311 310 310 310 310 310 309 309 309 307 305 302 300 298 296 292 290 289 287 288 292 295 297 299 300 300 298 294 290 285 279 275 271 269 268 267 267 266 264 263 263 264 265 267 268 271 275 280 286 295 300 302 304 304 305 305 305 305 305 305 307 312 315 315 318 322 321 317 313 312 308 305 304 301 300 299 299 298 296 287 274 266 259 254 249 244 241 239 239 240 240 241 244 248 254 257 261 262 262 263 264 264 259 254 253 254 255 257 259 260 258 256 256 256 257 259 262 264 265 266 266 261 252 249 249 248 244 243 245 248 252 255 258 259 260 260 262 266 267 268 269 269 269 269 268 268 265 262 260 256 252 246 241 236 230 227 225 224 224 221 222 225 224 219 210 201 194 186 181 181 181 181 181 181 181 181 182 187 188
231 231 227 213 196 179 166 160 160 160 160 160 160 160 160 160 160 160 160 160 160 160 160 160 160 160 160 160 160 160 160 160 160 160 160 160 160 160 160 160 160 160 160 159 163 176 197 213 225 232 236 240 239 236 235 242 252 260 266 273 279 285 291 296 299 300 302 305 307 308 306 304 302 302 304 306 306 306 307 307 307 306 305 302 299 296 292 289 287 284 280 276 272 268 262 258 252 246 241 238 235 231 226 222 221 221 222 222 222 221 224 230 234 237 239 239 237 235 232 230 233 238 242 243 241 236 230 226 221 214 207 202 197 193 187 180 174 169 162 160 160 160 160 160 160 160 160 160 160 160 160 160 160 160 160 160 160 160 160 160 160 160 160 160 160 160 160 160 160 160 160 160 160 160 160 160 160 160 160 160 160 160 160 160 160 160 160 160 160 160 160 160 160 160 160 161 165 174 185 192 198 204 211 219 226 229 231 230 225 214 200 185 171 161 159 160 160 160 160 160 160 160 160 160 160 160 160 160 160 160 160 160 160 160 160 160 160 160 160 160 160 160 160 160 160 160 160 160 160 160 160 162 170 180 189 196 202 209 214 218 223 223 220 216 214 212 206 200 195 191 186 174 162 160 160 160 160 160 160 160 160 160 160 160 160 160 160 160 160 160 160 160 160 160 160 160 160 159 159 163 181 197 206 214 220 216 210 211 214 219 225 226 219 211 206 200 197 195 193 191 188 186 186 187 187 185 183 182 182 182 184 183 183 182 180 178 173 168 165 162 161 161 161 161 165 169 171 175 175 176 176 175 171 167 167 170 175 180 187 194 192 177 168 163 160 161 161 159 159 159 159 161 162 164 166 167 171 176 180 183 185 185 185 185 184 183 182 182 182 183 181 180 181 184 186 189 193 198 201 202 201 201 202 198 192 188 184 182 179 180 179 176 175 175 175 179 184 189 195 203 210 215 220 224 226 228 229 230 231 233 235 237 239 241 243 245 247 250 253 256 257 255 253 251 250 250 249 248 246 244 242 239 237 235 235 235 237 239 241 243 245 249 251 252 253 254 256 257 258 259 261 262 263 265 268 270 273 278 281 284 285 287 289 291 291 293 297 301 307 311 314 314 312 311 312 312 307 300 298 299 299 300 303 307 311 314 318 318 315 309 305 301 301 302 304 308 311 313 316 318 319 318 317 314 313 312 310 307 305 304 304 304 304 306 308 311 313 316 319 323 326 328 331 331 331 332 332 332 332 332 332 332 332 332 332 333 337 342 344 345 346 345 344 340 333 324 315 311 310 310 311 310 311 311 311 311 309 307 303 300 298 294 292 290 289 287 287 289 292 294 296 297 297 295 291 287 282 277 273 269 267 266 266 265 264 263 263 263 265 266 268 270 273 277 281 287 294 300 302 303 304 305 305 304 304 304 305 308 311 313 314 318 322 322 319 314 311 307 306 305 302 300 299 299 298 295 285 273 265 259 254 249 245 241 238 237 239 239 240 244 249 255 258 261 261 262 264 265 262 257 253 253 254 256 258 260 260 258 257 257 257 257 259 262 264 265 266 265 261 252 247 246 244 242 243 244 246 250 254 257 258 258 259 262 265 266 267 268 268 268 268 268 268 266 263 260 256 252 245 240 234 228 226 225 224 224 221 219 222 222 217 208 201 194 187 181 181 181 181 181 181 181 181 185 192 192
232 232 230 219 197 178 166 160 160 160 160 160 160 160 160 160 160 160 160 160 160 160 160 160 160 160 160 160 160 160 160 160 160 160 160 160 160 160 160 160 160 160 160 160 164 177 194 213 226 235 239 242 241 236 234 238 245 254 261 268 273 279 286 291 294 296 298 302 303 304 304 301 301 301 302 304 305 305 305 306 307 307 306 303 301 298 294 291 287 285 282 278 273 269 263 258 253 247 242 237 233 230 225 222 220 220 221 221 221 221 223 227 232 234 235 235 233 229 225 228 233 239 243 244 242 237 231 226 220 214 207 202 197 192 185 179 173 168 162 160 160 160 160 160 160 160 160 160 160 160 160 160 160 160 160 160 160 160 160 160 160 160 160 160 160 160 160 160 160 160 160 160 160 160 160 160 160 160 160 160 160 160 160 160 160 160 160 160 160 160 160 160 160 160 160 161 166 176 187 194 199 204 210 218 224 228 229 228 221 210 196 181 169 161 160 160 160 160 160 160 160 160 160 160 160 160 160 160 160 160 160 160 160 160 160 160 160 160 160 160 160 160 160 160 160 160 160 160 160 160 160 163 170 180 189 196 203 211 215 219 224 223 220 216 212 210 205 195 191 189 186 174 162 160 160 160 160 160 160 160 160 160 160 160 160 160 160 160 160 160 160 160 160 160 160 160 160 159 159 160 172 191 201 207 214 213 206 205 207 212 216 217 213 207 203 198 195 193 190 188 187 185 185 187 187 184 181 181 181 182 184 184 183 182 181 178 174 170 167 162 161 161 161 161 165 168 171 174 175 176 176 175 171 167 166 169 173 179 186 194 193 177 168 164 161 161 161 160 159 159 159 161 163 166 167 168 171 176 179 183 185 184 184 184 184 184 183 183 183 183 182 182 183 186 189 193 196 200 203 204 203 204 204 199 192 188 182 179 177 178 177 175 175 175 177 182 186 191 197 204 212 217 222 225 228 231 231 231 232 233 235 237 239 240 242 244 247 250 252 255 255 252 250 250 250 250 250 249 245 242 240 239 237 235 235 235 237 238 240 242 245 249 250 251 252 254 255 256 257 257 258 261 263 264 265 268 270 272 276 280 284 288 291 292 294 297 299 304 310 315 318 318 316 315 316 313 307 299 299 302 302 302 304 308 311 313 316 317 314 309 304 301 301 302 303 308 312 314 317 318 319 319 318 315 313 311 310 307 305 304 304 304 304 305 307 311 313 316 318 322 326 328 331 332 332 332 333 332 332 332 332 333 332 332 333 335 339 343 346 347 347 348 345 341 335 326 316 311 312 312 312 313 313 313 313 312 310 307 305 302 298 293 290 289 288 286 286 286 288 291 294 295 294 292 289 284 280 276 272 268 265 265 264 264 263 263 263 264 266 267 269 271 276 281 285 290 295 300 302 303 303 304 304 304 304 304 305 308 310 311 313 318 323 322 319 315 311 308 307 305 303 300 300 299 297 293 283 272 264 259 255 250 245 241 238 236 237 238 240 245 250 255 258 261 261 261 263 263 260 255 253 253 255 256 259 261 261 259 257 257 257 258 260 263 265 266 266 264 259 251 244 242 241 242 243 243 245 249 253 256 255 255 258 261 263 265 266 266 267 268 268 268 268 266 264 260 256 251 245 239 232 226 225 225 224 224 221 218 218 219 214 206 201 195 189 182 181 181 181 181 181 181 181 186 193 193
234 234 232 225 199 177 165 160 160 160 160 160 160 160 160 160 160 160 160 160 160 160 160 160 160 160 160 160 160 160 160 160 160 160 160 160 160 160 160 160 160 160 160 160 165 178 192 209 224 236 242 245 243 237 233 234 240 248 256 262 267 273 280 285 288 290 294 298 300 302 301 299 298 299 300 302 303 304 304 306 307 307 306 304 302 300 296 293 289 286 284 280 275 270 265 259 255 249 243 237 232 229 225 222 219 219 220 220 219 219 220 224 229 231 230 229 227 224 223 228 234 241 244 245 243 237 232 226 220 213 207 202 198 192 184 178 172 167 161 160 160 160 160 160 160 160 160 160 160 160 160 160 160 160 160 160 160 160 160 160 160 160 160 160 160 160 160 160 160 160 160 160 160 160 160 160 160 160 160 160 160 160 160 160 160 160 160 160 160 160 160 160 160 160 160 161 167 177 188 195 200 202 208 215 220 225 227 226 217 206 192 177 166 160 160 160 160 160 160 160 160 160 160 160 160 160 160 160 160 160 160 160 160 160 160 160 160 160 160 160 160 160 160 160 160 160 160 160 160 160 160 162 170 181 189 197 205 212 217 221 224 224 221 216 211 206 200 190 185 183 183 169 159 159 160 160 160 160 160 160 160 160 160 160 160 160 160 160 160 160 160 160 160 160 160 160 160 159 159 159 165 183 195 201 206 206 202 199 201 204 206 207 205 202 199 197 193 189 188 186 185 184 183 186 185 181 179 181 181 182 185 184 183 183 181 178 175 172 168 162 161 161 161 161 164 168 171 174 174 175 175 174 172 167 166 167 171 176 183 193 193 178 167 165 162 161 161 160 159 159 159 161 164 166 168 169 171 175 178 182 184 183 183 182 183 183 183 183 183 183 184 184 184 188 192 195 198 202 205 206 204 205 204 200 193 187 181 177 176 177 177 175 175 175 178 184 188 193 198 206 213 218 223 227 230 233 234 234 234 234 235 237 238 239 241 243 246 249 252 254 253 250 248 249 248 249 250 249 245 242 239 238 237 235 234 234 236 238 240 242 245 248 249 250 252 253 254 254 254 254 256 258 261 262 264 267 270 273 278 283 287 291 293 294 297 299 302 306 313 318 321 321 319 318 318 314 305 300 302 304 305 305 306 308 311 312 315 315 314 308 303 301 301 302 303 308 312 314 317 318 320 320 319 316 313 311 309 307 305 304 304 304 304 305 307 311 313 316 318 321 325 328 331 332 332 332 333 332 332 332 332 333 333 333 334 337 341 345 347 348 349 349 346 342 336 327 317 314 314 314 314 314 315 315 314 314 312 309 306 303 298 293 289 288 286 285 284 285 286 289 291 292 291 289 286 282 278 274 270 266 264 263 262 261 262 262 263 265 266 267 269 272 277 283 288 292 296 300 302 302 302 303 304 303 303 302 304 307 308 310 312 318 322 322 319 315 311 309 307 305 304 301 299 298 295 288 280 272 265 260 255 251 245 241 237 236 236 236 239 245 250 255 257 260 259 259 261 260 256 253 253 254 255 257 260 262 263 262 258 257 257 258 262 264 266 267 266 263 257 249 242 239 240 243 243 242 244 247 251 253 252 253 256 259 262 263 264 265 266 267 267 268 268 266 264 260 256 250 244 238 231 225 224 225 224 224 220 216 215 215 211 204 200 196 191 183 181 181 181 181 181 181 181 184 188 189
