ncols         930
nrows         30
xllcorner     -71.3777777778
yllcorner     42.75716
cellsize      1.0E-5
NODATA_value  -9999
145 146 146 146 146 144 143 142 141 138 135 133 131 130 129 126 125 124 124 122 120 117 114 114 113 112 112 112 111 111 111 111 111 111 111 112 112 112 113 114 114 115 115 114 111 108 105 105 105 107 109 109 112 118 121 124 123 121 121 120 117 115 114 115 113 111 110 110 109 110 113 115 113 111 110 110 108 106 106 104 103 103 102 100 99 99 98 97 97 95 94 94 94 94 94 94 94 94 94 94 94 95 95 95 95 96 97 97 98 98 98 96 96 95 94 94 94 94 94 94 94 97 99 99 97 96 95 94 94 94 94 94 94 94 96 97 99 100 102 103 103 104 104 104 104 103 103 103 104 107 108 109 109 109 109 109 109 109 110 109 108 106 105 105 103 103 102 102 102 102 103 105 110 111 111 108 108 108 112 116 118 118 116 116 114 112 110 109 108 108 108 107 105 101 99 98 96 93 90 88 88 88 88 88 87 87 87 88 88 88 89 91 91 93 94 96 98 101 103 103 103 105 107 109 110 110 110 111 111 111 113 115 118 119 118 119 119 120 119 118 117 117 117 117 118 117 117 117 118 118 118 119 119 118 118 118 118 118 119 119 119 119 118 118 118 120 121 122 121 121 120 118 118 118 118 119 122 122 122 122 124 124 125 127 128 128 130 131 132 132 133 133 133 133 133 131 130 130 128 126 123 123 123 126 128 129 129 128 128 129 130 130 130 131 134 135 135 134 133 133 132 132 132 132 131 131 131 131 131 132 133 132 130 127 127 127 127 128 130 131 132 133 130 128 128 129 128 130 129 127 125 125 124 123 123 123 124 124 122 119 117 115 114 112 112 111 109 106 103 102 102 102 104 106 109 112 117 118 118 117 115 113 109 108 106 104 101 99 95 90 89 88 88 93 98 100 103 104 104 104 104 103 102 99 94 90 86 84 83 81 77 75 75 75 72 70 67 67 69 70 70 70 69 68 68 68 68 68 69 69 69 70 71 72 76 78 78 80 81 81 82 82 82 81 80 79 78 76 75 74 74 74 74 74 75 74 74 74 74 74 74 74 75 74 74 74 74 74 74 74 74 74 75 75 75 75 75 75 75 75 75 75 75 75 76 79 81 83 84 87 89 90 91 94 95 95 97 97 97 97 98 98 99 100 100 100 100 101 101 101 101 99 99 100 101 102 103 103 103 103 103 104 104 105 105 105 105 108 110 109 105 100 97 95 93 92 90 85 83 81 80 78 79 82 85 86 87 89 92 94 94 93 91 90 90 93 92 92 92 93 93 92 92 91 87 81 74 71 69 68 68 68 68 69 71 72 72 72 71 70 69 69 68 68 68 68 68 68 68 68 68 68 68 68 68 68 69 69 69 69 69 69 69 69 70 70 71 71 72 71 71 70 70 70 69 69 69 69 69 70 70 69 69 69 70 70 70 70 70 70 70 70 71 72 71 70 69 64 63 63 63 62 62 62 62 62 62 62 62 62 62 62 62 62 62 62 62 63 63 64 64 64 64 64 64 64 64 64 64 63 63 63 63 62 62 62 62 62 62 63 64 64 63 62 62 62 63 63 64 64 64 66 66 64 63 61 59 56 56 54 54 54 54 54 55 56 57 56 56 55 53 53 53 53 53 53 53 54 53 54 55 55 56 56 55 55 57 61 65 66 70 73 74 76 78 79 78 76 74 72 72 72 72 72 72 72 72 73 73 72 68 65 62 59 57 57 59 62 63 62 61 60 59 58 56 54 53 53 53 54 54 55 55 54 56 58 61 61 60 58 56 55 54 52 52 50 48 48 48 48 48 49 49 48 47 47 45 45 45 44 44 44 44 43 43 43 42 42 42 42 42 42 43 47 54 58 61 62 62 59 56 53 53 53 50 49 49 50 49 48 47 45 43 42 40 38 39 42 42 42 42 43 43 43 39 36 35 35 35 35 37 38 35 35 35 35 35 35 35 35 35 35 35 35 35 35 35 36 36 36 36 37 37 37 37 36 36 36 35 35 35 35 35 35 35 36 36 39 39 40 39 38 38 37 37 37 39 39 39 39 39 39 39 39 39 39 38 38 38 40 40 40 41 41 41 41 42 42 42 43 41 41 41 42 42 40 39 38 38 38
143 143 144 144 143 142 141 140 138 136 133 131 130 130 129 128 125 123 122 121 119 117 114 113 112 112 112 112 111 111 111 111 111 111 111 112 112 112 113 114 114 115 115 115 113 110 108 108 108 110 111 111 112 115 119 122 122 121 121 120 118 117 117 118 116 112 112 113 111 113 115 115 114 111 110 110 107 106 106 104 103 103 102 100 99 99 98 97 96 95 94 94 94 93 93 93 93 93 93 93 94 94 94 94 94 94 95 95 96 97 97 96 96 95 94 94 94 94 94 94 94 97 97 98 97 96 95 94 94 94 94 94 94 94 95 96 97 98 100 101 102 103 104 104 103 103 103 103 104 107 108 109 109 109 109 109 109 109 110 109 107 105 103 103 103 103 103 102 102 102 103 105 108 112 112 111 110 108 111 115 119 119 118 116 113 110 108 107 106 105 105 106 103 99 98 96 94 91 90 88 87 87 87 88 87 87 87 88 88 89 91 92 93 95 96 97 98 102 104 105 105 105 106 108 110 110 110 111 112 114 115 118 120 120 120 120 120 121 120 120 120 118 118 118 118 118 118 118 118 118 118 119 119 119 119 119 119 119 119 120 120 119 119 119 119 121 122 123 123 123 121 118 118 118 118 120 122 122 122 122 124 124 125 127 128 128 130 132 132 133 134 134 134 134 133 132 131 131 129 127 125 124 124 126 128 129 129 128 128 129 130 130 130 130 133 134 134 134 134 134 133 133 133 133 131 131 131 131 131 133 133 132 130 127 127 127 128 130 133 132 133 134 132 130 130 130 130 130 130 129 128 128 127 128 128 129 129 128 125 123 122 120 119 118 116 114 112 110 106 104 103 103 105 107 110 113 116 118 118 117 115 113 112 111 107 105 102 99 96 92 91 88 86 92 97 100 102 103 102 102 102 102 100 97 92 88 85 82 81 79 76 74 73 73 71 69 67 67 67 69 69 69 69 68 68 68 68 68 69 69 69 70 71 72 75 78 79 80 82 82 82 83 83 82 82 81 80 78 77 76 75 74 75 75 75 74 74 74 75 75 75 75 75 74 74 74 74 74 74 75 75 75 75 75 75 75 75 75 75 75 75 75 75 76 77 79 82 83 84 87 89 90 91 94 95 95 97 98 98 98 99 99 99 100 101 101 101 101 101 102 101 101 100 100 101 101 102 103 103 103 104 106 107 108 109 109 109 110 110 109 106 101 99 97 96 94 92 90 88 85 83 81 79 84 87 88 89 90 93 94 94 92 91 93 94 96 95 95 95 95 95 94 92 88 84 77 73 70 69 68 68 68 68 71 74 74 72 72 71 70 69 69 68 68 68 68 68 68 68 68 68 68 68 68 68 68 69 69 69 69 70 70 70 71 71 71 72 72 72 72 72 72 71 70 69 69 69 69 69 69 69 69 69 69 70 70 70 70 70 70 70 69 69 70 70 69 69 65 63 63 63 63 62 62 62 62 62 62 62 62 62 62 62 62 62 62 62 63 62 63 63 63 64 64 64 64 64 64 63 63 63 63 63 62 62 62 62 62 61 62 62 63 63 61 61 61 61 61 61 61 62 62 63 63 63 62 59 56 56 54 54 54 55 56 55 55 55 54 54 54 53 53 53 53 53 53 53 53 53 53 54 54 54 54 54 54 56 60 63 65 68 72 74 76 79 80 80 78 76 74 72 72 72 72 72 72 72 72 71 69 67 64 61 59 58 59 61 64 65 65 64 61 59 59 57 55 53 53 52 52 54 54 54 54 54 57 59 61 61 59 57 56 55 54 53 51 50 49 48 48 48 48 49 49 47 47 45 45 45 44 44 44 44 43 43 43 42 42 42 42 41 41 42 43 48 52 56 58 59 59 56 52 52 51 48 48 48 48 48 47 45 44 44 42 40 38 38 41 42 42 42 43 43 42 38 35 35 35 35 35 36 36 35 35 35 35 35 35 36 36 35 35 35 35 35 36 36 36 36 36 36 36 37 37 37 36 35 35 35 35 35 35 36 36 36 36 38 39 39 39 38 38 37 37 37 37 39 39 39 39 39 39 39 40 40 39 39 39 39 40 40 40 41 41 41 41 42 42 42 42 41 41 41 43 42 41 40 39 39 39
141 141 141 141 141 139 138 137 136 134 132 131 130 130 130 128 125 122 119 119 118 117 114 113 112 112 112 112 111 111 111 111 111 111 111 112 112 112 113 114 114 116 117 115 114 112 110 110 111 112 113 114 114 114 116 120 120 120 120 119 118 118 118 118 114 113 115 113 112 116 117 116 115 112 109 109 107 105 105 104 103 103 101 100 100 99 99 96 96 95 94 94 94 93 92 91 92 92 92 93 93 93 93 93 93 93 93 93 94 94 94 95 95 94 94 94 94 94 94 94 94 95 96 97 96 96 95 94 94 94 94 94 94 94 94 95 96 97 99 99 102 102 103 102 102 103 103 104 106 107 108 109 109 109 109 109 109 109 110 109 107 104 103 103 103 103 105 105 102 102 104 105 107 110 112 112 111 108 110 113 118 119 118 115 111 109 107 106 104 103 102 103 100 98 97 93 91 90 90 87 86 86 87 87 87 87 87 88 89 90 92 94 94 96 97 99 99 102 104 105 106 105 106 107 109 110 110 111 113 114 117 119 121 121 122 122 122 122 122 122 122 121 120 119 119 118 118 119 119 120 120 120 119 119 119 120 121 121 120 121 120 120 119 119 119 121 123 124 124 123 121 118 118 119 119 120 122 122 122 123 124 124 125 127 128 129 130 132 133 134 135 135 135 134 134 133 133 132 130 127 127 125 124 126 128 128 129 128 128 128 130 130 130 130 133 134 134 134 134 134 133 133 133 133 133 132 132 132 133 133 133 132 129 127 128 128 128 130 133 133 133 133 132 132 131 131 131 131 131 131 131 130 130 131 131 133 134 133 131 128 127 125 123 120 119 117 115 113 109 106 103 104 106 108 110 113 114 117 118 117 116 114 114 112 109 105 102 99 96 94 93 89 85 91 96 99 100 100 100 99 99 99 99 95 90 86 83 80 78 76 74 72 71 70 69 68 67 66 66 67 68 68 68 68 68 68 68 69 69 69 69 70 71 72 75 77 79 80 82 82 83 84 84 84 83 83 81 80 79 78 76 75 75 75 75 75 75 75 75 75 75 75 74 74 74 74 74 74 75 75 75 75 75 75 75 75 75 75 75 75 75 75 75 76 78 80 82 84 85 88 89 90 91 94 95 95 97 98 98 98 99 99 99 100 100 100 101 101 101 102 102 102 102 101 101 101 102 102 103 103 103 107 109 111 111 111 112 113 111 109 105 101 100 99 98 97 96 93 90 87 85 85 84 85 89 90 91 92 94 94 94 93 94 96 98 99 99 99 99 98 96 93 90 86 81 75 72 70 68 68 68 68 69 74 75 74 72 72 70 69 69 69 68 68 68 68 68 68 68 68 68 68 68 68 68 68 69 69 69 69 70 70 72 72 73 73 73 73 73 73 73 72 72 70 69 69 69 68 68 68 68 69 69 69 70 70 69 70 70 70 70 69 69 68 69 69 68 66 64 63 63 63 62 62 63 62 62 62 62 62 62 62 62 62 62 62 62 62 62 63 63 63 63 63 63 63 63 63 63 62 62 62 62 62 61 61 61 61 61 61 61 61 61 61 61 61 61 61 60 60 60 60 59 60 61 60 59 56 56 56 56 56 56 56 54 54 54 53 53 53 53 53 53 53 53 53 53 53 53 53 53 53 53 53 54 54 55 58 60 62 65 69 73 75 78 80 81 80 78 76 74 72 72 72 72 73 73 71 69 67 65 63 61 60 60 61 63 66 67 67 65 63 60 59 57 55 54 53 51 51 52 53 53 53 53 56 59 60 61 60 58 57 56 55 54 53 51 50 48 48 48 48 49 49 48 46 45 45 45 44 44 44 44 43 43 43 42 42 42 41 41 41 41 42 42 46 50 53 55 56 54 52 51 50 48 48 48 47 47 46 44 42 44 44 41 38 38 40 42 42 42 42 41 41 37 34 34 35 35 35 35 36 36 36 36 36 36 36 36 36 36 36 36 36 36 36 36 36 36 36 36 36 36 36 36 35 35 35 35 35 35 35 36 36 36 38 38 38 38 38 38 38 38 37 37 37 39 39 40 40 40 40 40 40 40 40 40 40 39 40 40 40 41 41 41 41 42 42 42 42 41 41 41 42 42 42 41 40 40 40
138 137 138 138 138 137 136 135 134 132 132 130 130 130 130 128 125 121 119 119 118 116 114 113 112 112 112 112 112 111 111 111 111 111 111 112 112 112 113 114 114 116 117 117 115 114 111 112 113 114 114 115 116 114 115 118 119 119 119 119 119 119 120 117 114 114 114 113 116 118 117 117 115 113 111 109 106 105 105 104 103 103 102 103 102 100 99 96 96 95 94 93 93 92 91 91 91 92 92 92 93 93 93 93 93 93 93 93 93 93 93 94 94 94 94 94 94 94 94 94 94 94 95 96 96 95 95 94 94 94 94 94 94 94 94 95 95 96 97 98 101 102 102 101 101 103 103 104 106 107 107 108 108 108 108 109 110 110 110 108 105 104 103 103 103 103 106 106 104 105 105 103 105 109 112 114 112 110 110 114 118 118 115 112 109 107 106 104 102 100 98 98 97 96 94 90 90 92 91 87 86 86 86 87 87 87 87 90 91 92 93 95 95 97 99 100 101 103 105 106 106 106 106 107 109 109 110 110 112 114 117 120 122 122 122 123 123 123 123 124 123 122 121 120 120 119 121 122 122 121 121 121 120 120 120 122 123 123 123 122 121 121 120 120 120 121 124 124 124 123 120 118 119 119 119 120 122 122 122 124 125 125 125 127 128 129 131 133 133 134 135 135 136 135 134 134 134 132 131 130 128 127 126 127 128 128 128 129 129 129 130 130 130 131 133 134 134 134 134 134 133 133 133 134 133 133 133 133 134 134 133 132 128 127 128 129 129 130 131 132 132 133 133 133 132 132 132 132 132 132 133 133 133 134 135 137 138 137 135 132 130 128 125 123 122 120 117 114 111 108 105 106 108 108 110 112 114 116 117 117 116 115 115 112 110 106 103 99 97 96 93 89 83 89 94 96 97 98 98 97 97 97 97 94 89 85 80 77 76 75 73 72 71 70 69 68 67 66 66 66 67 68 68 68 68 68 68 69 69 69 69 70 70 72 74 77 78 80 83 83 84 85 85 85 85 84 83 82 81 80 79 77 75 75 75 75 75 75 75 75 75 75 74 74 74 74 75 75 75 75 75 75 75 75 75 75 76 76 76 75 75 75 75 76 78 80 82 84 85 88 89 90 91 93 95 95 97 97 97 98 99 99 99 100 100 100 101 101 101 102 103 103 103 102 102 102 102 102 103 103 103 108 111 113 113 113 115 114 111 108 105 102 101 100 100 99 98 96 93 90 87 86 88 88 90 91 93 94 94 94 94 95 98 100 102 103 104 103 102 100 96 91 87 83 78 74 71 69 68 68 68 68 69 75 75 73 71 71 70 69 69 69 68 68 68 68 68 68 68 68 68 68 68 68 68 68 69 69 69 69 70 70 72 73 74 74 74 74 74 74 73 73 73 71 70 69 69 68 68 68 68 69 69 69 70 70 69 70 70 70 70 69 69 68 67 67 67 66 65 64 64 63 63 63 63 63 63 63 63 63 63 62 62 62 62 62 62 62 62 63 63 63 63 63 63 63 63 63 63 62 62 62 62 61 61 61 61 61 61 61 61 61 61 61 61 61 61 61 60 60 59 59 59 59 59 59 58 56 56 57 56 56 54 54 54 54 53 53 53 53 53 53 53 53 53 53 53 53 53 53 53 53 53 53 53 53 54 55 57 59 61 65 69 72 75 78 80 80 79 78 76 73 73 74 74 74 72 70 68 65 63 61 61 61 61 63 65 67 69 68 66 63 60 59 58 55 54 53 51 51 51 52 52 52 53 55 57 59 60 60 60 58 57 55 55 54 52 51 50 48 48 48 48 48 47 46 45 45 45 44 44 44 44 43 43 43 42 42 42 41 41 41 41 41 41 42 44 47 51 52 50 50 50 49 47 47 47 46 46 46 44 41 42 44 42 39 38 38 41 42 42 41 41 40 37 34 34 35 35 35 35 36 36 36 36 36 36 36 36 36 36 36 36 36 36 36 36 36 36 36 36 36 36 36 36 35 35 35 35 35 35 36 36 38 38 38 38 38 38 38 38 38 38 38 38 38 39 39 40 40 40 40 40 41 41 41 40 40 40 40 40 40 41 41 41 41 42 42 42 42 41 41 41 42 42 42 42 41 41 40
136 135 135 134 134 134 134 132 131 130 130 130 129 130 130 127 123 119 119 119 118 115 113 113 112 112 112 112 112 111 111 111 111 111 111 112 112 112 113 114 114 116 118 118 117 117 114 114 115 117 117 118 117 115 115 117 118 118 119 119 119 119 120 118 115 115 112 115 119 120 119 118 116 114 112 110 107 106 105 104 103 103 104 105 103 101 99 98 97 94 93 93 93 92 91 91 91 91 91 91 92 92 92 92 92 92 92 92 92 92 93 93 93 93 93 93 93 94 94 94 94 94 95 95 96 95 95 94 93 93 93 94 94 94 94 94 94 94 95 97 100 100 100 100 101 103 104 105 106 107 107 108 107 107 108 109 109 109 109 107 104 103 102 102 102 103 104 105 105 105 105 103 104 109 111 114 113 112 113 117 118 115 112 109 108 106 104 103 101 98 96 95 95 94 92 90 93 94 91 87 86 86 86 87 87 87 89 91 93 94 95 97 97 98 100 101 102 103 105 106 107 107 106 107 108 109 109 110 111 113 116 120 122 122 123 123 123 123 124 124 124 123 123 122 121 121 123 124 123 122 122 121 121 121 123 125 126 125 124 122 122 121 121 121 121 121 124 124 123 121 119 119 119 120 120 121 122 122 123 124 125 125 126 127 128 129 131 133 133 134 136 136 135 135 134 134 133 132 131 131 129 127 124 125 127 127 128 129 129 129 130 130 130 131 132 133 133 134 134 134 134 134 134 134 134 134 134 134 133 132 132 131 129 129 130 129 129 129 130 131 132 133 133 133 133 133 133 133 133 133 134 135 135 137 138 140 140 138 136 133 132 130 128 125 123 120 117 115 112 108 106 107 109 109 110 111 114 114 113 114 116 116 116 113 111 107 103 99 97 97 94 89 82 84 90 93 95 96 96 95 95 95 95 93 88 83 79 78 78 78 76 74 73 72 70 69 67 66 66 66 67 67 67 68 69 69 69 69 69 69 69 69 70 71 74 76 78 80 82 83 84 86 86 87 86 86 85 84 83 82 81 80 78 75 75 75 75 75 75 75 75 75 74 74 74 75 75 75 75 75 75 75 75 75 75 76 76 76 76 75 75 75 75 76 78 80 83 84 85 87 89 90 91 93 94 95 96 97 97 98 98 98 99 100 100 100 100 101 101 101 102 102 102 102 102 102 103 103 103 103 103 108 111 114 115 114 114 114 111 108 106 103 102 102 101 100 99 98 95 93 91 90 90 89 90 91 93 95 96 96 97 99 101 103 106 107 108 106 103 99 94 88 85 82 77 72 68 68 68 68 68 68 69 72 75 73 71 70 69 69 69 69 68 68 68 68 68 68 68 68 68 68 68 68 68 69 69 69 69 70 71 72 72 73 74 75 75 75 75 74 74 73 73 72 72 70 69 68 68 68 68 69 69 69 70 70 70 70 70 70 70 69 68 66 66 65 65 64 64 64 64 63 63 63 63 63 63 63 63 63 63 62 62 62 62 62 62 62 62 63 63 62 62 62 63 63 63 63 63 62 62 62 62 61 61 61 61 61 61 61 61 61 61 61 61 61 61 61 61 61 61 61 62 62 61 60 59 58 58 57 56 54 54 54 54 54 53 53 53 53 53 53 53 53 54 54 53 53 53 53 53 53 53 53 53 53 53 54 54 56 59 61 65 69 72 75 77 78 79 79 77 75 75 76 76 74 72 70 67 64 62 60 60 61 62 64 65 67 68 68 66 62 60 58 57 55 54 53 51 51 51 51 52 52 53 54 55 57 59 60 60 59 57 56 56 54 53 52 51 50 48 48 47 46 46 45 45 44 44 44 44 44 44 43 43 42 42 42 42 41 41 41 41 41 41 41 42 44 47 47 47 49 50 49 47 46 46 46 46 45 43 41 41 44 42 40 38 38 40 41 41 40 40 39 36 35 35 35 35 35 35 36 36 36 36 36 36 36 36 36 36 36 36 36 36 36 36 36 36 36 36 36 36 36 35 35 35 35 35 35 35 36 38 39 39 38 38 38 38 38 38 38 38 38 38 38 39 39 39 40 40 40 40 41 41 40 40 40 40 40 40 40 41 41 42 42 42 42 42 42 41 41 41 41 41 41 41 40 40 40
133 132 132 132 132 131 130 129 129 129 129 128 127 128 127 125 122 119 119 119 118 115 113 113 112 112 112 112 112 112 112 111 111 111 111 112 112 112 113 114 114 116 119 119 119 118 116 116 118 119 119 119 117 115 117 118 118 118 119 119 119 119 120 118 116 114 115 119 122 122 120 119 117 115 114 113 111 109 108 106 104 104 105 105 103 102 100 98 97 94 93 93 93 92 91 91 91 91 91 91 91 92 92 92 92 92 92 91 91 91 92 93 93 93 92 92 93 94 94 94 94 94 95 95 96 95 94 94 93 93 93 94 94 94 94 94 94 94 94 96 98 98 99 99 101 104 105 105 106 106 106 107 107 106 107 108 109 109 108 106 104 102 101 101 102 103 104 104 104 104 103 102 104 108 109 111 113 114 117 117 115 114 110 107 106 104 103 102 100 97 95 94 92 91 91 90 93 94 92 88 86 86 86 86 88 90 91 92 94 95 96 98 99 99 100 102 103 104 105 106 107 107 107 107 108 109 109 110 111 112 115 119 122 122 123 124 124 124 125 126 126 125 124 124 123 122 124 124 124 123 122 121 121 122 124 126 127 126 124 122 122 122 122 122 122 122 122 122 121 120 119 119 120 120 120 121 123 123 123 124 125 125 126 127 128 129 131 132 132 133 134 134 134 134 133 133 132 131 130 130 129 127 125 124 125 127 127 128 129 130 131 131 131 131 132 132 132 134 134 134 134 134 134 134 134 134 134 133 132 131 131 130 130 130 130 130 130 130 130 131 131 133 134 134 134 133 133 133 134 134 134 135 137 139 140 141 140 139 136 135 134 133 130 126 124 120 117 115 112 108 107 107 109 110 111 112 113 112 111 112 115 116 116 113 110 107 102 98 98 98 95 89 82 79 86 88 91 93 94 93 93 92 92 92 88 82 81 82 82 80 79 77 75 73 71 70 68 67 67 67 67 67 67 68 70 70 70 70 70 70 69 69 70 71 73 75 77 80 82 83 84 86 87 87 87 88 87 86 85 84 83 82 81 78 75 75 75 75 75 75 75 75 75 75 75 75 75 75 75 75 75 75 75 75 75 76 76 76 76 75 75 75 75 75 78 80 83 84 84 87 89 89 91 93 94 94 96 97 97 97 98 98 99 99 100 100 100 101 101 101 102 102 102 103 103 103 103 105 106 105 104 107 111 114 115 115 114 112 110 109 107 104 103 103 102 101 100 99 97 95 93 92 92 92 91 92 95 97 98 98 100 102 104 107 110 112 112 108 103 97 92 87 83 81 76 70 68 68 68 68 68 68 69 71 74 72 70 70 69 69 68 68 68 68 68 68 68 68 68 69 69 69 69 69 69 69 70 70 71 73 74 74 74 74 75 76 76 75 75 75 74 73 73 73 72 71 70 70 69 69 69 69 69 69 70 70 70 70 69 69 69 68 67 66 65 65 64 64 64 64 63 63 63 63 63 63 63 64 63 63 63 62 62 62 62 62 62 62 62 63 63 62 62 62 63 64 64 64 63 63 63 63 62 62 62 62 61 61 61 61 61 61 61 61 61 61 61 61 62 63 63 63 63 62 62 61 60 60 60 58 56 55 55 55 54 54 53 53 53 53 53 53 53 54 54 54 54 54 54 54 53 53 53 53 53 53 53 54 54 54 56 59 62 66 70 72 74 75 77 77 77 77 76 76 76 74 71 68 65 63 60 59 59 59 60 62 63 64 65 66 66 63 59 58 57 55 54 53 51 51 51 51 52 52 52 53 54 55 57 58 59 59 58 56 55 54 53 53 52 51 49 48 46 46 46 45 45 44 44 44 44 44 44 43 43 42 42 42 42 41 41 41 40 40 40 40 41 43 44 44 45 48 49 48 47 45 45 46 46 45 44 42 42 43 42 39 38 39 39 40 40 40 40 39 36 36 36 36 36 36 36 36 36 36 36 36 36 36 36 36 36 36 36 36 36 36 36 36 36 36 36 36 35 35 35 35 35 35 35 36 36 37 39 39 39 39 38 38 38 38 38 38 38 38 38 38 39 39 39 40 40 40 40 40 40 39 39 39 39 39 40 40 41 42 42 42 42 42 42 41 41 41 41 41 41 41 41 40 40 40
131 130 129 129 129 128 128 127 127 127 127 126 125 124 124 122 120 119 118 118 117 115 113 113 112 111 111 111 111 111 111 111 111 111 111 112 112 112 113 114 114 116 118 119 120 119 118 117 119 120 120 120 118 116 117 118 119 119 119 119 118 118 118 117 115 116 119 121 123 122 120 119 118 117 117 116 113 112 111 108 108 108 107 106 104 102 101 98 97 94 93 93 93 92 92 92 91 91 91 91 91 91 91 91 91 91 91 91 91 91 91 93 93 93 91 91 93 93 93 93 93 94 94 95 94 94 94 94 93 93 93 94 94 94 94 93 93 93 94 96 96 96 97 99 101 103 104 105 106 104 104 104 104 105 106 107 109 109 107 105 103 101 100 100 101 102 103 103 102 102 101 101 103 105 105 107 111 115 116 115 113 109 107 105 104 103 102 99 97 95 94 91 91 91 91 91 92 94 92 88 86 86 86 89 92 92 92 93 95 96 97 99 100 100 100 103 104 105 106 107 108 108 108 108 109 109 109 109 111 112 115 119 122 123 124 125 125 126 126 127 127 126 126 126 124 124 124 125 124 123 122 121 121 123 125 127 127 126 124 122 122 122 122 122 122 121 121 120 120 120 120 120 120 121 121 121 123 124 124 124 125 125 126 127 128 128 130 130 131 131 132 132 132 132 132 132 131 130 130 130 129 128 126 124 124 125 127 127 128 130 131 131 131 131 131 132 132 133 134 134 134 134 134 134 134 133 133 133 131 131 131 131 131 131 131 130 130 130 130 130 131 133 134 134 134 133 133 133 134 134 135 136 138 140 142 142 141 139 139 139 137 134 131 127 124 119 116 115 111 108 108 108 110 111 111 112 111 110 110 112 115 115 114 110 107 103 100 99 101 100 95 90 82 76 81 84 86 89 89 89 89 88 88 88 85 83 84 84 83 81 81 80 78 74 72 71 68 66 67 67 67 67 67 68 69 70 70 70 71 71 71 70 70 70 73 75 77 79 82 83 84 87 88 89 89 90 90 89 88 87 85 84 83 81 79 77 75 75 75 75 75 75 75 75 75 75 75 75 75 75 75 75 75 75 75 76 76 76 76 75 75 75 74 75 77 80 83 84 84 87 88 89 91 92 93 94 95 96 96 97 98 98 98 99 99 99 100 101 101 101 101 102 102 103 103 103 104 106 107 108 107 107 110 114 116 115 114 112 110 110 108 104 102 102 101 99 98 98 97 96 94 93 94 96 96 96 96 98 100 102 103 105 109 112 115 117 113 108 101 94 88 84 81 77 73 69 68 68 68 68 68 68 69 71 73 72 70 70 69 68 68 68 68 68 68 68 68 68 68 69 69 69 69 69 69 69 69 70 73 76 77 77 77 77 78 78 77 76 75 75 74 74 74 73 73 72 72 72 72 69 69 69 69 69 70 70 70 70 69 69 68 67 67 66 66 67 65 64 64 64 63 63 63 63 63 64 64 64 63 63 63 62 62 62 62 62 62 62 63 63 63 63 64 65 66 67 66 65 64 63 63 63 63 62 62 62 62 62 63 62 62 62 61 62 62 62 62 62 63 63 63 63 63 63 63 62 61 60 60 58 57 57 57 56 55 54 54 53 53 53 53 53 53 54 54 54 54 54 54 54 53 53 53 53 53 53 53 53 54 54 55 58 60 63 67 69 71 72 73 74 76 76 76 76 75 73 68 65 62 60 60 59 59 59 58 59 59 60 61 62 63 63 59 58 56 55 53 52 51 51 51 51 51 51 52 53 53 54 55 56 56 58 58 57 55 54 53 53 52 51 50 49 48 47 46 45 45 44 44 44 44 44 44 44 45 44 42 42 42 41 40 40 40 40 40 40 40 42 42 43 44 46 47 47 46 45 45 45 46 46 46 44 42 41 40 39 39 39 39 39 39 40 40 39 37 37 36 36 36 36 36 36 36 36 36 36 36 36 37 37 37 36 36 36 36 36 36 36 36 36 36 35 35 35 35 35 35 35 35 36 36 37 38 39 40 40 39 39 38 38 39 39 38 38 38 38 38 38 38 40 40 40 40 39 39 39 39 39 39 39 40 40 41 42 42 42 42 41 41 41 41 41 40 40 40 40 40 39 39 39
129 128 128 128 128 127 127 126 125 125 125 124 123 123 122 121 120 118 117 117 116 115 113 113 112 111 111 111 111 111 111 111 111 111 111 112 112 112 113 114 114 115 118 120 120 119 118 118 119 121 121 120 118 117 118 118 119 119 119 119 118 118 117 116 115 120 121 123 123 122 120 120 119 118 117 117 115 114 112 109 109 109 109 108 104 102 101 98 97 94 93 93 93 92 92 92 91 91 91 91 91 91 91 91 91 91 91 91 91 91 91 94 94 94 91 91 91 92 92 92 93 93 94 94 94 94 94 94 93 93 93 94 94 94 94 93 93 93 94 95 95 95 97 99 101 103 103 104 104 103 102 102 103 104 105 107 108 108 107 104 102 101 100 100 100 102 103 103 102 101 100 100 101 102 103 105 110 113 113 112 109 107 104 103 103 101 100 97 95 93 91 91 91 91 91 91 91 93 93 89 86 86 86 90 93 93 93 94 96 97 98 99 100 101 101 104 105 106 107 107 108 109 109 109 109 109 109 109 111 111 115 119 121 123 124 126 126 126 127 128 128 127 127 127 126 125 125 125 124 123 123 122 121 124 125 126 126 126 124 122 122 122 122 121 121 121 120 120 120 120 121 121 121 121 121 121 123 125 125 125 125 125 125 127 127 128 128 129 130 130 130 130 131 131 132 132 131 130 130 130 129 129 127 124 124 124 125 127 127 129 131 131 131 131 131 132 132 133 134 134 134 134 134 134 134 133 133 133 131 131 131 131 131 131 131 130 130 130 130 130 130 134 135 135 134 134 134 133 134 134 135 136 139 141 142 142 142 142 142 141 138 135 131 127 124 118 116 114 110 109 109 109 110 111 111 110 109 109 109 112 113 113 111 108 104 101 100 100 101 101 95 91 83 75 77 80 83 84 84 86 86 86 86 84 84 84 84 84 84 82 81 81 79 75 72 70 67 66 66 66 66 67 67 68 69 70 70 71 72 72 72 71 70 70 73 74 76 78 81 83 84 87 89 89 90 91 91 90 90 89 88 86 84 82 81 79 78 76 75 75 75 75 75 75 75 75 75 75 75 75 75 75 75 75 75 76 76 76 76 75 75 75 74 75 76 80 82 84 84 86 88 89 90 92 93 93 95 96 96 97 98 98 98 99 99 99 100 100 100 101 101 102 102 103 103 103 104 106 107 108 109 108 110 113 116 115 115 112 110 109 107 103 101 99 97 95 96 97 99 97 94 94 95 97 100 101 99 100 102 104 107 110 114 117 118 117 111 103 96 90 85 80 76 72 70 68 68 68 68 69 69 69 70 72 72 71 70 70 69 68 68 68 68 68 68 68 68 68 69 69 69 69 69 69 69 69 69 70 73 77 78 78 78 78 79 79 77 76 76 75 75 74 74 74 73 73 73 73 73 70 70 69 69 69 70 70 70 70 69 69 67 67 67 66 67 68 66 64 64 64 63 63 63 63 63 64 64 65 64 64 63 63 63 63 63 63 63 63 63 63 63 63 65 66 68 69 67 66 64 63 63 63 63 63 63 63 63 63 63 63 63 63 62 62 62 62 63 63 63 63 63 63 63 63 63 63 61 60 59 58 58 58 58 56 55 55 54 54 54 54 54 54 54 54 55 55 55 54 54 53 53 53 53 53 53 53 53 53 53 53 55 57 59 61 64 66 69 71 71 72 73 74 75 75 75 72 68 64 61 60 60 59 59 59 58 58 58 58 59 59 60 61 59 58 56 54 52 52 51 51 51 51 51 51 52 53 53 53 54 54 54 56 58 57 56 54 53 53 52 51 50 49 48 48 47 46 46 45 45 45 45 45 45 44 44 44 42 42 42 41 40 40 40 39 39 39 39 40 41 41 43 45 45 46 46 45 45 45 45 46 46 45 43 41 39 39 39 39 39 39 39 39 39 39 38 38 36 36 36 36 36 36 36 36 36 36 36 37 38 38 37 36 36 36 36 36 36 36 36 36 36 35 35 35 35 35 35 35 36 36 36 36 37 39 40 41 40 40 39 39 39 39 38 38 38 38 38 38 38 39 40 40 39 39 39 39 39 39 39 39 40 40 41 42 42 42 41 41 41 41 41 41 40 39 39 39 39 39 39 38
127 126 126 127 127 126 125 124 124 123 123 122 122 122 121 120 119 118 116 115 115 114 113 113 112 111 111 111 111 111 111 111 111 111 111 112 112 112 113 114 114 116 118 120 121 120 119 119 121 122 121 119 118 118 118 119 119 119 119 119 118 118 116 116 118 121 122 123 123 121 120 120 119 118 117 117 115 115 113 111 110 110 111 108 105 103 101 98 96 94 93 93 93 92 92 92 91 91 91 91 91 91 91 91 91 91 91 91 91 91 91 94 94 93 92 92 91 91 91 91 92 93 93 93 94 94 94 94 93 93 93 94 94 94 94 93 93 93 94 94 94 94 97 98 101 102 102 102 102 101 100 100 102 104 105 107 107 107 105 103 101 100 99 99 99 101 103 103 102 100 99 99 100 101 102 104 108 110 109 108 106 104 101 100 100 99 97 95 93 91 90 91 91 91 91 91 91 92 91 88 86 86 86 91 93 93 93 94 96 98 99 100 100 102 102 104 105 107 108 108 108 110 109 109 109 109 109 109 111 111 114 119 121 123 125 126 127 127 128 128 128 128 128 128 127 126 126 126 125 124 124 123 123 125 125 126 126 126 125 123 122 122 121 121 121 121 120 120 120 120 121 121 122 123 123 123 124 125 125 125 125 125 125 126 127 127 128 129 129 130 130 130 130 131 132 132 131 130 130 130 129 129 128 124 124 124 125 127 127 128 131 132 133 133 132 132 132 133 134 134 134 135 135 135 134 133 133 133 132 132 131 131 131 131 131 130 130 130 130 130 130 133 136 136 136 135 134 134 134 135 136 138 141 142 142 143 143 143 143 141 137 135 131 127 123 117 115 112 109 109 109 109 110 110 110 109 108 108 109 110 109 109 108 106 103 101 100 101 102 100 95 91 83 75 75 76 78 79 80 83 83 84 84 82 81 83 83 83 83 83 81 80 78 76 72 70 67 66 66 66 66 67 67 67 69 69 69 72 73 73 73 72 71 71 73 74 75 78 80 82 84 87 89 90 91 92 92 92 91 91 90 88 87 85 84 82 80 79 77 75 75 75 76 76 76 75 75 75 75 75 75 75 75 75 75 76 77 77 76 75 75 75 75 75 76 79 82 84 84 86 88 89 90 92 93 93 95 95 96 96 98 98 98 99 99 99 99 100 100 101 101 102 102 103 103 103 104 105 106 108 109 109 111 113 115 115 113 111 109 108 105 102 99 97 95 93 94 97 99 98 95 95 97 99 101 102 100 102 104 108 112 116 118 118 118 113 106 97 91 87 83 79 73 68 68 68 68 68 68 69 69 69 70 72 72 71 70 70 69 68 68 68 68 68 68 68 68 68 69 69 69 69 69 69 69 69 69 69 73 77 78 78 78 79 79 79 78 76 76 75 75 75 75 74 74 74 73 73 73 70 70 70 70 70 70 70 70 70 69 69 67 67 67 67 69 69 67 64 64 64 63 63 63 63 63 64 65 66 65 64 63 63 63 63 63 64 63 63 63 63 63 63 64 66 68 69 66 66 65 64 64 63 63 63 63 63 64 64 64 64 64 63 62 62 62 62 63 63 63 63 63 63 63 63 63 62 60 59 59 59 59 59 58 57 56 56 55 54 54 54 54 54 54 55 55 55 55 54 54 53 53 53 53 53 53 53 53 53 53 53 54 56 57 59 61 64 67 70 70 70 71 72 74 75 75 71 68 64 61 60 60 59 59 59 58 57 57 57 57 57 58 59 59 58 56 54 53 52 51 51 51 51 51 51 52 52 52 52 53 53 53 54 56 57 57 55 53 53 52 51 50 50 49 48 48 48 47 46 45 45 45 45 45 44 44 44 42 42 42 41 40 40 40 39 39 39 39 39 39 39 41 42 43 45 46 46 45 45 45 46 46 46 44 43 41 39 39 39 39 39 39 39 39 39 39 38 36 36 36 36 36 36 36 36 36 36 36 37 38 38 38 37 36 36 36 36 36 36 36 35 35 35 35 35 35 35 35 35 36 36 36 36 37 39 39 41 41 41 40 39 39 38 38 38 38 38 38 38 38 39 39 39 39 39 39 39 39 39 39 40 41 41 41 42 42 42 41 41 41 40 40 40 40 39 39 39 39 39 39 38
124 124 125 126 125 124 123 122 122 121 120 120 120 121 120 119 119 118 116 115 115 113 112 112 112 111 111 111 111 111 111 111 112 112 112 112 112 113 114 114 115 117 119 120 121 120 120 120 122 123 122 119 119 119 119 119 120 120 120 119 118 118 117 117 119 121 122 122 122 121 120 120 119 118 118 118 116 115 114 114 112 111 110 108 106 104 101 98 97 95 94 93 93 92 92 92 91 91 91 91 91 91 91 91 91 91 91 91 91 91 91 94 94 93 93 92 91 91 91 91 91 92 93 93 94 94 94 94 92 92 92 94 94 94 94 93 93 93 94 93 93 94 97 99 100 100 100 100 99 99 99 99 102 104 107 107 107 106 104 102 100 100 99 99 99 100 103 103 102 100 98 97 97 101 103 104 105 106 104 104 103 102 99 98 98 97 95 93 91 88 89 90 90 91 91 91 90 89 88 88 86 86 86 90 92 92 94 95 97 99 100 101 101 103 104 105 106 108 109 109 110 110 110 110 109 110 110 111 111 111 114 119 121 123 125 127 128 128 129 129 130 130 129 128 128 128 127 126 126 126 126 125 124 125 125 126 126 126 125 124 123 122 121 121 121 120 120 120 120 120 121 121 122 124 124 124 124 125 125 125 125 125 125 126 127 127 128 129 129 130 130 130 131 131 132 132 131 129 129 129 128 127 127 125 125 125 126 128 128 127 130 132 133 134 134 133 133 133 134 134 134 135 135 136 136 135 135 134 134 133 131 131 131 131 131 130 130 130 130 130 130 132 134 136 137 136 134 134 135 137 138 140 142 142 143 143 143 143 142 139 136 134 131 127 122 116 113 110 109 109 109 110 110 110 109 109 107 107 107 106 105 105 104 103 103 102 102 102 101 98 94 89 83 76 74 74 75 75 77 79 80 82 82 80 79 81 82 81 81 81 79 78 77 75 72 70 67 66 66 66 66 67 67 67 69 69 69 71 73 73 73 72 72 72 73 73 74 77 80 82 84 87 89 90 91 92 93 93 93 92 91 90 89 87 87 85 84 82 80 79 77 76 76 76 76 76 75 75 75 75 74 74 75 75 75 77 78 77 76 75 75 75 75 75 75 79 82 83 84 86 87 88 90 91 92 93 94 94 95 96 97 97 98 98 99 99 99 100 100 100 101 101 101 102 102 103 103 103 104 106 107 109 111 113 114 113 111 109 107 105 103 100 98 94 92 90 91 95 97 97 96 97 98 99 101 102 102 104 109 113 118 119 119 118 115 109 103 96 91 86 82 77 72 68 68 68 68 69 69 69 69 69 71 71 71 71 69 69 69 68 68 68 68 68 68 68 68 68 69 69 71 73 73 71 70 69 69 69 71 75 77 77 78 79 80 80 79 77 76 76 76 76 75 74 73 73 73 72 72 71 70 70 70 70 70 70 70 70 69 69 68 67 67 68 70 69 67 65 65 65 63 62 62 62 63 65 66 67 66 65 64 64 64 64 64 66 64 63 63 63 63 63 63 65 66 66 66 66 65 64 64 63 63 63 63 64 65 65 65 64 63 63 62 62 62 62 63 63 63 63 63 63 63 62 61 60 59 59 59 60 61 61 60 57 56 56 56 55 54 54 54 54 54 55 56 56 55 53 53 53 53 53 53 53 53 53 53 53 53 53 54 55 56 58 60 63 66 69 69 67 68 70 72 72 72 70 67 64 62 61 62 62 62 61 60 58 57 56 56 55 56 56 57 57 56 54 53 52 51 51 51 51 51 51 51 52 52 52 52 52 52 53 55 57 57 56 54 53 52 51 50 50 49 49 49 49 48 47 46 45 45 46 46 46 45 44 42 42 42 41 40 40 40 39 39 39 39 39 39 39 41 39 42 45 46 46 45 44 44 44 45 46 45 44 42 40 39 38 38 38 38 38 38 38 39 38 36 36 36 36 36 36 36 36 36 36 36 37 39 39 39 38 37 37 37 36 36 36 36 35 35 35 35 35 35 35 35 35 36 36 36 36 37 39 40 42 41 41 41 40 39 38 38 38 38 38 38 38 38 38 38 38 38 39 39 39 39 39 40 40 41 42 42 41 41 41 41 40 40 40 40 40 39 38 38 38 38 38 38 38
122 124 125 126 124 123 122 121 120 119 118 118 119 120 122 120 119 118 116 115 115 112 112 112 112 112 112 112 111 111 111 112 112 112 112 112 112 113 114 115 116 118 119 120 121 121 121 121 123 124 123 120 119 119 119 119 121 121 121 120 118 118 118 118 119 121 122 122 122 121 120 120 120 119 119 119 116 115 115 115 113 111 109 108 106 104 101 99 98 96 94 94 94 92 92 92 91 91 91 91 91 91 91 91 91 91 91 91 91 91 92 94 95 94 92 91 91 91 91 91 91 92 92 92 93 94 94 94 92 91 91 94 95 95 94 93 93 92 92 92 92 94 98 99 100 99 99 98 97 98 98 99 102 105 108 107 106 105 103 101 100 99 99 99 99 100 103 103 102 99 97 97 98 101 103 103 102 101 101 101 101 100 98 95 95 95 93 91 89 88 88 90 90 91 90 90 88 88 88 88 87 87 87 88 91 93 96 96 97 99 101 102 102 103 105 105 107 109 110 110 111 111 111 111 110 110 111 111 112 112 114 118 120 123 125 128 128 129 130 130 131 131 129 129 129 128 128 128 128 127 127 126 126 126 126 127 126 126 125 124 124 123 122 121 121 120 120 120 120 121 121 121 122 123 124 124 125 125 125 125 125 125 125 126 127 127 129 131 132 132 132 131 132 133 133 132 131 129 129 128 127 127 127 127 127 126 127 129 129 127 129 132 133 134 134 134 134 134 135 135 135 136 136 136 138 138 137 135 135 134 132 132 131 131 131 130 130 130 130 130 130 131 132 133 135 135 134 135 137 138 139 141 142 142 142 143 143 143 141 138 135 132 130 125 120 115 110 109 109 109 110 111 111 110 109 109 106 106 105 103 102 102 101 100 102 102 102 102 98 96 93 88 83 77 73 73 73 73 75 77 78 80 80 78 77 79 79 80 80 78 77 76 75 73 71 68 66 66 66 66 68 67 67 67 69 69 69 71 72 72 73 73 73 73 73 73 74 76 79 81 83 86 89 90 91 93 93 94 94 93 93 92 91 90 90 89 88 86 84 82 81 80 78 77 76 75 75 75 75 74 74 74 75 75 75 78 78 77 76 76 76 76 76 76 77 78 82 83 83 86 87 88 89 91 92 92 93 94 94 95 96 97 97 98 98 98 99 100 100 100 101 101 101 101 102 102 102 102 103 103 104 107 110 112 112 111 109 107 105 103 101 99 96 92 90 86 88 93 95 96 96 98 98 98 99 102 104 109 115 119 120 119 118 115 110 105 101 96 90 82 77 73 70 68 68 69 71 72 72 72 71 70 71 71 71 70 69 69 69 68 68 68 68 68 68 68 68 68 70 72 76 78 78 75 75 73 72 69 69 70 72 76 78 79 80 80 79 78 77 78 78 76 76 74 73 73 73 72 71 70 70 70 71 71 70 70 70 70 70 70 69 69 68 69 70 69 67 66 66 65 63 62 62 62 64 65 67 68 67 65 66 67 66 66 65 66 65 63 63 63 63 63 63 63 64 64 65 66 65 64 64 63 63 63 63 63 64 65 66 64 63 63 62 62 62 62 63 63 63 63 63 62 62 61 60 60 59 59 60 63 64 63 61 57 57 57 56 55 55 54 54 54 54 55 56 56 55 53 53 53 53 53 53 53 53 53 53 53 53 53 54 55 56 58 60 63 66 68 68 65 64 66 68 69 70 68 66 64 63 63 64 64 64 63 62 60 58 56 55 54 54 55 56 56 56 54 53 53 51 51 51 51 51 51 51 51 51 51 51 51 51 52 54 56 56 56 55 54 52 51 51 51 50 50 50 49 48 48 47 46 46 47 48 48 47 45 43 42 42 42 41 41 40 39 39 39 39 39 39 39 41 37 40 45 46 46 46 45 44 44 45 45 45 45 42 41 39 38 38 38 38 38 38 38 38 37 36 36 36 36 36 36 36 36 36 36 36 37 39 40 40 38 38 38 37 36 36 36 35 35 35 35 35 35 35 35 36 36 36 36 36 37 38 40 41 42 41 41 41 40 39 38 38 38 38 38 38 38 38 38 38 38 38 39 39 39 40 40 40 41 42 42 42 42 41 41 40 40 40 40 39 39 39 38 38 38 38 38 38 38
122 124 127 127 124 122 119 118 117 117 116 117 119 121 124 123 121 118 115 114 112 112 112 112 112 112 112 112 111 111 111 112 112 112 112 112 114 114 114 115 116 118 119 121 121 121 121 121 122 124 124 121 119 119 119 119 120 120 120 119 118 118 118 118 120 121 122 122 122 121 121 121 120 120 119 119 116 115 115 113 112 110 109 108 106 104 102 99 99 96 94 93 93 92 91 91 91 91 91 91 91 91 91 91 91 91 91 91 91 92 93 95 96 94 91 91 91 91 90 89 89 91 92 92 93 94 94 94 92 91 91 94 95 95 95 94 93 91 91 92 92 94 97 98 98 97 97 96 96 97 98 100 103 106 108 106 105 103 102 101 99 99 99 99 100 103 104 104 102 98 97 97 99 101 101 100 99 98 99 98 98 97 96 94 93 91 91 89 86 86 87 90 91 91 90 89 88 87 87 88 88 88 88 88 90 93 96 97 98 99 102 103 103 104 105 106 107 109 110 111 112 113 114 113 112 111 112 114 115 114 116 119 120 122 125 127 129 130 131 132 133 132 131 131 130 130 130 130 129 129 129 128 128 128 128 127 127 127 126 126 125 125 124 123 121 121 120 120 121 121 121 121 122 122 123 123 124 125 125 125 125 125 125 126 127 128 130 132 133 134 135 134 133 134 134 134 133 131 129 128 127 127 127 129 129 129 129 130 130 128 129 131 133 134 135 136 136 136 137 137 136 136 136 136 139 139 138 138 137 136 134 133 132 132 131 130 130 130 130 130 130 130 130 131 132 133 134 135 138 139 139 141 141 141 142 142 142 142 140 137 134 132 128 123 117 112 110 110 111 112 112 112 112 110 110 109 107 104 102 100 99 98 98 98 99 100 100 98 96 95 92 88 83 78 74 72 72 72 73 75 76 78 78 77 75 75 77 77 77 76 75 73 72 70 68 66 66 66 66 67 68 68 68 69 69 69 69 71 72 72 73 73 73 73 73 73 73 75 79 81 82 85 88 90 91 94 94 95 95 95 94 94 93 92 92 91 90 89 87 85 83 82 81 79 76 75 75 75 75 74 74 74 75 75 76 78 78 76 76 76 76 76 77 77 78 79 82 83 83 85 86 87 88 90 91 91 92 93 94 94 95 96 97 98 98 98 98 99 99 100 100 100 100 100 100 101 101 101 101 101 102 104 107 108 109 109 107 104 102 101 100 97 93 89 87 83 87 90 92 94 94 94 95 97 100 104 109 115 119 121 118 115 113 109 105 100 96 92 86 77 74 71 69 69 68 71 73 74 75 75 74 72 71 70 70 69 69 69 69 68 68 68 68 68 68 68 69 71 74 75 79 81 80 79 79 79 78 74 71 70 70 72 75 76 77 79 79 79 78 78 78 76 75 74 73 73 72 71 71 70 70 70 71 72 70 70 70 70 70 70 70 70 70 70 70 69 67 68 66 65 63 62 62 62 64 66 67 69 68 66 67 69 68 68 67 67 66 64 63 63 63 63 63 63 63 63 64 64 64 64 64 64 63 63 63 63 63 64 65 64 63 63 63 63 63 63 63 63 63 62 62 61 61 60 60 60 60 61 62 65 66 64 61 58 58 57 56 55 55 55 54 54 54 56 56 56 55 53 53 53 53 53 53 53 53 53 53 53 53 53 54 55 56 58 61 65 66 67 66 64 62 62 63 64 66 66 66 65 65 66 67 67 66 65 63 61 59 57 56 54 54 53 53 54 54 54 53 52 51 51 51 50 50 50 51 51 51 51 51 51 51 51 53 54 55 56 55 55 53 51 51 51 50 50 50 50 49 48 48 47 47 47 48 48 48 46 45 44 43 42 41 41 40 39 39 40 39 40 40 41 39 36 39 44 45 46 47 48 47 44 44 44 44 44 42 42 40 38 37 37 37 37 37 37 36 36 36 36 36 36 36 36 36 36 36 36 36 37 39 40 41 39 37 37 38 36 36 36 35 35 35 35 35 35 35 35 36 36 36 37 38 38 39 41 41 41 41 41 41 41 40 38 38 38 38 39 39 39 39 38 38 38 38 39 39 39 40 41 41 42 43 43 43 42 40 40 39 39 39 39 38 38 38 38 38 38 38 38 38 38
123 126 127 125 123 119 118 117 116 116 115 116 118 121 125 125 122 120 117 115 113 112 112 112 112 112 112 112 111 111 111 112 112 112 112 113 116 115 114 115 117 117 118 120 121 122 122 122 122 123 123 122 119 119 119 119 119 119 119 118 118 118 118 120 120 121 122 122 122 121 121 123 123 121 119 119 117 115 114 112 111 109 108 106 105 105 104 102 100 96 94 93 93 91 91 91 91 91 91 91 91 91 91 91 91 91 91 91 92 92 94 96 95 93 91 91 92 92 89 88 88 90 91 91 92 93 93 94 92 91 91 94 95 95 96 94 93 91 91 92 93 94 95 96 96 95 95 95 95 97 99 101 104 106 106 104 103 101 100 100 99 99 99 99 102 104 104 103 101 98 97 97 99 98 97 96 95 95 96 96 96 95 94 93 92 90 89 86 85 85 87 88 91 91 89 88 87 87 87 87 88 88 88 88 90 92 96 98 99 100 102 104 104 104 106 107 108 110 111 112 113 115 116 115 114 113 114 116 117 117 118 120 122 123 125 127 129 130 132 133 133 133 132 132 131 131 131 131 130 130 130 129 129 129 129 129 128 128 128 127 127 127 126 125 123 121 121 121 121 121 121 121 122 122 122 122 124 124 124 125 125 125 126 127 128 130 132 133 134 135 136 136 135 135 136 136 136 135 133 130 127 127 129 130 130 130 130 130 130 129 129 130 133 134 136 137 137 137 138 139 137 136 136 136 139 139 139 140 139 137 135 133 133 133 132 130 130 130 130 130 130 130 130 130 131 132 134 135 137 139 139 140 140 140 140 141 141 140 138 136 133 129 125 119 114 112 112 112 113 113 114 113 112 111 111 110 107 103 100 97 95 95 95 96 98 98 97 95 94 93 91 89 84 79 74 72 70 71 72 73 74 76 76 76 74 73 75 75 75 73 72 71 69 68 66 66 66 66 67 67 68 69 69 69 69 69 69 71 72 72 73 74 73 73 73 73 73 74 78 80 82 85 87 90 91 94 94 95 96 95 95 95 94 94 93 93 92 91 90 88 86 84 82 80 77 75 75 75 75 74 74 74 75 76 76 77 76 76 76 76 76 76 77 78 79 80 82 83 83 85 86 86 88 89 90 91 92 92 93 93 94 95 96 97 98 98 98 99 99 99 100 100 100 100 100 100 100 100 101 101 100 101 104 105 106 105 104 102 101 100 98 96 92 86 83 82 85 88 89 90 91 92 95 100 105 109 115 118 121 121 114 110 107 103 99 94 90 87 82 75 72 70 70 70 69 73 76 78 78 78 75 73 71 70 70 69 69 69 69 68 68 68 68 68 68 68 69 73 76 78 81 81 81 81 81 80 81 79 74 71 71 71 72 73 75 78 78 78 78 78 78 75 75 73 73 73 72 71 71 71 70 71 72 72 70 70 70 70 71 71 71 71 71 71 70 69 68 68 66 65 63 62 62 62 65 67 68 69 69 69 68 69 69 69 68 67 67 65 64 64 64 63 63 63 63 63 63 63 64 64 64 64 63 63 63 63 63 63 64 63 63 63 63 63 63 63 63 63 63 62 61 61 61 60 60 60 62 63 65 67 66 64 61 59 58 57 56 56 56 56 55 55 56 57 57 56 55 54 54 53 53 53 53 53 53 53 53 53 53 53 54 54 55 58 62 65 66 66 65 63 60 59 60 60 62 63 64 65 66 68 70 71 69 67 64 62 60 58 57 56 54 52 52 52 53 53 52 52 51 50 50 50 50 50 50 51 51 51 51 51 51 51 52 53 54 55 55 55 54 52 51 51 51 51 51 50 49 49 49 48 48 48 49 49 49 47 47 46 44 43 41 41 41 40 40 40 39 39 39 41 38 36 38 40 42 43 45 47 48 47 43 43 43 43 42 42 40 38 37 37 37 37 37 37 36 36 36 36 36 36 36 37 36 36 36 36 36 36 38 40 42 40 37 37 38 36 36 36 35 35 35 35 35 35 35 36 36 36 38 38 39 39 40 41 41 41 42 42 42 42 40 39 38 39 39 39 40 40 40 38 38 38 38 39 39 40 41 41 42 43 43 43 43 42 40 39 39 39 39 39 38 38 38 38 38 38 38 38 38 38
125 126 125 123 120 118 116 116 115 115 115 116 118 121 125 126 122 121 120 116 114 113 112 112 113 114 113 112 111 111 111 112 112 112 112 114 116 116 115 115 115 116 117 118 119 120 121 121 122 122 122 122 119 119 119 119 118 118 118 118 118 118 119 120 120 121 122 121 122 123 123 124 124 122 120 119 117 117 114 113 112 110 109 108 107 107 106 105 101 96 94 93 93 93 92 91 91 91 91 91 91 91 91 91 91 91 91 91 93 94 95 96 95 93 93 93 94 92 90 88 88 89 89 90 91 92 93 93 92 91 91 93 95 96 95 94 91 91 91 92 93 94 94 94 94 93 93 94 94 97 99 101 103 104 104 103 102 101 100 99 98 99 99 99 102 104 104 103 100 97 95 96 96 94 93 92 91 91 92 94 94 93 93 92 90 89 87 85 85 86 87 87 88 88 88 88 87 87 87 87 88 88 88 88 90 92 95 98 99 100 102 104 105 106 107 108 109 111 112 113 115 116 118 117 117 116 117 118 120 120 121 122 123 124 125 128 129 131 132 133 133 133 133 133 132 132 132 132 131 131 131 131 131 131 131 131 130 130 130 129 129 129 128 126 125 124 123 122 122 122 122 121 122 122 122 122 124 124 124 125 126 127 127 127 129 131 133 134 134 135 137 137 137 137 138 138 138 137 136 133 128 128 130 131 130 130 130 130 129 129 129 130 133 135 136 136 136 137 138 138 137 136 136 137 139 140 140 140 139 137 136 135 134 133 132 131 131 130 130 129 129 129 129 129 130 132 133 135 137 138 139 139 138 138 139 140 139 138 136 134 132 128 123 117 114 114 114 114 115 115 115 114 112 112 112 111 107 103 99 96 93 92 93 94 95 95 94 92 91 91 91 89 85 79 74 70 70 71 71 72 73 73 74 74 72 70 72 72 71 70 70 69 68 66 65 65 65 67 67 67 68 69 69 69 69 69 69 71 72 72 73 74 74 74 74 74 74 75 77 79 81 84 87 89 91 94 95 96 96 96 97 97 96 96 95 95 94 93 92 91 88 85 83 81 78 75 75 75 75 74 74 74 75 75 75 76 76 76 76 76 76 77 78 79 79 80 81 82 83 84 85 86 87 88 89 90 91 91 92 93 93 94 96 97 97 97 98 98 98 99 99 99 99 99 99 99 99 100 100 100 99 99 101 102 103 103 103 101 99 98 97 95 92 86 82 81 83 85 86 88 90 95 100 106 110 113 117 121 121 117 110 106 103 100 95 89 85 81 76 73 72 70 71 71 71 74 80 81 80 79 76 73 71 70 70 70 69 69 69 69 69 69 69 69 69 69 70 73 76 79 82 82 82 82 82 82 81 80 76 76 74 72 72 72 75 76 75 75 77 78 76 75 74 73 72 72 72 71 71 71 71 71 72 73 71 70 70 70 70 70 71 72 72 72 70 69 69 68 66 64 63 62 62 62 65 67 68 70 72 71 70 70 70 70 69 67 67 66 65 65 64 64 63 63 63 63 63 63 63 64 64 64 63 63 63 63 64 65 67 67 65 64 63 63 63 63 63 63 63 61 61 61 61 61 61 62 63 66 68 68 65 64 61 59 58 57 57 56 56 56 56 57 58 59 57 56 56 56 54 54 54 54 53 53 53 53 53 53 53 53 53 54 54 56 60 62 63 63 62 61 59 58 57 57 59 60 62 64 66 68 70 72 71 68 65 63 61 59 58 56 55 51 51 51 51 51 51 51 50 49 49 50 50 50 50 50 51 51 51 51 51 51 52 52 54 54 54 54 54 52 51 51 51 51 51 50 50 50 49 49 49 49 49 49 49 48 48 47 45 44 42 41 41 41 40 39 39 39 39 41 37 36 36 36 37 38 39 43 47 48 45 42 42 42 42 41 40 37 36 35 36 36 36 36 36 36 36 36 36 36 36 37 36 36 36 36 36 36 37 39 41 40 37 36 37 36 36 36 35 35 35 35 35 35 36 36 36 37 39 39 39 40 41 41 41 41 41 41 41 42 41 39 38 38 38 38 39 39 38 38 38 38 38 39 39 39 41 41 42 43 44 44 43 41 39 38 39 38 38 38 38 38 38 38 38 38 38 38 38 38
125 124 123 120 118 117 116 115 115 115 115 116 118 121 124 126 126 122 120 118 117 116 114 114 114 117 116 114 112 111 111 112 112 112 113 114 115 116 115 115 115 115 116 118 118 119 121 121 122 122 122 121 119 119 119 118 118 118 118 118 118 118 119 119 120 122 122 122 125 126 126 125 125 123 121 119 118 117 115 115 113 113 113 111 113 111 109 107 103 101 100 98 96 95 94 94 91 91 91 91 91 91 91 91 91 91 91 92 94 94 96 95 95 94 96 96 95 93 90 89 88 88 89 89 90 92 92 93 92 91 91 91 92 95 95 93 91 91 91 93 93 94 94 94 92 91 92 93 93 95 98 100 101 101 101 100 100 100 99 98 97 99 98 99 100 101 102 102 99 96 94 92 92 91 89 88 88 88 90 91 91 91 91 91 89 89 86 85 86 88 88 87 87 87 87 87 87 87 87 87 87 88 88 88 90 92 95 97 98 100 102 104 105 106 107 109 109 112 113 114 116 118 120 120 119 119 120 120 121 123 124 124 124 125 126 128 129 131 133 134 134 134 134 134 133 133 133 133 132 132 132 132 132 132 133 132 132 132 132 132 131 131 129 128 127 126 124 123 123 123 122 122 122 122 122 122 124 124 124 125 126 128 129 129 130 132 134 135 135 135 137 137 138 138 139 140 140 139 138 134 130 129 130 131 130 130 130 129 129 129 129 129 132 135 136 135 135 136 137 137 137 137 137 137 139 140 140 140 138 137 137 136 134 133 132 131 131 130 130 129 129 129 129 129 130 131 132 134 137 138 138 137 137 137 138 139 138 136 134 132 130 127 122 118 116 116 117 117 117 116 115 115 112 111 111 109 106 102 98 95 92 90 91 92 92 92 90 88 89 89 89 88 85 79 74 70 70 70 70 70 70 71 71 70 69 68 69 69 69 68 68 67 66 64 64 65 66 68 69 68 68 69 69 69 69 69 69 71 72 72 73 74 74 74 74 75 75 75 77 78 81 84 86 88 91 94 95 96 97 97 97 98 97 97 96 96 96 95 95 93 90 87 84 82 79 76 75 75 75 74 74 74 75 75 75 76 76 76 76 76 77 77 79 80 80 80 81 82 82 84 85 85 86 87 88 89 90 91 91 92 93 93 94 96 97 97 98 98 98 98 98 98 98 99 99 99 99 99 99 99 99 98 98 99 101 101 100 99 97 97 96 94 92 86 82 81 82 83 85 88 93 98 103 109 113 117 117 118 118 114 108 103 100 97 93 86 80 76 73 72 72 72 73 73 72 75 81 81 80 79 76 73 71 71 72 73 71 70 70 69 69 69 69 70 70 69 70 73 76 80 81 81 82 82 82 82 81 80 78 78 78 74 72 72 74 75 74 75 76 77 75 74 74 73 72 72 72 71 71 71 71 72 72 73 71 70 70 70 70 70 71 72 72 72 70 69 69 67 65 63 62 62 62 63 66 68 71 74 75 73 72 72 71 71 70 67 67 68 67 65 65 65 64 64 63 63 62 62 63 64 64 64 64 64 64 64 65 69 73 74 71 67 64 63 63 63 63 63 63 61 61 61 61 61 61 62 64 67 68 68 65 64 62 61 59 58 57 57 57 57 57 58 60 59 58 58 59 58 56 55 55 55 54 54 54 54 54 53 53 53 53 54 54 54 57 58 59 59 58 58 58 56 54 55 56 58 60 62 65 67 70 71 71 69 65 63 61 60 58 56 55 52 50 49 48 49 49 49 49 49 49 49 50 50 50 50 50 50 50 50 50 51 51 52 52 53 54 54 53 52 52 52 51 51 51 51 51 50 50 50 50 50 50 49 49 49 48 48 47 45 44 43 42 41 40 39 39 39 40 39 36 36 36 36 36 36 36 41 45 47 45 42 41 41 41 40 38 36 35 35 35 35 35 35 36 36 36 36 36 36 36 37 36 36 36 36 36 36 37 37 39 39 37 36 36 37 37 36 35 35 35 35 35 35 36 36 36 37 40 40 40 40 40 41 41 41 41 41 41 41 41 39 38 38 38 38 39 39 38 38 38 38 38 39 39 39 40 41 41 43 43 43 42 40 38 38 38 38 38 38 38 38 38 38 38 38 38 38 38 38
123 121 120 118 117 116 116 115 115 115 115 117 119 120 123 127 128 125 123 121 121 121 120 120 118 119 118 116 114 113 112 112 112 112 112 113 114 115 115 115 115 115 116 117 117 118 119 121 121 122 122 120 119 118 118 118 118 118 118 118 119 119 119 119 120 123 124 125 127 127 127 126 125 123 121 118 117 117 117 116 114 116 115 114 115 114 112 109 106 106 105 101 98 96 96 95 92 91 91 91 91 91 91 91 91 91 91 93 94 94 96 96 96 98 99 97 95 93 91 90 88 88 88 88 90 91 92 93 91 90 89 89 90 92 93 91 91 91 92 94 94 94 93 93 91 91 92 92 92 94 96 98 98 98 98 97 98 98 98 97 97 97 96 98 98 98 99 99 98 96 93 90 89 88 86 85 85 87 88 89 89 89 90 90 89 88 85 84 86 89 90 87 87 87 87 87 87 87 87 87 87 87 87 88 90 92 94 96 98 100 102 104 105 106 108 109 109 112 113 114 117 119 121 122 122 122 122 123 123 124 126 126 126 126 127 129 130 132 133 134 134 134 134 134 134 134 133 133 133 133 133 134 134 134 135 135 134 134 135 134 133 132 131 131 129 127 126 126 126 125 123 123 123 122 122 123 124 124 124 126 128 129 131 131 131 132 134 135 136 137 137 138 139 139 140 142 143 142 140 136 134 131 132 132 130 130 130 129 129 129 129 129 130 133 134 134 134 135 135 136 137 137 137 138 139 139 139 138 138 138 137 136 135 133 132 131 131 131 130 129 129 129 129 129 129 130 132 134 136 137 137 136 136 137 137 137 136 134 132 130 128 124 121 118 118 116 116 117 117 116 115 115 114 112 111 108 104 100 96 94 91 89 88 89 89 88 86 87 87 87 86 86 83 79 74 70 69 69 69 69 67 67 66 65 65 64 66 66 66 67 66 65 63 63 64 65 66 69 69 68 68 69 69 69 69 70 70 71 72 72 73 74 74 74 75 75 75 75 77 77 80 83 85 88 90 93 95 97 98 98 98 98 98 98 98 98 98 97 97 96 93 89 85 82 79 76 77 76 75 74 74 74 74 75 75 75 76 76 76 76 77 77 79 79 79 80 81 81 82 83 84 84 85 86 87 88 89 90 90 91 92 92 93 95 96 97 97 98 98 98 98 98 98 98 98 98 98 98 98 97 97 98 98 96 98 98 98 97 96 95 95 93 90 86 82 80 81 82 86 91 96 100 105 111 115 116 114 114 113 109 104 100 96 92 88 82 78 75 72 72 72 73 75 75 74 75 78 80 78 77 75 73 72 72 74 74 73 72 71 70 70 70 70 71 71 71 71 72 75 78 80 81 81 81 81 82 81 80 79 79 78 76 73 72 72 72 73 74 75 76 75 74 74 73 72 72 72 71 71 71 71 72 72 73 72 71 70 70 70 70 71 72 72 72 70 69 68 66 64 63 62 62 63 66 69 72 74 76 78 76 76 74 72 71 70 69 70 69 69 67 66 66 65 64 64 63 62 62 64 64 64 63 63 63 63 65 68 71 75 77 74 70 67 64 64 63 63 63 63 62 62 62 62 62 62 62 64 66 66 66 65 64 64 63 61 60 59 58 58 59 59 60 61 59 59 60 61 59 58 58 58 57 56 56 56 55 54 53 53 53 53 53 53 53 54 54 54 54 55 55 55 55 54 54 54 55 57 60 63 66 68 69 69 68 65 63 61 59 58 56 54 52 50 48 48 48 48 48 48 49 49 49 49 49 50 50 50 50 50 50 50 50 51 51 51 52 53 53 52 52 52 52 51 51 51 51 50 50 50 50 50 50 50 49 49 49 49 48 48 47 46 45 44 43 42 40 39 39 41 38 36 36 36 36 36 36 36 37 42 45 45 42 40 40 40 40 37 35 35 35 35 35 35 35 35 35 35 36 36 36 37 37 36 36 36 36 36 36 36 36 36 36 36 36 36 36 36 37 35 35 35 35 35 35 36 36 36 37 38 38 39 39 40 41 41 41 41 41 41 40 40 40 38 38 38 38 38 38 37 37 38 38 38 39 39 39 40 41 41 42 43 43 42 39 38 38 38 38 38 38 38 38 38 38 38 38 38 38 38 38
120 118 117 116 116 115 115 115 115 115 115 115 118 120 123 127 129 128 126 124 124 124 124 123 122 122 120 118 116 114 113 112 112 112 112 114 114 114 115 115 115 115 116 117 117 118 118 121 121 122 122 120 119 118 118 118 118 118 118 118 119 119 118 118 119 123 126 128 128 128 127 127 125 123 120 118 117 117 117 117 116 118 118 118 117 116 115 111 107 107 105 101 99 97 96 96 93 91 91 91 91 91 91 91 91 91 92 93 94 94 95 97 97 98 98 97 96 94 91 90 88 88 88 88 89 90 91 92 91 89 88 88 89 89 90 91 91 92 93 94 94 93 93 92 91 91 91 91 91 92 93 95 95 94 94 95 96 97 97 97 96 95 95 95 95 96 97 97 96 94 92 90 88 87 85 85 85 86 87 87 87 88 89 89 88 86 84 84 86 89 91 89 88 87 87 87 87 87 87 87 87 87 87 88 90 91 93 96 98 99 102 104 105 107 108 109 110 112 113 115 117 120 121 123 124 124 124 125 125 126 127 127 127 127 127 130 131 132 134 134 134 135 134 134 134 134 134 134 134 134 134 135 135 135 135 136 136 136 136 136 135 134 133 132 131 130 129 128 128 127 125 124 123 123 123 123 124 124 124 127 130 131 132 133 132 132 135 136 137 138 139 140 141 142 143 144 146 145 144 139 135 134 136 136 134 134 134 131 129 129 129 129 129 130 132 132 133 133 134 136 136 138 138 138 138 138 137 137 138 138 138 136 135 134 132 131 131 131 130 129 129 129 129 129 129 130 132 134 135 136 135 135 135 135 135 134 132 130 129 127 124 122 120 120 119 116 114 115 115 114 115 115 114 112 111 106 102 97 94 92 90 88 86 85 85 85 85 86 86 85 84 83 82 79 74 71 67 68 68 67 66 63 63 62 62 63 63 64 65 66 64 63 63 63 64 65 66 68 68 68 69 69 69 69 70 71 71 72 73 73 73 74 74 74 75 75 75 76 77 77 79 82 85 87 89 92 95 97 98 99 99 99 99 99 99 99 98 98 99 99 95 90 86 82 79 79 80 79 77 74 74 74 74 74 74 75 75 75 76 76 77 77 78 79 79 79 80 81 81 82 83 83 84 86 86 87 88 88 89 90 91 91 92 94 95 96 96 97 97 98 97 97 97 97 98 98 98 97 97 97 97 97 97 95 95 95 96 95 94 94 93 92 89 86 82 80 80 83 88 92 97 101 106 111 113 111 110 109 108 105 101 95 91 89 85 81 77 75 73 73 74 76 76 76 75 75 77 76 76 75 74 73 72 74 74 75 75 74 72 71 71 71 72 72 72 72 72 72 74 76 78 80 81 81 81 82 81 80 79 79 78 78 75 72 72 72 72 74 75 75 74 73 73 73 72 72 72 71 71 71 72 72 72 72 72 71 70 70 70 70 70 72 72 71 70 69 68 65 63 63 62 63 64 68 72 74 77 78 78 77 77 76 74 72 70 70 70 70 69 68 67 67 65 65 64 64 65 65 64 63 63 63 62 62 62 66 69 71 75 77 75 71 67 65 64 64 63 63 63 63 63 63 63 63 63 63 63 64 65 65 65 65 65 65 64 62 62 60 60 61 62 62 62 60 61 61 61 60 60 60 61 59 59 59 59 57 55 54 54 54 53 53 53 53 54 54 54 54 54 54 54 54 54 54 54 54 55 58 61 63 65 66 67 66 64 62 60 58 57 55 53 51 49 48 48 48 48 48 48 48 48 48 49 49 49 49 49 49 49 50 50 50 51 51 51 52 52 52 52 52 51 51 51 51 51 51 50 50 50 50 50 50 50 49 49 49 49 49 49 48 47 46 46 45 44 43 41 41 41 37 36 36 36 36 36 36 36 36 38 41 43 42 39 38 39 38 35 35 35 35 35 35 35 35 35 35 35 35 36 36 37 38 37 37 36 36 36 36 36 36 36 36 36 36 36 36 36 36 36 35 35 35 35 35 36 36 36 36 37 38 38 39 41 41 41 41 41 41 41 40 40 40 39 38 38 38 38 38 37 37 38 38 38 39 39 40 41 41 41 42 43 43 42 39 38 38 38 38 38 38 38 38 38 38 38 38 38 38 38 38
117 116 115 114 114 113 113 113 114 114 114 115 118 120 124 127 130 131 129 127 127 126 127 127 126 125 123 120 118 117 115 114 114 114 114 115 115 115 115 115 115 115 116 117 117 118 118 121 121 122 122 121 119 118 118 118 118 118 117 117 118 118 119 119 122 126 129 130 129 128 129 129 127 125 122 118 117 117 118 120 120 121 122 122 120 119 117 114 109 107 104 100 99 97 96 95 94 91 91 91 91 91 91 91 91 92 93 94 94 94 95 97 97 97 97 97 96 94 92 91 88 88 88 88 89 89 90 90 90 88 88 88 88 88 90 91 92 93 94 94 93 93 92 91 90 91 91 91 90 90 90 92 92 92 92 94 96 96 97 97 94 93 93 93 94 95 96 95 94 93 91 88 86 85 84 84 85 85 85 85 86 87 87 87 86 83 84 84 85 88 91 89 88 87 87 87 87 87 87 87 87 87 87 88 91 91 93 95 98 99 102 104 105 108 109 110 111 112 114 116 118 120 122 125 126 127 127 127 127 127 127 128 129 129 129 130 131 133 134 135 135 135 135 135 135 135 135 135 135 135 136 136 136 137 137 137 137 137 137 137 136 135 135 134 133 132 131 130 130 129 127 125 125 124 124 124 124 124 126 128 131 132 133 134 134 134 136 138 139 139 141 143 144 146 147 147 149 149 147 142 137 137 139 139 138 138 137 135 131 129 129 129 129 129 130 131 132 133 134 135 136 137 137 137 137 137 136 136 137 138 138 136 135 134 132 131 131 131 130 129 129 129 129 129 129 131 131 132 133 133 133 133 132 132 132 130 129 128 126 123 121 120 121 120 118 115 112 112 112 113 115 115 114 112 108 104 98 94 91 90 88 86 85 83 83 83 84 84 84 82 81 80 79 78 73 71 67 67 67 66 64 63 63 62 62 62 63 64 64 64 63 63 63 63 65 66 66 68 68 68 69 70 70 70 71 72 72 73 73 73 74 74 75 75 75 75 75 77 77 77 78 82 84 86 88 91 94 96 98 99 99 100 100 100 101 100 100 100 100 99 96 91 86 83 81 82 83 82 80 76 74 74 74 74 74 75 75 75 75 76 76 76 78 78 78 79 80 80 81 82 82 83 84 85 85 86 86 87 88 89 90 90 91 92 94 94 95 96 96 96 96 96 96 97 97 97 97 96 96 96 96 95 95 94 93 93 94 94 93 91 90 90 88 85 81 79 80 85 89 93 97 102 107 111 110 108 106 105 104 101 97 92 89 87 84 80 77 75 73 73 74 77 76 76 75 75 76 75 75 74 73 73 74 75 75 74 74 74 73 72 72 72 73 73 73 74 74 73 73 75 77 77 79 79 79 80 79 78 77 77 77 77 76 73 72 72 72 72 73 73 73 73 73 72 72 72 72 71 71 71 71 71 71 71 71 71 70 70 70 70 71 72 72 71 70 69 68 65 63 63 62 63 65 68 73 75 77 78 78 78 78 76 74 73 72 72 72 71 69 69 68 67 66 67 67 66 65 63 63 62 62 62 62 62 62 64 68 71 75 77 75 71 68 66 64 64 65 64 64 63 63 63 63 63 63 63 63 64 64 65 65 65 67 67 67 67 66 64 64 65 64 64 63 63 63 62 62 61 61 62 63 63 64 64 62 60 57 55 54 54 53 53 53 53 53 53 53 53 53 53 53 53 53 53 54 54 54 55 58 61 62 63 63 63 62 61 59 57 55 54 52 50 49 49 49 48 48 48 48 48 48 48 49 49 49 49 49 49 49 49 49 50 50 51 51 51 51 51 51 51 51 51 51 51 51 51 50 50 50 50 50 50 50 49 49 49 49 49 49 49 49 48 48 46 45 44 43 43 40 36 35 35 35 36 36 36 36 36 36 37 39 40 37 36 36 36 35 35 35 35 35 35 35 35 35 35 35 35 36 36 37 38 37 35 36 36 36 36 36 36 36 36 36 36 36 36 36 36 38 36 35 35 35 35 36 36 36 36 37 38 38 39 41 41 41 41 41 41 40 39 39 40 40 38 37 37 37 37 37 37 38 38 38 39 40 40 41 41 41 42 43 43 43 40 38 38 38 38 38 38 38 38 38 38 38 38 38 38 38 38
114 114 113 113 113 112 110 111 113 113 114 115 118 121 125 128 131 133 132 129 128 128 129 130 130 130 128 126 123 120 118 117 115 115 116 115 115 115 115 115 115 116 117 117 117 118 118 120 121 121 121 119 118 118 118 118 118 118 117 117 117 117 119 124 128 131 132 132 131 131 131 130 128 126 122 119 119 120 122 123 124 125 126 124 123 121 121 115 110 106 103 99 99 97 97 95 94 91 91 91 90 90 90 91 91 91 93 95 95 95 95 97 97 97 97 96 96 94 92 91 89 88 88 88 88 89 89 89 89 88 88 87 87 87 90 92 92 93 94 93 93 92 91 90 90 91 90 90 89 89 89 90 90 90 90 91 94 96 97 96 93 91 91 93 93 95 95 94 93 92 89 87 85 84 84 84 85 85 85 85 86 86 86 85 83 82 84 84 85 88 90 89 88 87 87 87 87 87 87 87 88 88 88 88 91 91 93 94 98 100 102 103 104 108 110 111 111 113 115 116 118 120 123 126 128 128 128 128 128 128 128 129 130 130 130 130 131 133 134 135 135 136 136 136 136 136 136 136 136 136 136 137 137 138 138 138 138 138 138 138 137 137 136 135 134 133 132 132 131 130 128 127 127 126 125 124 125 125 126 129 131 132 133 135 136 137 138 139 140 141 143 146 147 149 151 152 152 152 149 144 140 138 141 141 140 140 139 137 133 130 129 129 129 129 130 131 131 133 134 135 136 137 137 137 136 136 136 136 136 137 137 136 134 133 132 131 131 131 130 129 129 129 129 129 129 130 131 131 132 132 132 131 130 129 128 127 125 124 122 120 120 119 119 117 115 113 110 109 110 113 114 114 111 108 105 101 97 94 91 89 87 83 82 81 81 82 83 83 82 80 78 77 77 76 73 71 68 67 67 66 65 65 63 62 62 63 63 63 63 63 63 63 63 63 65 66 66 68 68 68 69 70 70 71 72 73 73 74 74 74 74 75 75 75 75 76 77 78 78 78 78 82 84 86 88 90 93 95 97 99 100 100 101 101 101 101 101 101 101 99 96 91 86 84 84 85 85 85 82 78 74 74 74 74 74 74 75 75 75 76 76 76 77 78 78 79 80 80 80 81 82 82 83 84 85 85 86 87 87 88 89 89 90 91 92 93 94 94 95 95 96 96 96 96 97 97 97 96 96 96 95 94 94 93 91 91 92 92 92 90 88 87 86 83 80 78 81 85 90 93 97 102 108 109 106 103 102 101 99 97 93 89 86 84 80 78 76 75 74 74 74 76 76 76 75 75 75 75 75 73 73 74 75 76 76 74 73 73 73 73 73 73 73 74 74 75 76 75 75 75 76 76 76 77 77 77 77 77 76 76 76 76 76 73 72 72 72 72 72 72 73 73 73 72 72 72 72 71 71 71 71 71 71 71 71 71 70 71 70 70 71 71 71 71 70 69 68 65 63 63 64 65 65 68 72 74 76 77 78 78 78 76 75 73 73 73 73 71 70 69 69 69 69 69 68 67 66 65 63 62 62 62 62 62 62 64 68 71 75 76 75 72 70 67 66 67 67 66 66 65 64 64 64 63 63 63 64 64 64 65 66 66 67 68 68 68 67 67 67 67 65 65 64 63 63 62 62 62 62 63 64 65 66 66 65 63 60 57 55 54 53 53 53 53 53 53 53 53 53 53 53 53 53 53 53 54 54 54 56 58 60 61 61 61 60 59 57 55 54 52 51 50 50 50 50 49 48 48 47 47 47 47 48 48 49 49 49 49 49 49 49 49 50 50 50 51 51 51 51 51 51 51 51 51 51 51 50 50 50 50 50 50 50 50 50 50 50 50 50 50 49 49 49 47 46 45 44 44 40 36 35 35 35 36 36 36 36 36 36 36 36 36 36 35 35 35 35 35 35 35 35 35 35 35 35 35 35 35 35 36 37 35 35 35 35 36 36 36 36 36 36 36 36 36 36 36 36 36 39 38 35 35 35 35 36 36 36 37 38 38 38 39 41 41 41 41 40 40 38 37 37 38 39 38 37 37 37 37 37 38 38 38 39 40 40 41 40 40 41 42 43 43 43 40 38 38 38 38 38 38 38 38 38 38 38 38 38 38 38 38
112 111 111 111 110 110 110 110 111 113 114 116 119 123 127 129 131 135 136 132 131 131 132 133 134 134 132 132 129 126 123 119 117 117 118 117 116 116 115 115 115 116 117 117 117 118 119 120 121 121 121 119 118 118 118 118 117 117 117 117 117 117 123 129 132 133 133 134 133 134 133 131 129 127 123 122 124 125 126 126 128 128 127 126 125 122 121 115 110 106 103 99 98 97 96 95 93 91 91 91 90 90 90 91 91 91 92 94 95 95 96 97 97 97 97 97 97 95 92 91 89 88 88 88 88 88 88 88 88 87 87 87 87 87 89 91 92 93 93 93 92 92 90 89 88 90 90 89 88 88 88 88 88 88 89 90 92 96 96 95 92 91 91 93 94 96 95 93 90 90 88 86 85 83 83 83 85 85 85 84 84 84 84 83 81 81 84 85 85 87 88 88 88 88 88 87 87 87 87 87 88 88 88 89 91 91 93 94 96 98 101 101 103 107 110 111 112 113 115 116 118 121 125 127 129 130 130 130 130 129 129 130 130 130 131 131 132 133 135 135 136 136 136 136 136 136 136 136 137 137 137 137 138 139 139 139 139 139 139 139 139 139 138 137 136 136 135 133 132 131 130 130 129 128 127 126 125 126 126 129 132 133 134 136 139 141 142 142 141 143 145 148 149 151 153 155 156 154 151 146 143 140 142 142 142 141 140 138 135 131 129 129 129 129 130 130 130 132 133 134 135 135 136 136 136 136 136 136 134 134 135 135 133 133 132 131 131 131 130 130 129 129 129 129 129 130 130 130 131 131 130 129 127 127 126 124 122 121 119 118 118 117 116 114 113 110 108 108 109 111 112 111 107 105 102 99 96 95 92 89 86 82 80 79 80 81 81 80 79 77 75 76 76 74 72 71 68 67 67 67 66 66 64 63 63 63 63 63 63 63 63 63 63 63 64 65 66 68 68 68 69 70 70 71 73 73 73 74 74 75 75 75 75 75 76 76 78 78 78 78 78 83 85 87 88 90 92 94 97 99 100 101 102 102 102 103 103 102 101 99 95 90 86 86 87 87 87 86 84 79 75 74 74 74 74 74 75 75 75 75 76 76 77 77 78 78 79 79 80 81 81 82 82 83 84 84 85 85 86 87 88 89 89 90 91 91 91 92 94 94 95 95 95 96 96 96 96 96 95 95 94 93 93 92 90 90 90 90 91 90 87 84 83 82 79 78 81 85 90 93 97 102 105 104 102 101 99 98 96 93 90 86 83 80 78 76 75 75 74 74 74 75 75 75 75 75 75 75 75 74 75 75 76 76 76 74 73 73 74 74 74 74 74 74 74 75 77 77 76 75 75 75 75 75 75 75 75 75 75 75 75 75 75 73 72 72 72 72 72 72 73 72 72 72 72 72 71 71 71 71 71 71 71 71 71 71 71 74 75 72 72 71 71 70 70 69 68 65 63 65 67 68 69 69 71 73 75 76 77 78 77 76 75 74 73 73 73 71 71 72 71 71 71 72 71 70 68 66 64 62 62 62 62 62 62 64 68 71 74 75 75 72 71 69 69 70 70 70 69 68 66 65 64 63 63 64 64 64 64 65 66 66 67 67 67 67 66 65 64 64 64 63 63 63 63 63 62 62 62 64 65 66 67 67 66 64 63 61 58 56 53 53 53 53 53 53 53 53 53 53 53 53 53 53 53 53 53 53 54 55 57 58 58 58 58 57 55 54 52 51 51 51 50 50 50 49 49 49 47 47 47 47 48 48 49 49 49 49 48 48 48 49 50 50 50 50 51 51 51 51 51 51 51 51 51 51 50 50 50 50 50 50 50 50 50 50 49 49 49 50 50 50 50 48 46 46 45 44 39 36 35 35 35 36 36 36 36 36 36 35 35 35 35 35 35 35 35 35 35 35 35 35 35 35 35 35 35 35 35 35 36 35 35 35 35 36 36 36 36 36 36 36 36 36 36 36 36 36 39 38 37 35 35 36 38 39 39 39 40 39 40 40 40 40 40 40 40 40 38 36 35 35 36 37 37 37 37 37 37 38 38 39 40 41 42 41 39 40 41 43 43 43 42 39 38 38 38 38 38 38 38 38 38 38 38 38 38 38 38 38
111 110 110 110 109 109 110 110 111 113 115 118 121 124 128 130 132 135 138 136 135 135 135 136 137 137 137 136 135 132 128 123 118 118 118 117 116 116 116 116 116 116 117 117 117 118 119 120 121 121 121 119 118 118 118 118 117 117 117 117 117 119 125 130 132 133 134 135 135 135 134 133 130 129 127 128 129 128 128 129 130 129 129 127 125 123 120 115 111 107 102 99 98 96 94 93 92 91 91 91 89 89 90 90 92 93 93 94 95 95 96 97 97 97 98 97 97 94 92 91 89 88 88 88 88 88 88 88 88 87 87 87 87 87 88 91 92 92 92 92 92 91 90 88 88 87 88 88 88 88 88 88 88 88 88 90 92 94 94 94 91 91 91 93 95 96 94 91 90 89 87 86 84 83 83 83 84 84 84 82 82 83 82 81 80 81 84 84 85 86 87 88 88 89 89 88 88 87 87 87 88 88 88 89 91 91 93 95 96 97 99 101 103 107 110 112 112 114 115 116 119 122 126 127 130 131 131 131 131 130 130 130 131 131 131 132 132 133 134 136 136 137 137 137 137 137 137 137 137 138 138 138 139 140 140 139 139 140 140 141 141 140 139 139 139 138 137 135 134 132 131 131 131 129 129 127 126 126 126 129 132 133 135 138 141 143 143 143 143 145 147 149 151 154 156 158 159 157 153 149 146 143 143 144 143 142 141 139 137 132 129 129 129 129 130 130 130 132 133 133 134 134 135 135 136 136 136 136 134 134 133 134 133 133 132 132 132 132 131 130 130 129 129 129 129 130 130 130 130 130 129 127 126 125 124 123 121 120 118 117 116 115 114 112 111 109 106 107 109 109 109 107 104 103 101 98 95 93 91 88 85 81 79 78 79 79 78 77 76 74 75 75 75 73 71 71 69 68 68 68 67 66 65 63 63 63 63 63 63 63 63 63 63 63 64 65 66 68 69 69 69 70 70 71 73 74 74 75 75 75 76 76 76 76 76 77 78 79 79 79 79 84 88 89 89 90 91 94 97 99 100 101 103 103 103 104 103 103 100 98 94 90 87 87 88 88 88 87 85 79 75 74 74 74 74 74 74 74 75 75 76 76 77 77 77 78 78 79 79 80 81 81 82 83 83 83 84 85 85 86 88 88 88 89 90 90 90 91 93 93 94 95 95 95 95 95 95 95 95 95 94 93 93 92 90 89 89 88 90 90 87 83 82 80 78 78 81 85 89 92 95 98 100 100 99 98 97 95 93 90 87 85 82 79 77 75 75 75 75 75 75 75 75 75 75 75 75 75 75 75 75 76 76 75 75 74 74 74 75 75 75 75 74 74 74 75 76 76 76 75 75 75 74 74 74 74 75 75 75 75 75 75 73 73 73 73 73 72 72 72 73 72 72 72 72 72 71 71 71 71 71 71 71 71 71 71 72 75 78 76 73 71 70 70 69 68 67 65 64 66 68 70 71 73 74 74 75 76 77 77 77 76 75 74 73 73 73 72 73 73 72 73 74 74 73 72 69 67 65 63 63 62 62 62 62 64 67 70 72 73 74 73 74 73 73 73 72 72 71 70 69 66 65 64 64 65 65 65 65 65 66 66 66 67 66 65 64 64 63 63 63 63 63 63 63 63 63 63 63 64 66 67 67 68 67 65 64 63 60 57 55 53 53 53 53 53 53 53 53 53 53 53 53 53 53 53 53 53 54 54 55 56 57 57 56 55 54 52 52 52 53 53 52 51 50 49 49 49 47 46 46 46 47 48 50 51 49 49 48 48 48 49 49 50 50 50 50 50 51 51 51 51 51 51 51 51 50 50 50 50 50 50 50 50 50 50 49 49 49 49 50 50 50 48 47 46 45 43 38 36 36 36 36 36 36 36 36 36 36 35 35 35 35 35 35 35 35 35 35 35 35 35 35 35 35 35 35 35 35 35 35 35 35 35 35 36 36 36 36 36 36 36 36 36 36 35 35 35 36 38 38 35 35 37 40 41 41 40 40 40 40 40 40 40 40 40 39 39 38 35 35 35 35 35 36 36 36 36 36 38 38 40 41 42 42 41 39 39 40 41 41 41 39 38 38 38 38 38 38 38 38 38 38 38 38 38 38 38 38 38
111 109 109 108 108 108 108 110 111 113 117 120 123 126 129 131 132 135 139 140 139 138 138 138 139 140 140 139 139 137 134 129 119 118 118 117 116 116 116 116 116 116 117 118 118 118 118 119 121 121 120 120 118 118 118 118 117 117 117 117 118 121 126 130 131 133 135 136 136 136 136 134 131 131 131 131 133 132 132 131 131 131 130 127 126 123 120 115 112 106 100 97 96 94 93 92 91 91 91 91 89 88 88 90 92 93 93 94 95 96 96 97 97 97 97 97 95 93 91 90 89 88 88 88 88 87 87 87 88 88 88 87 87 87 87 90 91 91 92 92 92 91 89 88 88 87 87 87 87 88 88 88 88 88 89 91 91 92 92 93 92 91 90 93 95 94 92 91 90 88 87 85 83 82 82 82 83 83 82 81 81 81 80 78 80 81 83 84 84 86 87 88 88 90 90 89 89 87 87 87 88 88 89 90 91 91 93 95 96 97 99 102 106 107 110 112 112 114 115 117 119 123 126 128 132 133 132 132 131 131 131 130 131 131 131 132 132 133 134 135 136 137 137 137 137 137 137 137 138 138 138 139 139 140 140 140 140 140 141 142 142 141 141 141 140 139 138 137 136 135 134 133 133 131 130 128 127 127 128 130 132 134 135 139 142 144 145 145 145 147 149 150 152 157 161 162 162 159 154 151 148 145 145 145 144 143 142 139 137 133 129 129 129 129 130 131 131 131 132 132 133 134 134 135 136 136 136 136 134 134 133 133 133 133 133 133 133 133 132 131 130 129 129 129 129 130 130 130 130 129 127 126 125 124 123 122 120 120 118 116 115 112 111 109 109 107 104 104 105 106 105 104 102 100 98 95 92 89 87 86 83 80 78 74 75 75 75 74 73 73 75 75 75 74 72 71 69 68 68 68 67 66 66 63 63 63 63 63 63 63 62 62 62 63 64 66 67 68 69 69 69 70 70 71 73 74 74 75 76 76 76 76 76 76 76 77 78 78 79 79 81 85 90 92 92 90 90 93 96 98 99 101 103 104 104 104 103 101 99 97 94 90 88 88 89 89 88 88 84 79 75 74 74 74 74 74 74 74 75 75 76 76 77 77 77 77 78 78 79 80 80 81 81 83 83 83 84 84 84 86 87 87 88 89 89 89 90 91 92 93 93 94 94 95 95 95 95 95 95 95 93 93 92 91 89 89 88 88 88 89 87 83 82 80 78 78 81 85 88 90 91 93 94 95 95 94 93 91 88 85 82 80 81 79 76 75 75 75 75 75 75 75 75 75 75 75 75 75 75 75 76 76 76 75 75 74 74 74 75 76 75 75 74 75 75 75 76 76 76 75 75 75 74 74 74 74 75 75 75 75 75 75 74 74 74 74 73 73 73 73 73 72 72 72 72 72 71 71 71 71 71 71 71 71 71 71 73 76 79 79 77 74 70 69 67 67 66 64 64 67 69 71 73 74 75 75 75 76 77 77 77 76 75 75 74 73 73 74 74 74 74 74 75 75 74 72 71 68 67 64 63 62 62 62 62 64 66 68 69 71 73 74 75 77 76 75 74 73 73 72 71 68 65 65 65 65 66 66 66 66 66 66 66 67 66 65 64 63 63 63 63 63 63 63 63 63 63 63 63 64 65 66 66 68 68 68 66 65 62 59 56 54 54 54 53 53 53 53 53 53 53 53 53 53 53 53 53 53 53 53 54 54 55 54 54 53 53 52 52 54 58 58 55 51 51 50 49 49 47 46 46 46 47 48 50 51 49 49 48 48 48 48 49 49 49 50 50 50 50 50 50 50 51 50 50 50 50 50 50 50 50 50 50 50 50 50 49 49 49 49 50 50 50 48 47 46 45 41 37 36 36 36 36 36 36 36 36 36 36 35 35 35 35 35 35 35 35 35 35 35 35 35 35 35 35 35 35 35 35 35 35 35 35 35 35 35 35 36 36 36 36 36 36 36 36 35 35 35 35 35 35 35 35 37 41 43 44 42 41 40 40 40 40 40 40 40 39 38 36 35 35 35 35 35 35 36 36 36 36 38 39 41 41 42 42 41 39 38 38 38 39 39 39 38 38 38 38 38 38 38 38 38 38 38 38 38 38 38 38 38
110 108 108 107 106 106 107 110 113 115 119 122 124 128 131 133 135 137 141 142 141 142 141 141 142 143 142 141 142 140 138 135 123 119 118 117 117 117 116 116 116 116 116 117 117 118 118 119 120 121 119 119 119 118 118 118 117 117 117 117 118 121 126 128 130 133 135 136 137 136 136 134 135 135 134 134 135 135 135 134 134 132 131 129 126 123 118 114 110 104 99 96 94 93 92 92 91 91 91 92 90 88 88 88 89 90 92 94 95 96 97 97 97 97 96 95 93 92 90 90 89 88 88 88 88 87 87 87 88 88 90 89 88 87 87 89 90 91 91 91 91 91 89 88 88 86 86 86 87 88 88 88 88 88 89 91 90 88 90 93 93 92 90 91 93 92 91 91 90 89 87 83 80 79 79 80 80 81 80 80 79 78 76 76 80 81 82 83 84 85 86 87 87 89 90 90 90 90 89 87 88 88 89 90 91 91 92 95 97 98 100 104 108 109 111 112 113 114 115 117 119 124 126 129 133 134 134 133 133 132 132 131 131 131 131 132 132 133 134 135 135 137 138 138 138 138 138 138 139 139 139 139 140 140 141 141 141 141 142 143 143 143 143 143 142 141 140 139 139 138 137 137 135 132 131 129 129 130 131 133 134 136 138 140 143 144 146 147 147 148 151 153 157 160 162 164 163 159 155 152 150 148 148 147 146 143 142 139 137 134 130 129 129 129 130 130 130 131 132 132 133 134 134 134 135 136 136 136 135 134 135 134 134 135 135 136 135 134 133 132 131 130 130 130 130 130 130 130 130 128 127 125 124 124 123 121 120 120 118 116 115 112 110 108 106 104 101 100 102 104 103 101 100 98 95 92 88 85 83 82 81 79 76 73 71 71 71 71 72 74 75 75 75 74 72 70 69 68 68 68 67 66 66 63 63 63 62 62 62 62 62 62 62 62 64 66 67 68 69 69 70 70 71 71 73 74 75 76 76 76 76 76 76 76 76 77 77 78 79 80 83 87 91 92 91 90 91 94 96 98 99 101 104 105 106 105 102 100 98 96 94 91 90 90 90 89 88 87 83 78 75 74 74 74 74 74 74 74 75 75 76 76 76 76 76 76 77 77 78 79 79 80 81 82 82 83 83 84 84 85 86 87 87 88 89 89 89 90 91 91 92 93 94 94 94 94 94 94 94 94 93 92 92 91 89 88 88 86 86 87 87 84 82 80 77 77 80 83 85 87 89 89 89 89 89 89 87 85 82 80 78 77 78 77 75 75 75 75 75 75 75 75 75 75 75 75 75 75 75 77 77 76 76 75 75 74 74 74 75 75 75 75 75 75 75 75 76 77 76 75 75 75 74 74 74 74 74 75 75 77 77 77 76 76 76 75 73 72 72 72 72 72 72 72 72 72 72 71 71 71 71 71 71 71 71 72 73 77 79 79 78 75 72 70 68 66 66 65 66 68 70 72 74 75 76 76 76 76 77 77 77 76 76 76 75 75 76 77 77 77 77 76 76 76 75 74 72 70 68 67 65 63 62 62 62 64 66 67 68 71 72 74 76 78 78 78 77 75 74 73 71 69 67 66 66 67 66 66 66 66 66 66 66 68 69 69 67 65 64 63 63 64 66 66 65 64 63 63 63 63 63 64 65 67 69 69 67 65 63 60 58 57 56 54 53 53 53 53 53 53 53 53 53 53 53 53 53 53 53 53 53 54 54 54 53 53 53 53 55 57 60 61 58 54 51 50 49 49 47 46 45 45 47 48 49 50 49 49 48 48 48 48 49 49 49 50 50 50 50 50 50 50 50 50 50 50 50 50 50 50 50 50 50 49 49 49 49 49 49 49 49 49 50 48 47 47 45 41 37 36 36 36 36 36 36 36 36 36 36 35 35 35 35 35 35 35 35 35 35 35 35 35 35 35 35 35 35 35 35 35 35 35 35 35 35 35 35 35 36 36 36 36 36 36 36 35 35 35 35 35 35 35 35 36 40 43 44 43 39 37 38 39 40 40 40 40 39 37 36 35 35 35 35 35 35 36 36 36 36 38 40 40 40 41 41 39 38 38 38 38 38 38 38 38 38 38 38 38 38 38 38 38 38 38 38 38 38 38 38 38
110 108 107 106 105 106 109 113 116 117 120 123 126 129 132 135 138 140 142 144 144 144 144 144 144 145 144 143 142 141 140 136 128 122 120 118 118 118 117 117 116 116 116 117 117 118 118 120 121 120 119 119 119 119 119 119 118 118 117 117 118 121 122 125 129 132 134 136 137 136 135 135 137 138 137 137 138 138 137 136 135 133 131 129 126 122 118 113 110 104 100 99 96 94 94 92 91 91 91 92 91 89 88 88 88 88 91 94 94 95 97 96 96 95 95 93 92 91 90 89 89 89 88 88 88 87 87 87 88 89 90 90 90 88 88 89 89 90 90 90 90 91 89 88 88 86 86 86 87 88 88 88 88 89 90 91 90 88 88 91 93 93 93 91 91 91 91 91 91 90 87 81 78 78 78 79 79 79 79 79 77 76 76 78 81 81 82 82 83 84 86 87 87 89 90 90 92 94 93 90 88 88 88 90 91 91 92 95 97 98 100 104 107 109 111 113 113 114 115 117 119 124 127 130 134 135 135 135 134 133 133 132 131 131 131 132 132 133 134 135 135 137 138 138 139 139 139 139 140 140 140 140 141 141 141 142 142 142 143 144 144 144 144 144 144 143 142 141 140 139 139 139 136 133 132 131 130 132 135 134 136 137 140 142 144 144 146 148 148 150 154 158 160 162 164 165 164 159 156 153 152 150 150 150 148 146 143 141 140 137 132 129 129 129 130 130 130 131 132 132 133 134 134 134 135 136 136 136 135 135 136 135 135 136 136 136 136 135 134 132 131 132 132 130 130 130 130 130 130 128 127 125 124 124 123 121 120 120 119 116 115 113 111 108 105 100 97 96 99 100 99 98 97 95 93 89 85 81 79 79 79 78 75 72 70 69 69 71 73 75 75 75 73 72 70 69 68 68 68 67 66 65 65 63 63 63 62 62 62 62 62 62 62 62 64 66 67 69 70 70 70 71 71 72 73 74 75 76 77 77 77 77 77 77 77 78 78 78 79 81 84 88 91 90 89 90 92 95 98 100 101 102 104 106 106 106 103 100 97 95 94 92 91 91 91 89 87 85 81 77 75 75 75 75 75 75 75 75 75 75 75 75 76 76 76 76 76 77 77 78 79 79 80 81 82 82 83 83 83 84 85 86 86 87 88 88 89 88 89 90 91 93 93 93 93 93 93 94 94 94 93 92 92 91 88 88 87 85 85 85 86 84 82 80 77 76 77 80 82 84 85 86 85 85 85 84 82 80 77 76 76 76 76 76 75 75 75 75 75 75 75 75 75 75 75 75 75 75 75 75 75 75 76 76 76 75 75 75 75 75 75 75 75 75 75 76 77 77 76 75 75 75 74 74 74 74 74 75 76 78 79 79 78 77 76 75 73 72 72 72 72 72 72 72 72 72 72 72 72 72 72 72 72 72 72 72 73 74 74 75 76 73 73 72 71 70 69 68 68 69 70 73 74 75 76 77 77 77 77 77 77 77 77 77 76 77 79 79 79 79 79 79 79 79 78 77 75 73 71 69 67 65 63 63 63 66 66 67 68 71 72 74 77 79 80 79 78 77 75 73 72 70 69 68 67 67 66 66 66 66 67 68 69 71 72 72 69 67 65 63 63 67 69 69 69 67 66 64 63 63 63 64 65 67 69 70 68 66 64 64 62 60 60 59 56 54 54 53 53 53 53 53 53 53 53 53 53 53 53 53 53 53 53 53 53 53 54 55 56 58 61 63 61 56 52 50 49 49 47 46 45 45 46 48 49 49 49 49 48 48 48 48 48 49 49 49 50 50 50 50 50 50 50 50 50 50 50 50 50 50 50 50 50 49 49 49 49 49 49 49 49 49 50 48 48 48 46 41 37 36 36 36 36 36 36 36 36 36 36 35 35 35 35 35 35 35 35 35 35 35 35 35 35 35 35 35 35 35 35 35 35 35 35 35 35 35 35 35 36 36 36 36 36 36 35 35 35 35 35 35 35 35 35 35 38 40 43 41 37 36 36 37 39 40 40 40 38 36 35 35 35 35 35 35 35 36 36 36 37 39 39 38 38 38 38 37 37 37 37 37 37 37 38 38 38 38 38 38 38 38 38 38 38 38 38 38 38 38 38 38
109 107 106 106 105 106 109 114 117 120 122 124 127 130 134 137 139 141 143 145 146 147 147 146 146 148 146 144 142 141 141 136 130 125 124 121 120 119 118 118 117 115 116 116 117 118 119 121 121 120 119 119 118 119 119 119 118 118 118 118 118 121 122 125 129 131 134 135 136 137 137 138 140 140 140 140 139 139 140 139 136 134 131 128 125 122 117 112 109 104 103 102 99 99 97 95 93 91 91 91 91 90 90 89 87 87 90 93 94 94 95 96 96 94 93 92 91 90 89 88 88 88 88 87 87 87 87 88 89 90 91 91 91 89 88 88 89 89 88 88 88 88 88 88 88 86 86 86 87 88 88 88 88 90 90 90 89 88 88 91 94 94 93 91 91 91 90 90 91 90 87 83 78 78 78 78 78 78 78 77 76 76 77 79 80 80 81 82 83 84 85 86 87 88 89 91 94 97 95 92 90 89 89 90 93 93 93 95 96 98 100 103 106 108 111 113 113 115 115 117 119 124 127 132 135 137 137 136 135 135 134 132 131 131 132 132 132 133 134 134 135 137 138 139 139 139 139 139 140 140 141 141 141 142 142 143 142 143 144 144 145 146 146 146 146 144 144 143 143 142 141 140 138 135 133 133 132 133 135 135 137 138 141 143 144 145 147 148 150 154 158 161 163 165 165 165 162 158 157 155 153 153 152 152 151 149 147 145 144 141 136 132 130 129 130 130 130 131 132 132 133 134 134 134 135 135 135 135 136 136 136 136 136 137 138 137 137 136 135 133 133 134 133 131 130 130 130 130 130 129 127 126 124 124 122 121 120 119 118 116 116 114 111 108 105 99 96 93 95 96 95 94 93 92 89 86 81 77 75 75 76 75 74 71 69 69 69 72 74 75 75 74 73 73 70 69 68 67 67 66 65 65 64 63 63 63 62 62 62 62 62 62 62 62 63 65 67 69 70 70 70 71 71 72 74 75 76 76 77 77 77 77 77 77 77 78 78 78 79 82 85 89 90 88 89 92 94 97 100 102 103 103 105 106 107 107 104 100 97 95 94 93 91 90 88 87 85 82 79 76 75 75 76 75 75 75 75 75 75 75 75 75 75 76 76 76 76 76 77 77 78 78 79 80 81 81 82 82 83 83 84 85 85 86 87 87 88 87 88 88 90 91 91 91 92 92 93 93 93 93 93 92 91 90 88 87 87 85 84 83 84 83 83 81 78 76 76 78 79 80 82 82 82 81 81 80 78 76 75 75 75 75 75 75 75 74 74 74 76 76 75 75 75 75 75 75 75 75 75 75 75 75 75 75 75 75 75 75 75 75 75 75 75 75 75 76 76 76 76 75 75 75 75 75 75 75 75 75 77 78 80 81 79 77 75 73 72 72 72 72 72 72 72 72 72 72 72 72 72 72 72 72 72 71 71 71 72 72 72 73 73 72 72 73 73 72 71 70 70 70 71 73 74 75 76 77 77 77 78 78 78 77 77 78 78 79 80 81 81 81 82 82 82 81 80 79 77 75 72 70 68 66 63 63 64 67 68 68 68 71 72 74 77 80 80 80 79 78 76 75 74 72 71 70 69 68 66 66 66 66 68 71 74 75 76 75 71 67 66 64 66 69 71 72 72 70 68 65 63 62 63 66 66 67 69 70 69 68 68 67 65 64 64 63 61 57 55 54 53 53 53 53 53 53 53 53 53 53 53 53 53 53 53 53 53 53 55 56 57 58 61 63 61 59 54 50 49 49 47 45 45 45 45 46 48 49 49 49 48 47 47 47 47 48 48 49 49 49 50 50 49 49 49 49 49 50 50 50 50 50 49 49 49 49 49 49 49 49 49 49 49 49 49 49 49 49 47 42 37 36 36 36 36 36 36 36 36 36 36 35 35 35 35 35 35 35 35 35 35 35 35 35 35 35 35 35 35 35 35 35 35 35 35 35 35 35 35 35 35 35 35 36 36 36 35 35 35 35 35 35 35 35 35 35 36 37 39 38 36 35 35 35 36 36 37 37 36 35 35 35 35 35 35 35 35 36 36 36 37 37 37 37 37 37 37 37 37 37 37 37 37 37 38 38 38 38 38 38 38 38 38 38 38 38 38 38 38 38 38 38
107 106 105 105 105 106 110 115 118 121 125 127 129 131 135 139 141 143 145 146 147 149 149 148 149 149 148 145 143 141 140 136 131 128 127 124 121 120 118 118 118 115 116 116 116 118 120 121 122 121 119 119 118 119 119 119 119 119 118 118 119 119 122 125 128 131 133 135 136 138 139 141 142 142 142 142 140 142 143 142 138 134 131 127 124 121 116 111 108 104 104 104 104 103 99 98 94 92 91 91 91 91 92 92 89 87 89 90 93 93 94 94 94 93 92 91 91 89 88 88 88 87 87 87 87 88 88 89 90 91 91 92 91 90 88 88 88 88 88 88 88 87 87 87 87 87 87 87 87 88 88 88 89 90 90 89 88 88 88 91 94 94 92 91 91 90 90 90 89 88 86 84 81 78 78 77 77 77 77 76 76 76 77 79 80 80 80 81 82 83 85 86 86 88 89 92 95 98 98 95 92 90 90 90 94 94 94 95 96 97 100 102 105 108 111 113 113 115 116 118 120 124 128 132 136 138 138 137 137 136 135 133 132 132 133 133 133 133 134 134 135 137 138 139 140 140 140 140 141 141 141 142 142 143 143 143 143 144 144 145 146 147 148 148 147 146 145 145 144 145 144 143 139 137 135 134 133 134 135 136 138 140 143 144 146 148 150 152 153 157 161 163 165 166 166 165 161 158 158 157 155 154 153 153 153 152 150 148 147 143 140 136 132 130 129 129 129 130 131 131 133 134 134 134 135 135 135 135 135 135 136 136 138 138 138 138 138 138 137 137 137 136 135 132 131 130 130 130 130 129 128 126 125 124 122 120 119 119 118 116 116 114 111 108 106 100 95 93 90 90 90 89 89 87 86 83 79 75 74 73 74 73 72 70 69 69 69 73 74 75 74 74 74 75 72 69 68 67 67 66 64 64 64 64 64 63 62 62 62 62 62 62 62 62 63 63 66 68 70 70 70 72 72 73 75 76 76 77 78 78 78 77 77 77 78 78 78 78 79 82 85 87 87 87 89 93 95 98 101 104 105 105 106 107 108 108 105 101 97 95 93 92 90 87 85 84 82 79 78 76 76 76 76 76 76 76 75 75 75 75 75 75 75 75 75 75 76 76 76 76 76 77 78 79 80 80 81 81 82 82 84 84 84 85 86 86 87 87 87 87 88 90 90 91 92 92 92 93 93 93 92 91 91 89 87 86 86 85 84 82 82 82 82 81 78 76 75 75 77 78 78 78 78 78 77 76 75 75 75 75 75 75 75 75 75 74 74 74 76 76 76 76 75 75 75 75 75 75 75 75 75 75 75 75 75 75 76 76 75 75 75 75 75 76 76 76 76 76 76 76 76 76 76 76 76 76 76 76 78 78 80 81 79 77 76 73 72 72 72 72 72 72 72 72 72 72 72 72 72 73 72 72 72 71 71 71 71 72 72 72 73 72 72 74 74 73 72 71 72 72 72 73 74 74 76 77 77 78 78 78 78 78 79 80 80 80 81 83 83 82 83 84 83 83 82 81 79 76 73 71 69 66 63 63 64 66 68 67 68 71 72 74 77 80 80 81 80 79 77 77 76 74 73 72 70 69 68 66 66 67 70 73 76 77 78 76 71 68 67 68 69 71 74 75 75 72 69 66 64 62 63 68 68 68 69 70 70 70 71 70 68 67 67 67 64 61 58 55 54 54 53 53 53 53 53 53 53 53 53 53 53 53 53 53 54 54 55 56 57 57 59 61 61 60 55 50 49 49 47 45 45 45 45 45 47 49 49 49 48 47 47 46 46 47 48 49 49 49 49 50 49 49 49 49 49 49 50 50 50 49 49 49 49 49 49 49 49 49 49 49 49 49 49 49 49 49 47 42 38 36 36 36 36 36 36 36 36 36 36 35 35 35 35 35 35 35 35 35 35 35 35 35 35 35 35 35 35 35 35 35 35 35 35 35 35 35 35 35 35 35 35 35 36 36 36 35 35 35 35 35 35 35 35 35 35 35 36 36 35 35 35 35 35 36 36 36 35 35 35 35 35 36 36 36 36 36 36 36 36 37 37 37 37 37 37 37 37 37 37 37 37 37 37 38 38 38 38 38 38 38 38 38 38 38 38 38 38 38 38 38
105 105 105 105 105 107 110 115 118 122 126 129 130 132 137 140 142 145 146 147 149 150 151 151 151 151 149 146 143 141 138 135 132 131 130 126 122 120 118 119 119 116 115 116 116 118 121 121 121 121 120 119 118 118 118 119 119 119 119 119 119 119 120 124 128 130 133 135 136 139 140 142 143 143 144 143 144 145 146 143 139 135 130 126 123 120 115 110 106 106 107 107 106 104 102 99 96 94 91 91 90 90 91 92 91 88 88 89 91 92 92 92 92 92 91 90 90 89 87 87 87 87 86 85 86 88 89 90 91 91 91 91 91 91 89 88 88 88 88 87 87 87 86 86 86 87 87 87 87 88 88 88 89 89 89 88 88 88 88 91 91 92 92 90 89 88 88 88 88 87 86 84 82 78 78 76 76 76 76 76 76 76 77 78 79 79 79 81 82 83 85 86 86 88 91 94 96 99 100 97 94 92 91 91 93 93 94 94 96 97 99 102 104 107 111 113 113 115 116 118 120 125 128 132 136 137 138 139 138 137 135 134 133 133 134 134 133 134 135 135 136 137 138 139 139 141 141 141 141 142 142 143 143 143 144 144 144 145 145 146 147 148 149 149 148 148 148 147 147 147 147 144 141 138 136 134 133 134 137 139 140 142 145 146 149 150 154 155 157 159 163 165 166 167 167 163 161 159 160 159 156 156 156 156 154 154 152 150 148 145 141 137 133 131 129 129 129 130 130 130 130 131 132 133 134 135 135 135 134 135 135 137 139 139 139 140 141 140 140 141 141 139 136 133 131 130 130 130 130 129 129 127 124 123 121 119 118 118 117 116 116 114 111 108 105 100 96 93 89 86 86 86 85 84 82 81 78 75 73 71 71 71 70 69 69 69 69 72 73 74 75 75 75 75 73 70 68 66 66 66 65 65 65 66 66 66 63 62 62 62 61 61 61 61 62 62 65 67 67 68 69 72 73 75 75 76 76 77 78 78 78 78 77 77 78 78 78 78 79 81 83 84 84 86 89 92 95 99 103 105 107 107 107 107 109 109 105 101 97 94 92 91 89 85 83 82 81 79 78 78 78 77 77 76 76 76 76 76 75 75 75 75 75 75 75 75 75 75 75 76 76 76 77 78 78 79 79 80 81 82 83 83 83 83 84 85 85 86 85 86 87 88 89 90 92 92 92 92 92 92 91 91 91 89 87 86 86 84 83 82 81 81 81 80 79 77 75 74 74 76 77 75 75 75 75 74 74 74 74 75 75 75 75 75 75 74 75 75 76 76 76 76 74 74 74 75 75 75 76 75 75 75 75 75 75 76 78 77 76 75 75 75 75 76 76 76 75 75 75 78 78 77 78 79 78 78 78 78 78 79 81 81 80 79 76 74 72 72 73 72 72 72 72 72 72 72 72 72 72 73 72 72 72 71 71 71 71 72 72 72 73 73 73 74 75 74 74 74 74 74 74 74 74 75 76 77 77 78 79 79 80 79 81 82 81 81 82 84 84 84 84 85 85 85 83 82 79 77 73 71 69 67 66 64 64 65 66 66 67 71 72 74 78 81 82 82 82 80 80 79 78 76 74 73 72 70 69 68 68 69 71 73 76 76 77 76 73 71 71 71 71 72 74 76 76 74 71 68 65 62 65 69 70 68 69 70 71 72 73 73 71 69 70 70 68 65 61 57 54 54 53 53 53 53 53 53 53 53 53 53 53 53 53 54 55 55 55 56 56 56 57 59 61 60 55 51 49 49 47 45 45 45 45 45 46 48 48 48 48 46 46 45 45 46 47 48 49 49 49 49 49 49 49 49 49 49 49 49 49 49 49 49 49 49 49 49 49 48 48 48 48 48 48 48 49 49 46 42 40 37 36 36 36 36 36 36 36 36 36 36 35 35 35 35 35 35 35 35 35 35 35 35 35 35 35 35 35 35 35 35 35 35 35 35 35 35 35 35 35 35 35 35 36 36 35 35 35 35 35 35 35 35 35 35 35 35 35 35 35 35 35 35 35 36 36 35 35 35 35 36 36 36 36 36 36 36 36 36 36 37 37 37 37 37 37 37 37 37 37 37 37 37 37 38 38 38 38 38 38 38 38 38 38 38 38 38 38 38 38 38
105 105 105 105 106 107 112 118 120 123 126 130 132 136 139 142 144 146 147 149 150 151 153 154 154 152 150 147 143 141 138 134 133 134 132 128 123 121 121 121 120 117 115 116 117 119 121 121 121 120 120 119 118 118 118 118 119 119 119 119 119 119 119 123 127 130 132 134 135 139 141 142 143 144 145 146 147 148 147 144 139 135 130 127 123 118 113 108 106 108 108 107 106 104 102 101 99 96 93 91 92 90 90 91 91 89 88 88 88 89 89 90 91 91 91 90 90 89 87 87 87 86 85 85 86 88 89 90 91 91 91 91 91 91 90 89 88 88 88 87 87 87 86 86 86 87 88 88 88 88 88 88 88 88 88 88 88 88 88 89 90 90 90 88 87 87 87 87 87 87 85 82 79 78 77 76 75 75 75 75 76 76 76 78 78 78 79 80 82 83 84 85 86 89 92 94 96 99 100 99 96 93 92 91 93 93 94 94 96 97 99 101 103 105 110 113 113 115 116 118 120 124 127 132 135 137 138 139 139 138 136 135 134 135 136 135 135 135 136 136 136 137 138 138 139 141 142 142 142 142 142 143 144 144 144 145 145 145 146 146 147 149 150 150 150 150 150 150 149 149 149 146 143 140 137 134 133 137 139 142 144 144 147 148 151 153 156 158 160 161 164 166 167 167 166 162 161 160 161 161 157 157 158 158 156 155 154 151 148 146 141 137 133 130 129 129 129 130 130 130 130 130 131 133 134 134 134 134 134 134 136 138 140 140 140 141 142 142 143 144 143 141 138 135 132 130 130 130 129 128 127 125 122 121 120 118 117 116 116 115 115 113 111 108 103 98 95 93 88 83 82 82 81 80 80 79 78 76 73 70 70 70 70 70 70 70 70 70 72 74 75 75 75 74 73 71 68 67 67 68 68 70 69 68 68 68 65 62 62 62 61 61 61 61 62 62 64 66 66 67 69 72 75 75 76 77 77 78 79 79 79 78 78 78 78 78 78 78 78 79 81 81 84 86 88 91 95 99 104 106 108 109 108 108 109 109 105 100 95 92 89 87 85 83 82 81 80 79 79 79 79 78 77 77 77 77 76 76 75 75 75 75 75 75 75 75 75 75 75 75 75 75 76 77 77 77 78 79 80 81 82 82 82 82 82 83 84 85 85 85 85 87 88 89 91 91 92 92 91 91 91 91 91 89 87 86 85 84 82 81 80 79 79 79 79 77 76 74 73 74 75 74 74 74 74 73 73 73 74 75 75 75 75 75 74 74 75 75 76 77 77 76 74 74 74 75 76 76 76 75 75 75 75 75 75 76 78 78 78 75 75 75 76 76 76 76 75 75 75 79 79 79 79 80 79 81 79 79 80 80 81 81 81 79 76 74 74 75 76 75 73 72 72 72 72 72 72 73 73 73 72 72 72 71 71 71 71 72 72 72 73 73 73 74 75 75 75 75 75 75 75 75 75 75 76 78 78 79 80 81 81 81 82 82 82 82 83 84 85 86 86 86 86 86 84 82 80 78 73 71 70 69 68 67 64 65 65 65 67 71 72 74 79 82 84 84 83 83 83 82 80 78 76 75 73 72 70 69 70 71 73 75 75 73 73 75 74 74 74 73 73 73 74 76 77 77 72 68 65 64 66 70 72 71 70 71 72 74 75 75 74 72 73 72 70 67 64 60 55 54 54 53 53 53 53 53 53 53 53 53 53 53 54 55 56 56 56 56 55 55 55 57 58 57 55 51 49 49 48 48 47 46 45 45 45 47 48 48 47 46 46 45 45 45 46 47 48 48 49 49 49 49 49 49 49 49 49 49 49 49 49 49 49 49 49 48 49 48 48 48 48 48 48 48 48 47 45 43 41 38 36 36 36 36 36 36 36 36 36 36 35 35 35 35 35 35 35 35 35 35 35 35 35 35 35 35 35 35 35 35 35 35 35 35 35 35 35 35 35 35 35 35 37 39 35 35 35 35 35 35 35 35 35 35 35 35 35 35 35 35 35 36 36 36 36 35 36 36 36 36 37 38 38 37 37 37 37 37 37 37 37 37 37 37 37 37 37 37 37 37 37 37 38 38 38 38 38 38 38 38 38 38 38 38 38 38 38 38 38 38
105 105 105 105 106 108 115 119 122 124 127 131 135 138 140 143 145 147 149 150 151 152 154 155 155 152 149 145 142 140 138 135 135 135 133 129 125 123 124 122 120 118 118 118 118 119 120 120 120 119 119 119 118 118 118 118 119 119 119 119 119 119 119 120 125 129 131 134 136 139 142 142 142 145 148 150 150 149 147 142 138 135 131 127 121 116 111 107 107 110 110 107 106 105 105 106 102 98 97 97 96 95 91 91 92 90 88 87 87 87 88 89 89 89 89 89 89 88 87 86 85 85 85 85 86 89 90 90 90 90 90 90 91 91 91 89 89 89 88 87 87 87 86 86 86 87 87 87 88 88 88 88 88 88 88 87 87 87 87 87 88 88 87 87 85 86 87 86 87 87 84 81 79 77 77 75 74 73 74 75 75 75 75 77 78 78 79 80 81 82 84 85 87 90 93 95 96 99 100 100 99 95 93 92 93 93 94 94 95 97 98 100 102 104 109 112 113 115 116 118 121 124 126 131 134 136 138 139 140 139 137 136 135 136 136 136 136 136 137 136 136 138 138 138 139 141 142 142 143 143 143 144 144 145 145 146 146 147 147 148 148 150 151 152 152 152 152 152 152 152 151 149 144 141 138 135 134 138 141 145 146 147 149 151 154 156 159 162 163 165 166 168 168 167 165 162 161 162 163 162 159 159 160 159 157 157 155 151 148 145 141 138 133 130 129 129 129 130 133 132 131 130 131 132 132 132 132 132 134 135 137 139 140 140 141 142 143 144 145 145 145 142 139 137 135 132 130 129 128 127 127 125 124 122 120 118 117 116 114 113 113 112 110 106 101 95 93 91 87 83 81 81 80 78 77 77 76 75 73 70 70 70 70 71 71 70 70 70 71 72 73 73 73 73 71 70 68 69 72 72 71 73 72 72 71 69 67 64 63 62 61 61 61 61 62 62 64 65 65 66 69 72 75 76 77 77 77 78 79 79 79 78 78 78 78 78 78 78 78 78 79 81 84 85 87 91 95 99 104 108 109 110 110 110 110 107 102 98 93 89 86 84 82 81 81 81 80 80 79 79 79 79 78 77 77 77 76 76 75 75 75 75 75 75 75 75 75 75 75 75 75 75 75 76 76 76 77 78 79 80 80 80 81 81 81 82 84 84 84 85 83 85 86 88 90 91 91 91 91 91 90 90 89 89 87 86 85 83 82 81 80 78 78 78 79 77 76 74 73 73 73 73 73 73 73 73 72 72 75 75 75 74 74 74 74 75 75 75 76 78 78 76 74 74 74 76 76 76 76 76 76 75 75 75 75 75 75 78 78 76 76 76 76 76 76 75 75 75 75 79 80 82 81 81 82 82 80 80 81 81 81 81 81 78 76 76 77 78 79 77 74 72 72 73 72 72 72 73 73 72 72 72 72 71 71 71 72 72 73 73 73 74 74 74 75 76 76 76 76 76 76 76 76 76 77 78 79 80 81 82 82 83 84 83 83 83 84 85 86 87 88 88 88 87 85 83 81 78 75 72 71 70 70 69 67 65 65 65 67 71 71 74 78 81 84 85 85 85 85 84 82 80 78 76 74 73 71 70 71 75 77 76 75 72 72 74 76 77 75 74 74 75 75 76 78 78 74 69 66 67 69 71 74 73 71 72 74 75 76 77 76 74 75 75 73 70 66 61 56 54 54 53 53 53 53 53 53 53 53 53 53 54 54 54 55 56 56 56 56 54 54 55 56 56 55 51 49 49 50 51 49 47 45 45 45 46 46 46 46 46 46 45 44 44 45 46 48 48 49 49 49 49 49 49 49 48 48 48 48 49 48 48 48 48 48 48 48 47 47 47 47 47 47 47 47 46 44 43 42 39 36 36 36 36 36 36 36 36 36 36 35 35 35 35 35 35 35 35 35 35 35 35 35 35 35 35 35 35 35 35 35 35 35 35 36 38 36 35 35 35 35 35 37 39 36 35 35 35 35 35 35 35 35 35 36 36 36 36 35 35 35 35 35 35 35 35 35 35 36 37 38 38 38 37 37 37 37 37 37 37 37 37 38 38 38 38 38 38 38 38 38 38 38 38 38 38 38 38 38 38 38 38 38 38 38 38 38 38 38 38
105 105 105 105 106 109 115 120 123 125 128 133 137 139 141 143 145 148 150 151 152 153 155 156 156 152 149 145 142 139 138 136 136 136 133 130 127 126 124 122 120 119 119 119 118 119 120 120 119 119 119 119 118 118 118 118 119 119 119 119 119 119 119 119 123 128 131 134 136 139 140 141 142 145 149 150 150 149 145 141 137 135 132 124 118 114 110 108 109 110 110 106 106 107 108 107 103 99 99 98 96 96 96 93 92 92 88 87 86 86 86 87 86 87 88 88 88 88 86 86 85 85 85 85 87 90 90 90 90 90 90 90 90 90 90 89 89 89 88 87 87 87 87 87 87 87 87 87 87 88 88 88 88 88 88 87 86 85 86 86 86 86 86 85 85 85 86 85 85 85 83 80 78 76 76 74 73 73 73 74 75 75 75 77 77 77 79 80 81 82 84 85 87 91 94 95 96 99 100 100 100 98 94 93 94 94 94 94 95 97 98 100 102 105 109 112 113 115 117 119 121 124 126 130 133 135 137 139 140 140 139 138 136 136 137 137 137 137 137 137 137 138 139 139 139 141 142 143 144 145 144 144 145 145 146 147 147 148 148 149 149 150 152 153 153 153 153 153 154 154 153 150 146 142 138 136 136 140 143 147 148 150 152 155 157 159 162 165 166 167 167 168 169 167 165 162 161 164 164 162 161 162 162 160 159 158 156 153 151 149 147 142 137 132 129 129 129 131 133 133 133 131 130 130 130 130 131 131 134 137 139 140 141 141 142 143 143 144 146 145 144 142 140 139 137 133 130 128 128 127 127 127 126 124 121 118 117 116 114 111 110 110 108 103 98 94 92 92 91 88 86 82 79 77 74 73 71 71 70 70 70 70 71 72 72 71 70 70 70 70 71 72 71 71 70 69 69 71 75 76 75 76 75 73 71 70 68 64 63 62 62 62 62 62 62 62 63 63 64 65 68 71 74 76 76 78 78 79 79 79 79 78 78 78 77 77 77 78 78 78 78 80 82 83 86 91 95 99 104 108 110 111 111 110 107 103 99 96 91 87 84 82 81 81 81 80 80 80 80 80 80 79 78 78 78 77 76 76 76 75 75 75 75 75 75 75 75 75 75 75 75 75 75 76 76 76 76 77 78 79 79 79 79 80 81 81 82 83 84 84 83 83 85 86 88 89 90 91 91 91 90 89 88 88 86 86 85 82 81 81 80 78 78 76 77 77 77 75 73 73 73 73 73 73 72 72 72 72 74 75 75 74 74 74 74 75 75 75 76 76 75 74 74 74 74 76 76 76 78 75 75 75 75 75 75 75 75 76 78 77 77 76 76 76 76 75 75 75 76 79 81 83 83 82 82 82 81 81 81 81 81 80 79 77 76 77 78 79 79 78 75 75 74 73 73 73 73 73 73 72 72 72 72 72 72 72 72 73 73 73 73 74 74 74 75 76 76 77 77 77 77 77 77 77 78 79 80 81 82 83 83 84 85 84 84 84 84 85 87 88 88 89 88 88 86 84 81 79 76 74 72 71 70 69 68 66 65 65 67 70 71 74 77 81 83 85 86 87 87 86 84 82 80 77 75 74 72 71 74 77 78 77 74 72 72 73 78 79 78 75 74 75 75 75 78 78 75 71 69 70 72 74 75 75 73 73 75 76 77 78 78 76 77 77 75 71 67 61 56 54 54 53 53 53 53 53 53 53 53 53 54 54 54 54 55 56 56 57 57 54 53 53 54 54 53 51 50 50 51 52 51 49 46 45 45 45 45 45 46 46 46 46 44 43 43 46 47 48 48 49 49 49 49 48 48 48 48 48 48 49 48 48 48 47 47 47 47 46 46 46 46 46 46 46 46 45 43 42 42 40 36 36 36 36 36 36 36 36 36 36 35 35 35 35 35 35 35 35 35 35 35 35 35 35 35 35 35 35 35 35 35 35 37 40 42 41 37 35 35 35 35 35 35 35 35 35 35 35 35 35 35 35 35 38 39 38 38 38 37 35 35 35 35 35 35 35 35 37 38 39 39 39 37 37 37 37 37 37 37 37 38 38 38 38 38 38 38 38 38 38 38 38 38 38 38 38 38 38 38 38 38 38 38 38 38 38 38 38 38 38
