ncols         868
nrows         36
xllcorner     -77.5
yllcorner     38.50884
cellsize      1.0E-5
NODATA_value  -9999
71 71 72 72 71 69 68 69 69 69 69 69 69 70 71 72 73 74 75 76 76 76 76 77 77 78 78 78 79 79 80 81 81 81 82 83 83 82 82 82 82 82 82 83 84 84 84 84 84 84 83 84 85 87 87 87 86 85 84 82 81 81 81 82 85 87 89 89 88 87 86 84 84 86 89 89 89 88 90 91 91 91 89 88 87 87 89 90 90 90 91 91 91 91 90 90 90 90 91 91 91 91 91 91 91 92 92 92 93 93 93 93 92 92 91 91 91 91 91 91 91 91 90 90 89 89 89 89 88 88 87 87 87 86 85 84 84 84 85 85 84 84 84 84 84 84 84 84 84 84 84 85 86 88 88 88 88 87 87 86 86 86 86 86 87 88 90 93 95 95 95 94 93 92 88 85 85 86 87 87 86 84 83 84 84 84 84 83 84 86 88 87 85 84 83 82 81 81 81 79 76 74 73 71 71 71 71 72 74 74 74 71 67 63 60 59 58 58 62 70 73 69 70 73 77 82 84 83 79 71 62 57 58 64 67 71 76 78 78 75 72 71 75 78 78 76 71 63 55 46 42 41 46 50 47 39 37 37 37 37 38 38 39 41 42 44 47 48 47 45 43 41 40 37 36 36 37 40 45 48 48 45 48 53 58 62 67 70 74 73 69 65 62 58 51 46 50 55 60 65 63 58 58 62 64 63 62 61 60 56 49 46 46 45 45 45 44 43 40 38 36 36 36 36 37 41 47 52 56 61 66 70 73 74 71 68 65 64 64 63 59 59 59 55 52 54 53 52 53 56 59 60 60 60 61 63 65 66 67 70 71 72 72 73 75 78 80 82 83 85 86 85 82 83 85 86 84 80 77 75 73 73 74 74 73 71 68 64 63 62 59 56 56 56 56 57 57 59 65 70 72 69 67 68 72 76 78 79 79 77 75 74 76 78 80 79 77 75 73 71 71 71 71 70 70 70 71 72 73 74 73 74 76 80 84 86 87 88 89 90 91 92 92 91 92 93 94 94 96 99 102 103 103 103 104 105 107 108 108 108 108 106 106 105 104 102 101 100 98 96 95 97 98 99 100 101 103 103 102 102 101 100 99 100 100 98 95 93 92 92 93 93 93 92 91 89 86 85 83 81 80 80 79 78 74 71 72 73 74 72 69 68 67 69 71 75 80 84 85 84 82 79 77 79 79 81 83 84 85 86 87 88 87 86 84 81 80 81 81 83 83 80 76 75 76 79 84 86 87 87 87 88 89 91 93 96 98 98 98 99 100 100 100 100 100 100 100 100 99 98 98 97 96 97 96 93 90 87 85 87 88 88 88 90 91 93 96 98 99 99 100 99 99 100 101 102 102 102 102 103 102 100 100 99 98 96 95 92 91 91 90 89 89 89 89 88 85 82 79 78 77 76 75 74 74 74 75 77 79 82 84 82 81 80 80 78 77 76 75 76 79 82 85 85 82 82 85 88 90 93 94 94 94 93 92 90 88 85 84 85 87 90 90 88 87 90 93 94 94 92 88 85 84 82 80 81 82 82 83 85 87 89 91 93 95 97 97 97 97 99 100 100 102 102 103 103 103 103 102 100 99 99 100 100 100 100 100 100 99 98 97 97 97 97 97 96 96 95 94 91 89 85 84 83 81 79 79 80 81 82 84 85 83 83 84 85 86 86 84 82 81 79 74 68 61 60 64 69 69 65 70 71 69 67 64 60 58 57 57 57 57 57 56 56 56 58 63 64 65 66 67 66 66 64 61 57 51 48 48 49 52 55 59 62 65 68 71 72 73 74 75 76 76 77 77 78 79 78 76 69 60 48 49 53 59 62 65 65 62 58 55 56 57 59 60 61 62 63 63 64 66 69 71 72 74 75 77 79 80 81 80 79 78 78 77 77 77 76 76 75 73 70 69 67 66 66 68 71 72 72 73 73 73 73 72 70 65 65 66 67 68 68 70 71 65 59 56 53
70 70 70 71 71 69 68 68 69 69 69 69 70 71 72 73 75 76 76 76 77 77 77 77 78 78 78 78 79 79 80 81 82 82 82 82 82 82 81 80 81 81 81 81 82 83 84 84 83 82 81 82 85 87 87 86 85 84 84 82 80 79 81 82 85 86 87 87 86 85 84 83 84 86 88 88 87 88 90 90 90 90 87 86 86 87 89 90 89 89 89 89 89 89 89 89 88 88 89 90 90 91 91 91 91 92 92 93 93 93 94 93 92 91 91 91 91 91 90 90 90 90 90 89 89 89 89 88 88 88 88 87 87 86 85 85 85 85 85 85 85 84 84 84 84 84 84 84 84 84 85 85 86 88 88 88 88 87 87 86 86 85 85 85 87 88 90 92 93 93 93 94 94 93 88 85 84 85 85 85 84 82 82 83 84 84 83 82 83 85 87 87 86 84 82 81 80 80 80 78 76 74 73 72 71 71 70 71 71 70 70 66 62 60 59 59 58 59 64 72 77 75 73 76 80 84 85 83 79 71 63 58 61 68 71 72 75 78 78 78 77 75 78 81 80 76 71 64 57 48 42 40 42 46 43 37 37 37 37 37 38 39 40 41 42 44 46 47 45 43 42 41 40 38 37 37 37 38 42 47 51 49 49 53 59 64 68 72 75 77 76 74 69 62 58 58 60 59 59 64 66 64 64 64 66 66 65 64 63 61 57 56 56 56 55 53 52 49 44 39 37 36 36 36 36 39 44 50 57 63 68 72 73 70 67 63 61 62 62 59 57 56 57 53 50 50 51 51 53 54 56 57 58 58 60 60 62 63 65 67 68 69 70 73 75 77 78 81 83 85 85 83 81 80 82 83 83 80 78 76 76 77 76 76 73 69 67 66 66 64 59 56 56 56 56 57 58 62 69 75 76 72 68 68 71 75 77 79 79 77 76 76 77 79 81 81 78 75 73 72 72 74 74 73 72 71 72 75 78 78 77 75 77 81 83 85 86 87 89 90 92 93 94 95 95 95 94 94 96 97 99 100 101 102 103 104 106 108 108 108 108 107 106 105 104 102 101 99 98 96 94 94 95 96 98 100 100 100 100 100 100 99 98 99 99 98 96 93 91 90 92 93 93 93 91 88 86 83 80 79 78 77 78 79 78 77 77 77 75 72 69 68 67 67 70 73 77 81 82 81 79 76 75 76 77 79 81 82 84 85 87 87 87 86 84 82 80 79 78 78 77 75 75 76 80 83 86 89 89 89 89 89 90 92 94 97 99 100 99 99 99 98 97 97 97 98 99 99 98 97 96 95 95 96 96 95 91 87 84 85 87 89 90 91 93 95 97 100 100 100 100 100 99 100 100 100 101 102 102 103 103 102 101 101 100 99 96 94 93 92 91 90 90 91 91 90 87 83 80 79 79 78 78 76 75 74 73 73 74 77 78 78 78 77 77 76 75 74 74 76 78 80 81 81 80 81 84 88 90 93 93 93 92 91 91 91 88 85 84 83 85 89 90 87 86 89 91 92 92 92 89 85 82 80 78 78 79 80 82 84 87 90 93 96 97 97 95 94 95 97 97 98 100 102 102 102 103 103 103 102 101 101 102 102 103 102 102 101 100 100 99 99 99 99 98 98 98 97 96 92 89 85 81 80 80 81 82 84 84 84 86 87 86 86 87 87 87 85 82 81 81 78 72 66 61 63 67 71 70 67 71 73 73 71 67 63 60 58 58 58 59 58 58 59 60 61 64 66 67 67 69 68 68 65 62 57 51 48 48 49 52 56 61 63 65 66 68 72 74 74 73 72 72 73 76 78 78 78 76 70 62 52 49 53 57 61 65 67 67 64 62 61 60 59 59 60 61 62 63 66 69 71 72 73 73 75 77 78 81 82 80 79 78 77 77 76 76 76 75 74 71 69 69 69 69 69 70 72 73 73 74 73 73 72 70 68 67 68 69 69 70 70 71 72 68 61 58 55
69 69 69 69 68 67 67 68 69 70 71 71 72 73 73 74 75 75 75 76 77 77 78 78 78 78 78 79 79 79 80 81 82 82 82 82 82 81 80 79 79 79 79 80 82 83 84 84 83 80 81 82 84 85 85 83 83 84 84 83 80 78 80 83 84 84 84 84 83 82 82 81 82 84 85 85 86 89 90 89 89 88 86 85 85 87 89 89 89 87 88 88 87 87 87 87 87 88 88 88 90 91 91 91 92 92 92 93 93 94 94 93 92 91 91 91 91 90 90 90 90 90 90 89 89 89 88 88 88 88 88 88 87 86 86 85 85 85 85 85 85 85 84 84 84 84 84 84 84 84 85 85 87 88 88 87 87 87 86 86 86 85 85 85 85 86 88 90 90 90 90 93 93 92 88 85 83 83 84 83 83 81 81 81 83 83 83 82 81 84 87 88 88 86 82 80 80 80 79 79 78 75 73 72 71 71 70 69 68 65 63 60 59 59 59 60 61 64 68 71 75 79 79 80 83 84 84 83 78 69 61 59 65 74 77 75 73 75 78 81 81 80 81 82 77 69 64 58 52 46 43 41 38 39 39 37 37 37 37 38 38 39 41 43 43 44 45 45 44 43 42 41 40 38 37 37 37 39 42 47 53 54 51 53 56 61 66 71 74 77 78 77 72 66 66 67 67 65 63 63 66 67 66 66 66 66 65 65 63 63 62 62 60 60 57 55 54 49 43 39 37 36 36 36 37 43 48 53 59 64 69 73 72 69 65 60 60 62 61 57 53 52 51 49 49 51 53 54 55 55 55 58 60 61 62 62 63 64 66 68 68 70 73 77 79 80 80 82 84 85 84 82 80 78 79 80 80 79 78 78 78 78 76 73 70 68 68 69 67 63 59 56 56 56 57 57 60 65 72 77 77 73 69 68 70 73 76 78 79 78 78 78 78 80 82 83 79 75 72 72 74 77 78 77 74 73 74 77 81 82 81 78 78 80 82 84 84 85 87 89 91 92 94 96 97 98 97 97 97 97 98 99 100 101 102 103 104 105 106 106 107 107 106 106 104 102 101 99 97 95 94 93 92 93 94 96 97 97 98 99 99 98 97 98 99 98 96 93 91 89 89 91 92 92 91 89 86 82 78 75 74 73 75 76 75 74 75 75 75 73 70 67 66 65 66 69 74 77 77 77 76 74 73 75 77 79 81 82 84 85 86 86 86 85 84 83 81 80 78 76 73 73 75 79 83 86 89 91 91 91 91 91 91 92 95 97 99 99 99 98 97 95 94 94 96 98 98 98 98 96 94 93 93 94 94 94 91 86 83 85 88 91 92 94 96 97 98 99 99 99 99 99 99 98 98 98 99 100 100 101 102 102 102 102 103 101 99 96 96 94 92 91 91 91 91 89 85 82 82 82 82 82 81 80 79 77 75 73 72 72 74 74 74 74 74 74 74 73 73 75 77 77 77 77 77 80 84 88 91 92 92 91 90 90 90 91 91 87 83 82 83 87 88 85 84 86 89 89 90 90 87 83 81 79 76 76 77 80 83 87 90 93 95 95 95 94 91 91 94 97 97 96 98 99 99 99 101 103 104 103 103 103 103 104 104 104 103 103 102 101 101 101 101 100 100 99 99 98 97 93 89 84 83 83 84 85 86 86 87 87 88 89 88 88 89 88 88 86 81 78 77 75 69 64 63 67 70 73 71 69 72 76 75 73 70 66 63 60 60 63 64 60 60 63 65 66 66 67 69 70 70 70 70 66 61 55 50 48 48 49 52 57 62 63 64 64 65 68 70 70 69 66 66 71 75 77 78 77 75 69 62 52 48 52 56 60 64 68 70 70 68 67 67 66 66 66 66 67 68 70 72 75 75 75 75 75 77 78 81 81 79 78 78 77 77 76 76 76 75 72 71 71 71 71 72 72 72 73 74 74 74 73 72 71 70 70 71 72 72 72 72 72 73 73 71 65 63 60
69 69 69 68 67 67 67 68 70 71 72 73 73 73 73 74 74 74 75 76 77 78 78 78 78 79 79 79 79 79 81 81 81 81 82 82 82 81 80 79 79 78 79 80 81 82 83 83 81 80 81 82 83 84 84 81 82 83 84 84 81 78 78 82 84 84 83 83 81 80 78 79 80 82 84 85 86 88 88 88 88 87 86 85 85 87 88 88 87 87 87 88 87 87 87 87 87 88 88 89 90 91 91 91 92 92 92 93 93 94 94 93 92 90 90 90 90 90 89 89 89 89 89 89 89 88 88 88 88 88 88 88 87 87 86 86 86 86 85 85 85 85 84 84 84 84 84 84 84 85 85 86 87 87 87 87 86 86 86 85 85 85 85 84 84 85 85 86 86 87 91 93 93 92 88 85 83 82 83 83 82 81 81 81 82 83 84 82 81 82 85 87 87 86 83 80 79 79 79 79 78 76 73 72 71 70 70 69 66 63 60 60 62 64 66 66 68 72 76 77 77 79 82 82 83 82 82 81 76 68 61 59 66 73 78 78 78 78 79 82 83 83 83 80 71 62 58 56 53 51 50 43 38 37 37 37 37 37 37 38 38 39 42 44 44 45 45 45 44 43 42 41 39 38 37 37 37 41 45 48 55 57 56 56 57 59 61 65 70 74 78 78 75 73 75 74 72 69 66 64 66 67 66 65 64 65 65 64 63 62 60 58 57 55 52 49 48 46 43 39 37 36 36 36 39 47 53 57 62 67 71 72 71 67 63 59 58 61 60 57 52 49 47 48 51 54 56 56 55 58 61 64 68 70 68 67 68 71 73 72 74 76 77 79 81 82 82 82 84 85 83 81 79 77 76 77 78 78 77 78 78 78 77 74 71 70 70 70 68 65 61 57 56 56 57 57 60 64 71 75 76 73 70 70 71 72 75 77 79 80 80 80 80 81 82 83 79 74 72 72 74 78 80 80 78 75 74 76 80 82 83 82 80 80 80 81 83 84 86 88 89 91 93 95 97 99 99 99 100 101 100 100 100 101 101 102 102 103 104 104 105 105 105 106 104 102 101 100 98 96 94 93 92 91 92 94 94 94 96 97 98 98 97 97 98 97 95 92 91 89 87 88 90 91 90 86 83 79 76 74 73 72 72 72 72 71 70 69 69 69 68 67 66 65 65 66 70 74 74 74 73 73 73 76 79 82 83 84 84 85 86 86 85 84 83 83 82 81 80 78 75 72 73 78 81 85 88 90 91 92 92 92 92 93 95 97 97 97 96 94 93 92 92 94 96 97 97 97 97 96 94 92 91 92 93 92 89 86 83 84 87 90 91 94 95 96 96 97 97 98 98 99 99 97 96 97 98 99 99 99 101 101 101 102 103 102 100 99 98 97 95 93 92 91 89 86 84 84 84 85 84 84 83 83 82 81 80 77 75 73 72 72 72 72 72 73 73 73 73 73 75 75 75 75 77 80 84 88 90 90 90 89 88 89 90 90 91 88 84 81 82 86 87 84 83 84 87 87 89 89 85 81 79 77 75 76 78 80 83 86 90 92 93 92 91 90 90 92 95 97 95 94 95 96 96 98 101 103 103 103 104 104 104 104 104 104 104 103 103 102 101 101 101 100 100 99 98 97 94 90 87 84 84 86 87 88 88 88 89 89 90 90 90 90 90 88 87 85 81 76 72 70 66 64 65 70 74 75 72 72 75 77 78 75 71 67 63 62 63 66 66 63 62 64 66 67 66 68 69 70 71 71 70 65 59 55 50 48 48 49 51 58 62 63 63 63 63 64 65 65 63 62 68 73 76 78 78 77 73 66 58 50 49 54 60 64 66 69 72 73 74 73 73 72 72 70 70 71 71 71 71 74 75 76 76 76 77 79 81 81 79 78 78 77 76 76 75 75 75 72 72 72 73 74 74 73 73 73 74 74 74 73 72 71 71 71 72 73 73 73 73 73 72 72 70 65 62 59
69 68 67 67 67 67 67 69 70 71 72 73 73 73 72 73 73 74 75 76 78 78 79 79 79 79 79 80 80 80 81 81 81 81 82 82 81 81 80 78 78 78 78 81 81 81 81 81 80 79 80 81 82 82 82 80 80 82 83 83 81 77 78 82 83 82 82 79 78 78 78 78 81 81 83 84 85 87 87 87 87 86 85 85 85 86 87 87 86 86 87 87 87 86 86 87 87 88 88 89 91 91 92 92 92 92 92 93 93 94 94 93 92 90 89 89 89 89 89 89 89 89 89 89 89 88 88 88 88 88 88 88 87 87 87 86 86 86 86 85 85 85 84 84 84 84 84 84 85 85 86 86 86 86 86 86 86 85 85 85 85 85 85 84 84 84 84 84 85 87 91 92 92 90 88 85 82 81 81 81 81 81 81 81 81 83 84 83 81 81 84 85 86 86 82 80 78 79 79 79 78 76 73 72 70 70 70 69 66 63 60 61 65 69 69 69 70 73 79 81 79 79 81 82 82 79 80 79 75 68 61 59 64 71 76 77 78 80 81 83 85 84 82 76 68 61 60 59 56 56 53 45 39 37 37 37 37 37 37 38 39 41 44 45 45 45 45 45 44 43 42 41 40 38 37 37 37 40 45 48 54 58 60 61 62 61 61 63 67 73 77 79 79 78 78 77 74 71 67 66 66 67 66 64 63 63 63 63 63 61 59 57 56 54 51 47 45 43 40 38 37 36 36 36 40 48 56 61 65 70 73 72 69 65 62 58 58 59 57 54 49 47 48 51 53 56 59 59 58 58 61 64 69 72 72 70 69 72 75 75 77 79 80 80 82 84 84 84 85 85 83 81 79 78 76 75 76 76 77 78 78 78 77 75 73 72 72 71 69 65 61 57 56 56 57 58 60 64 70 73 74 73 72 72 71 71 74 77 80 81 81 81 82 83 84 84 79 74 73 73 74 77 80 81 79 76 75 75 78 81 83 83 81 81 81 81 82 84 86 88 89 91 93 95 97 99 100 101 102 103 101 100 100 101 101 100 101 101 102 103 103 104 105 106 104 102 101 100 98 96 94 93 91 90 90 92 93 93 94 96 97 97 96 95 96 96 94 92 91 89 86 86 87 87 86 82 79 76 75 74 74 73 73 73 73 72 70 69 68 68 68 67 66 66 66 65 68 72 73 73 73 72 74 78 81 83 85 85 85 85 85 85 84 83 82 82 82 82 83 81 78 73 73 75 78 83 87 90 91 92 93 93 93 93 95 97 97 96 94 92 91 91 93 95 97 98 97 96 95 95 94 91 90 90 90 90 89 86 83 83 86 89 90 92 93 94 94 94 94 96 97 99 99 97 96 96 98 99 99 98 99 99 100 101 103 102 100 100 99 98 96 94 92 90 88 85 85 86 87 86 86 86 85 85 84 84 82 80 78 75 72 72 71 71 71 72 72 72 73 73 74 74 73 74 76 79 83 86 87 87 88 88 87 88 89 90 90 88 84 80 80 84 86 83 82 83 85 86 87 87 84 80 78 75 74 77 79 81 83 85 88 91 91 89 87 86 90 93 96 97 94 92 93 93 95 98 101 102 102 103 104 105 105 105 105 104 103 103 102 101 100 100 100 100 99 98 95 94 92 88 85 85 86 87 89 90 90 90 90 90 91 91 91 90 90 88 84 82 80 76 71 68 66 65 67 73 76 77 75 75 76 78 79 75 72 68 63 63 65 68 67 64 63 64 67 68 69 69 69 70 70 70 69 64 59 55 51 48 48 48 51 58 62 62 62 62 62 61 61 61 60 62 70 74 76 77 77 76 71 64 54 47 49 56 62 66 69 72 75 76 76 76 76 76 75 72 72 72 73 72 72 74 75 76 77 78 78 79 81 81 79 78 78 77 76 76 75 74 74 72 72 72 75 76 75 74 74 75 75 74 74 73 73 72 72 72 73 72 72 73 73 73 71 69 66 61 58 55
68 67 67 67 67 67 67 68 69 70 71 72 72 72 72 72 73 74 75 78 78 79 79 79 79 79 80 80 80 80 81 81 81 81 82 82 81 79 79 78 78 78 79 82 81 78 79 78 77 78 81 82 82 81 80 78 79 81 81 80 80 76 77 80 79 78 76 76 78 79 81 83 84 84 84 84 84 85 85 85 85 85 85 85 85 86 86 86 86 85 86 86 85 85 86 86 87 87 88 89 90 91 91 91 91 91 92 92 93 93 93 93 91 90 89 88 88 88 88 88 88 88 88 88 89 88 88 88 87 87 87 88 88 87 87 87 86 86 86 85 85 85 84 84 84 84 84 84 85 85 85 85 84 85 85 85 85 84 84 84 84 84 85 84 84 83 83 83 84 86 89 90 90 89 87 85 82 80 80 80 80 81 81 80 81 82 84 83 81 80 81 82 85 86 82 79 78 78 79 78 78 76 73 71 69 69 70 70 67 65 62 60 65 72 73 72 73 74 79 83 83 82 81 79 79 76 76 77 74 68 62 60 62 66 69 72 76 80 82 84 85 84 80 74 71 70 69 66 62 63 58 48 40 37 37 37 37 37 38 38 39 42 45 45 45 45 44 44 44 43 42 42 42 40 37 37 37 38 43 47 53 58 62 66 68 70 69 67 67 70 74 79 82 82 81 79 75 72 69 68 68 67 66 64 62 62 62 62 63 63 62 61 60 60 59 56 53 48 42 38 37 36 36 37 42 50 58 63 67 72 75 72 67 62 59 56 55 56 53 49 47 47 51 57 57 57 61 65 64 62 61 61 63 66 69 72 74 75 77 78 81 83 84 84 84 85 85 85 85 85 84 83 81 78 76 74 74 74 75 77 78 78 78 77 75 73 72 69 65 62 59 56 56 56 57 58 60 63 67 69 71 73 74 74 73 73 74 77 80 82 83 84 84 85 86 86 82 77 76 76 77 77 78 81 81 78 76 77 78 79 81 83 83 82 81 82 84 85 87 88 89 91 93 95 98 100 101 103 103 103 103 101 101 100 100 99 99 100 100 101 102 102 104 106 105 103 102 100 99 97 96 94 92 90 89 88 89 90 91 93 95 95 94 93 95 94 92 91 90 88 85 84 84 83 80 77 76 76 77 79 80 80 80 78 78 77 75 73 71 70 69 69 67 66 65 65 66 68 71 71 71 71 74 79 82 83 84 84 84 85 85 84 84 82 79 80 81 82 83 83 80 74 71 72 76 80 85 88 90 92 93 94 94 96 97 98 96 93 92 90 89 91 93 96 98 99 98 96 94 94 94 92 90 89 88 88 88 86 83 81 83 86 88 89 90 91 91 90 91 93 96 97 97 95 94 94 97 99 98 97 96 97 98 100 102 102 102 101 100 98 96 94 91 89 87 87 88 89 90 88 88 88 87 87 86 86 87 85 82 78 76 74 72 71 71 72 72 72 72 72 72 72 72 73 75 78 81 82 83 84 85 85 85 88 89 89 89 86 83 79 79 83 85 82 81 83 85 85 84 84 83 80 77 74 74 78 80 82 84 86 88 89 88 85 84 86 90 94 96 96 92 91 90 92 96 99 100 100 100 102 104 104 105 105 104 104 103 102 100 99 99 99 99 98 97 95 93 90 88 86 86 87 89 90 90 91 92 92 91 91 90 90 90 89 88 86 84 81 77 73 71 70 66 67 69 75 78 79 78 78 79 79 79 74 70 66 65 65 67 69 69 65 63 64 66 68 69 70 71 71 69 65 62 61 57 55 50 48 47 47 49 55 60 60 60 59 57 56 56 57 59 65 73 76 77 77 76 75 71 63 51 44 49 56 64 67 71 75 76 77 77 77 78 78 75 74 75 76 76 76 74 74 75 77 78 78 79 79 81 81 79 78 78 77 76 76 75 74 73 73 73 73 75 76 76 75 75 75 75 75 74 73 73 73 73 72 72 72 72 72 73 73 70 64 61 59 57 55
67 67 67 67 67 67 67 68 69 69 70 71 72 72 72 73 74 75 76 78 79 79 79 79 79 80 80 80 81 81 81 81 81 82 82 81 81 78 76 76 77 75 79 81 81 77 75 76 76 80 81 81 80 79 77 75 77 77 77 77 77 74 74 75 75 75 76 80 83 83 85 88 89 88 85 84 84 84 84 84 85 85 85 85 85 85 85 85 85 85 85 85 85 85 86 86 87 87 88 89 90 90 91 91 91 91 91 92 93 93 92 92 90 90 89 88 88 88 88 88 88 88 88 88 88 88 88 88 87 87 87 87 88 88 87 87 86 86 86 85 85 85 85 85 85 85 85 85 85 85 85 84 84 85 85 85 84 84 83 83 83 84 84 85 84 83 82 83 85 86 86 87 88 88 88 85 83 80 79 78 79 79 79 79 80 82 84 85 83 80 78 79 83 86 83 79 77 78 79 78 78 77 75 71 69 69 70 71 68 66 63 60 65 69 73 75 78 78 79 83 84 83 80 77 75 72 71 70 68 64 62 63 69 71 69 70 74 77 80 83 85 83 81 81 82 81 76 69 67 68 62 52 42 37 37 37 37 37 38 38 40 42 44 44 45 45 44 43 42 42 42 44 44 41 38 37 37 37 41 48 52 57 61 67 72 75 75 74 72 71 74 79 83 84 82 78 74 71 69 69 69 68 66 64 62 61 61 62 63 62 62 61 61 61 60 60 56 49 41 37 36 36 36 37 44 52 59 63 66 71 74 72 66 62 59 55 53 52 49 47 47 48 53 59 61 60 61 65 69 68 66 64 63 65 68 71 75 77 79 80 82 84 85 85 85 86 85 85 84 84 83 81 79 77 75 74 73 72 73 74 76 77 78 78 76 74 73 71 68 63 59 56 56 56 56 59 62 65 67 69 71 73 75 76 75 74 75 79 81 82 84 84 83 85 86 86 82 78 77 79 80 78 78 81 82 79 79 80 79 79 80 82 84 84 83 83 85 87 89 90 91 92 94 97 100 101 102 102 102 102 102 102 101 100 99 98 98 98 99 100 100 101 103 105 106 104 103 101 100 100 98 96 93 91 89 88 87 88 89 90 91 91 91 91 92 92 91 89 88 87 84 82 81 79 79 79 79 80 83 85 86 86 84 81 82 83 81 78 76 75 73 70 68 66 65 65 65 66 69 69 69 70 73 77 81 81 82 82 82 82 82 83 83 81 79 77 77 78 79 79 76 72 71 71 73 76 80 83 86 90 93 93 94 96 97 97 96 92 89 88 88 90 93 96 97 99 99 96 93 91 93 93 91 89 86 86 87 86 83 81 82 85 86 87 88 88 88 88 91 94 97 97 96 93 92 92 95 96 96 96 95 95 97 100 101 102 102 102 100 98 95 93 91 89 88 89 92 93 91 89 89 89 88 88 88 89 90 89 86 83 81 80 77 74 72 72 72 72 72 72 72 72 72 72 74 75 77 78 79 81 81 81 84 87 87 87 87 85 82 79 78 82 83 80 79 82 83 83 83 84 83 79 75 74 77 81 82 84 86 88 88 88 86 83 82 85 90 92 94 94 90 88 90 95 99 99 97 97 98 102 103 104 105 105 104 104 103 102 100 98 97 97 97 96 94 93 90 88 87 87 88 91 92 91 91 93 93 93 92 91 90 89 88 87 85 83 82 79 75 73 74 74 69 70 72 77 80 82 82 82 81 81 78 74 69 68 68 66 67 70 69 66 64 64 66 68 70 72 73 71 68 62 60 58 56 54 50 48 47 47 47 51 56 57 57 55 54 53 55 59 63 69 75 76 76 73 72 73 70 64 51 44 48 55 63 67 71 75 76 76 76 77 78 79 78 78 78 79 79 78 77 77 77 77 78 78 78 78 79 79 79 78 78 77 76 76 75 75 75 75 74 74 75 76 76 76 76 76 75 75 74 74 74 74 73 72 71 70 71 72 73 73 72 68 67 66 63 60
67 67 67 67 67 67 68 69 69 69 70 70 72 73 74 75 75 76 77 78 78 78 78 78 79 79 80 81 81 81 81 81 81 82 81 81 80 79 77 75 74 74 78 80 79 76 74 77 80 81 81 80 77 75 73 72 72 73 74 74 74 74 74 75 76 78 81 86 88 88 88 90 90 89 87 84 84 84 84 84 84 84 84 84 85 85 85 85 85 85 85 85 85 85 86 86 87 87 87 88 89 90 91 91 91 91 91 91 92 92 92 91 90 90 90 89 88 88 88 88 88 88 88 88 88 88 88 88 87 87 87 87 87 87 87 87 86 86 86 85 85 85 85 85 85 85 85 85 84 84 84 84 84 84 85 85 84 83 83 82 82 83 84 84 84 82 81 81 82 83 83 84 85 87 87 86 84 82 81 78 78 78 78 78 79 81 84 86 86 81 77 78 82 84 84 80 76 76 78 78 77 77 75 71 68 68 69 69 66 63 61 62 67 68 71 75 79 81 81 82 84 83 81 79 78 75 72 70 66 62 62 67 74 77 75 73 73 75 78 82 85 85 85 88 88 84 77 72 72 72 65 54 44 37 37 37 37 38 38 39 41 42 43 44 44 45 45 43 42 41 42 43 43 42 39 37 37 37 40 47 52 57 61 66 72 76 79 79 78 75 76 81 84 84 83 80 77 74 72 71 69 68 66 63 61 60 61 62 63 62 61 61 60 60 58 56 53 46 39 37 36 36 36 38 45 53 57 60 64 70 72 70 64 60 58 55 51 50 47 45 47 50 55 60 64 63 62 65 69 71 71 68 66 68 70 71 73 76 78 80 81 81 82 83 84 85 85 83 83 83 81 79 77 75 75 74 72 71 70 70 71 73 76 77 75 73 72 71 67 62 58 56 56 56 56 59 63 66 70 73 74 75 77 76 75 75 76 78 79 80 81 81 80 82 84 85 82 79 79 81 81 80 79 82 83 82 82 83 83 81 80 82 84 85 84 84 85 89 91 92 92 94 96 98 101 103 103 102 101 100 100 100 99 99 98 97 96 96 97 98 99 99 101 103 106 105 104 102 102 102 100 96 93 92 90 88 87 87 87 88 88 88 89 89 89 88 88 87 86 84 82 79 78 78 80 81 83 85 88 89 89 87 85 84 85 85 83 80 78 76 73 70 68 66 65 65 65 65 66 66 68 70 72 75 77 79 79 79 80 80 81 82 83 84 81 77 75 75 75 75 73 70 71 73 76 78 79 81 84 88 91 92 94 96 97 97 95 92 89 86 86 88 91 93 96 98 98 96 91 89 90 93 93 91 87 85 84 84 81 79 80 83 85 86 86 86 87 90 92 95 97 96 93 90 88 91 93 94 93 92 92 94 96 97 99 101 102 102 101 98 96 94 91 89 90 92 93 94 91 91 92 90 90 90 90 91 92 93 91 88 85 85 82 78 74 72 72 71 71 71 71 72 72 72 72 72 74 75 77 78 78 81 85 86 86 86 86 85 82 79 78 79 80 79 78 80 80 81 83 84 82 77 73 73 78 83 85 86 87 88 88 86 84 80 80 84 87 88 90 91 87 86 91 96 96 95 94 97 99 102 104 105 104 104 104 103 103 101 100 98 97 96 94 93 91 91 90 89 89 89 91 93 93 93 93 93 92 91 90 90 88 87 85 84 82 81 79 77 76 76 77 73 70 72 74 78 81 84 85 84 83 82 77 72 69 72 73 70 68 69 70 68 66 66 66 68 70 72 72 72 68 63 62 60 58 55 50 48 47 47 47 48 52 54 54 52 51 52 56 60 64 69 75 76 74 69 68 69 69 62 52 45 45 52 61 64 68 73 75 75 74 74 76 78 78 78 78 79 79 79 79 79 78 78 78 78 78 78 78 79 79 79 78 77 76 76 76 76 76 76 75 75 75 75 76 76 76 76 76 75 74 74 73 73 73 71 69 69 70 72 73 73 72 71 70 70 69 69
67 67 67 67 68 68 69 70 70 71 71 72 74 76 76 76 76 76 77 77 78 78 78 78 79 79 80 81 82 82 82 82 82 82 81 80 77 78 78 76 73 73 79 79 76 73 75 79 81 79 78 77 73 71 72 72 72 73 74 75 77 78 78 79 79 81 85 89 91 90 90 90 91 90 87 85 85 85 84 84 84 84 84 84 85 85 85 85 85 85 85 85 85 85 86 86 87 87 87 88 88 90 91 91 91 91 91 91 92 92 91 91 90 90 90 89 88 88 88 88 88 88 88 88 88 88 88 88 88 87 87 87 87 87 87 87 86 86 86 85 85 85 85 85 85 85 85 84 84 84 83 83 83 84 84 84 83 83 82 81 81 81 81 81 80 80 78 79 80 80 81 83 84 86 86 85 85 84 83 81 79 77 78 78 78 81 84 86 86 82 78 76 80 83 83 82 78 76 77 77 76 76 74 70 67 65 65 65 62 62 63 67 72 73 72 74 78 81 84 84 85 84 82 81 80 78 77 75 70 64 64 71 76 79 80 79 77 77 77 81 85 87 88 91 90 84 78 74 76 73 64 53 42 37 37 37 37 38 39 39 39 40 40 41 43 44 41 39 37 37 37 37 37 37 37 37 37 37 38 44 50 55 60 64 69 75 79 82 82 81 81 82 83 82 82 80 79 76 74 72 70 68 65 63 61 60 61 63 63 61 59 60 59 56 53 50 46 42 38 37 36 36 36 39 46 51 56 59 64 68 69 68 63 58 55 52 50 48 46 45 47 51 55 61 65 67 66 65 68 72 74 72 69 71 74 76 75 76 78 79 79 78 79 80 82 83 82 80 82 83 82 80 78 76 75 75 74 72 70 68 68 70 73 75 75 72 69 66 63 59 57 56 56 56 57 60 63 66 70 74 76 77 77 77 76 75 76 76 76 77 78 77 77 80 83 83 81 79 80 82 81 81 81 83 85 84 84 85 84 82 82 82 83 84 85 85 86 90 94 93 93 94 96 99 102 102 101 100 99 98 98 98 97 96 96 95 94 95 96 97 98 98 100 102 105 105 105 104 104 104 102 98 95 93 91 89 87 87 87 86 86 86 87 87 86 86 85 84 83 81 81 80 80 82 83 84 86 88 90 90 89 87 85 84 84 84 83 81 77 73 70 68 66 65 65 65 65 65 65 65 67 69 72 73 75 76 76 78 79 79 79 81 83 84 82 79 76 75 74 72 70 70 72 77 81 84 84 83 84 87 90 93 95 96 97 96 94 92 88 85 85 88 91 93 96 96 96 94 90 87 88 90 92 92 89 86 84 82 79 78 79 82 84 84 84 84 87 90 92 95 96 94 91 88 87 88 91 92 91 89 90 93 96 97 98 100 101 101 101 100 98 95 92 91 91 94 95 95 92 92 92 91 91 92 92 92 93 94 93 90 87 87 85 81 77 74 72 71 71 71 71 71 72 72 72 72 72 74 75 76 78 82 85 85 85 85 85 85 84 80 77 77 78 78 77 79 79 80 82 83 80 75 73 75 79 83 85 87 88 88 87 84 81 78 79 83 83 84 87 87 85 86 90 92 92 91 93 97 100 103 104 104 104 103 103 103 102 102 101 99 97 94 93 93 93 93 93 92 92 92 93 93 93 93 94 93 92 91 90 89 89 88 85 84 83 83 81 80 80 80 79 73 71 73 77 79 81 84 85 85 83 80 75 71 70 75 76 74 70 70 71 69 67 67 68 69 70 69 68 68 68 66 64 62 59 54 50 49 48 47 47 47 50 52 52 51 50 52 55 59 62 67 72 74 71 65 64 67 67 61 52 46 44 47 56 60 63 67 69 69 67 68 73 75 76 76 77 77 79 79 78 78 78 78 77 77 78 78 78 79 79 79 78 77 77 77 77 77 76 76 76 75 75 75 75 76 76 76 76 75 74 73 73 72 71 69 68 69 70 72 73 72 72 71 70 69 69 68
66 67 68 69 69 69 70 70 71 71 73 75 75 75 75 75 76 76 76 77 77 77 78 78 78 78 79 80 81 81 81 81 81 81 81 80 76 75 78 76 73 73 78 77 73 73 78 79 79 77 74 73 71 71 72 73 76 78 79 81 81 81 82 82 82 82 84 87 90 90 89 90 90 90 87 84 84 84 84 84 84 84 84 84 85 85 84 84 85 85 85 85 85 86 86 86 87 87 87 88 88 90 90 90 90 90 90 91 91 91 91 90 90 90 90 90 88 88 87 87 87 87 87 88 88 88 88 88 88 87 87 87 87 87 87 86 86 86 86 85 85 85 85 85 85 85 85 84 83 83 83 82 83 83 84 84 83 82 82 81 80 80 80 79 78 78 78 78 78 79 80 81 82 84 84 84 84 84 83 83 80 77 77 78 78 80 83 85 84 81 79 76 77 81 82 81 79 75 75 75 75 75 74 70 67 64 63 63 63 64 67 71 75 77 75 76 79 81 84 85 85 84 83 82 80 80 80 78 73 65 65 72 76 79 81 81 81 81 81 81 83 86 89 91 90 84 79 76 77 72 63 52 41 37 37 37 37 39 40 39 38 38 38 39 40 39 37 37 37 37 37 37 37 37 37 37 37 37 38 42 47 52 57 61 66 71 77 82 84 84 83 81 80 79 79 78 78 76 74 72 70 68 66 63 61 60 60 62 63 61 59 57 55 52 48 45 42 39 37 36 36 36 36 40 47 52 55 58 62 66 67 66 63 58 54 50 49 47 44 45 48 52 56 61 65 67 69 68 68 71 73 73 72 74 77 78 78 78 79 79 78 76 77 79 80 79 78 79 82 84 83 81 78 76 76 77 76 75 73 71 68 67 69 71 73 73 69 64 60 57 56 55 55 56 57 61 65 68 70 73 76 77 77 76 75 74 74 74 73 73 74 74 76 80 81 79 78 79 81 82 82 82 83 85 86 86 86 86 85 84 82 82 83 84 85 86 88 91 93 93 92 93 96 99 102 102 100 98 97 96 96 96 95 94 94 93 93 93 95 96 97 98 99 101 103 104 105 106 106 105 103 98 94 92 91 89 88 88 87 86 85 84 85 85 85 84 84 82 81 81 81 82 83 85 87 88 88 89 88 87 86 84 82 81 80 79 78 76 74 70 67 66 66 66 65 65 65 65 65 65 66 68 69 71 73 73 75 77 78 78 79 81 83 85 83 81 79 77 74 71 70 70 74 79 84 87 87 86 87 89 91 93 94 96 96 95 93 90 88 83 83 87 91 93 94 94 93 92 90 87 86 88 91 91 90 88 86 83 80 78 79 81 83 82 81 83 86 88 91 94 93 91 89 87 86 88 90 90 89 88 89 92 95 97 98 99 100 101 101 100 98 95 92 91 93 95 96 96 94 92 92 92 93 93 92 92 93 94 93 90 89 87 85 83 81 78 74 72 71 71 71 71 72 72 71 71 72 72 74 76 78 82 84 84 84 84 84 85 84 80 76 75 76 76 76 78 78 78 80 80 78 74 72 75 79 82 84 86 87 88 86 82 79 77 77 80 80 81 83 83 82 84 87 88 89 91 93 96 99 104 104 104 103 103 102 102 102 101 101 99 98 97 96 96 96 96 95 95 95 95 95 93 93 94 94 93 92 92 91 90 89 88 88 86 86 87 85 83 82 82 79 73 72 75 78 79 81 83 84 84 81 78 73 70 71 77 78 77 74 72 72 70 69 69 69 70 70 68 67 66 66 66 63 60 56 52 51 51 51 48 47 47 49 51 51 48 49 51 52 56 59 65 70 72 69 64 62 65 65 60 50 45 44 45 48 53 57 59 60 62 63 64 67 69 71 74 75 76 78 78 78 77 77 77 77 77 77 78 78 79 79 79 78 77 77 77 77 77 76 76 76 75 74 74 75 75 75 75 75 75 74 72 72 71 69 67 66 69 70 72 72 70 71 70 70 68 68 68
66 66 68 69 70 71 71 72 72 73 74 75 75 75 75 75 75 75 76 76 76 77 77 78 78 78 79 80 80 80 80 80 80 80 79 76 74 74 75 73 72 73 75 74 72 77 79 79 77 73 71 71 72 74 77 78 81 83 83 83 83 83 84 86 85 85 85 85 88 88 89 89 89 89 86 84 84 84 84 84 84 84 84 84 84 84 84 84 85 85 85 85 85 86 86 86 87 87 87 88 89 89 90 90 90 90 90 90 91 91 91 90 90 90 89 89 88 88 87 87 87 87 87 87 88 88 88 88 88 88 87 87 87 86 86 86 86 86 86 85 85 85 85 85 85 84 84 84 83 82 82 82 81 81 81 81 81 81 80 80 80 79 79 80 79 78 78 78 78 78 78 78 79 81 82 83 83 82 82 82 81 78 75 75 76 78 81 81 77 76 76 73 74 78 78 79 79 77 75 73 72 71 71 69 66 65 65 66 68 70 72 76 80 80 77 76 79 81 83 85 85 84 83 82 82 82 82 81 76 68 64 68 72 75 78 80 83 85 86 85 84 85 88 89 85 79 75 72 71 70 65 54 44 37 37 37 37 39 40 39 38 37 37 37 37 37 37 37 37 37 37 37 37 37 37 37 37 38 42 49 54 56 58 62 68 72 75 80 84 85 84 81 78 75 73 72 71 71 71 70 69 67 66 64 62 60 58 59 60 60 60 59 57 55 54 51 47 40 36 36 36 36 37 42 46 49 52 56 60 62 62 60 58 55 51 47 45 45 44 45 49 53 57 62 66 69 70 70 70 69 70 73 75 77 79 79 79 79 78 76 74 72 74 76 76 75 76 79 84 87 85 81 79 79 79 79 78 78 77 76 71 66 64 67 70 72 69 64 59 56 56 55 55 57 61 65 69 71 73 74 76 77 77 74 72 71 70 70 70 69 70 71 73 75 76 77 77 79 81 82 83 84 85 86 88 87 86 86 85 84 82 82 83 84 86 89 91 93 92 90 90 92 95 98 100 101 99 96 95 94 94 94 93 92 91 90 91 92 94 95 95 97 98 99 101 103 106 108 109 106 102 97 94 93 93 92 91 90 88 86 84 84 84 84 84 83 83 83 83 84 84 86 88 89 90 91 89 87 85 82 81 80 79 77 75 74 72 71 71 70 69 69 70 69 67 65 65 65 65 66 66 66 67 68 70 71 73 75 75 76 78 82 85 86 84 83 81 77 72 69 69 71 74 79 84 87 88 89 89 90 91 92 93 93 93 92 91 89 85 82 81 85 90 93 93 91 89 90 89 87 84 84 88 91 91 90 87 84 80 77 77 79 80 80 81 84 88 90 93 93 91 88 86 85 84 86 86 86 87 88 90 93 96 98 99 100 101 102 103 101 98 95 93 93 94 96 97 97 96 96 96 96 96 95 95 94 94 95 96 93 91 89 88 87 84 81 78 74 71 71 71 72 73 72 71 71 71 71 73 75 78 82 82 82 83 83 83 82 82 80 76 74 73 74 76 78 78 77 78 78 78 74 72 73 76 79 80 82 85 86 84 80 76 74 74 75 76 78 79 79 80 82 84 86 89 92 95 97 98 102 103 103 102 101 100 100 100 100 100 100 99 99 99 99 98 98 97 97 97 97 97 96 95 95 95 95 95 95 95 93 91 90 89 89 89 88 86 84 84 84 81 75 74 76 79 81 82 83 84 83 81 77 74 74 75 78 80 79 76 74 74 73 71 71 71 72 71 68 66 63 62 61 59 56 54 54 55 55 55 51 47 47 47 50 50 48 47 48 50 54 56 63 68 69 66 62 59 61 60 54 45 44 51 55 54 53 53 56 57 58 60 62 64 65 66 68 71 73 75 76 76 76 76 76 76 76 77 77 78 78 79 79 78 78 78 77 77 77 76 76 76 75 74 73 73 73 73 74 74 73 72 71 70 68 67 65 66 68 69 70 69 66 68 69 69 65 65 65
66 66 68 69 70 72 72 73 73 73 73 74 74 75 75 75 75 75 76 76 76 76 77 77 76 77 77 78 79 79 79 79 79 78 76 73 72 74 73 71 71 76 73 70 72 77 77 75 72 70 71 72 73 77 80 82 82 85 87 84 84 84 84 87 88 87 86 85 85 86 88 88 88 87 84 84 84 84 84 84 84 84 84 84 84 84 84 84 85 85 85 85 85 86 86 86 87 87 87 88 88 88 89 89 90 90 90 90 90 91 91 91 90 90 89 88 88 88 87 87 87 87 87 87 88 88 88 88 88 87 87 87 87 86 86 86 86 86 86 85 85 85 85 85 85 84 83 83 82 82 82 82 81 81 81 81 81 80 80 80 81 81 83 83 84 84 83 81 78 77 77 77 77 78 79 80 81 81 80 80 80 79 75 74 75 76 77 75 72 72 72 72 72 74 75 75 74 74 75 73 70 69 68 67 66 65 67 71 71 73 76 80 82 83 80 78 78 79 81 83 85 85 84 84 84 84 83 81 76 69 64 65 68 70 74 78 82 85 87 87 87 87 88 85 78 72 68 63 60 62 63 58 46 38 37 37 37 38 38 37 37 37 37 37 37 37 37 37 37 37 37 37 37 37 37 37 37 40 47 54 61 62 60 63 70 76 78 80 84 86 85 83 80 75 71 67 66 66 66 66 65 65 65 64 63 61 58 56 58 59 60 60 59 58 57 54 47 39 36 36 36 36 37 41 44 49 53 56 58 58 57 56 54 51 47 45 43 43 44 46 50 53 57 62 66 68 69 69 68 66 68 72 77 78 78 78 77 77 74 72 70 69 70 71 71 74 77 80 84 86 85 82 81 81 81 82 81 80 77 74 70 66 63 63 66 68 68 65 61 58 56 56 56 58 63 67 70 72 74 75 76 76 75 72 68 66 66 66 67 67 69 73 75 76 77 77 78 80 81 83 84 85 85 87 87 86 85 84 85 84 83 83 84 85 87 90 93 93 90 88 89 93 95 97 98 98 97 95 93 92 91 91 91 90 90 90 90 91 93 94 95 97 98 99 100 102 105 108 109 106 102 97 95 95 95 94 92 90 88 87 85 84 84 84 84 84 84 86 88 88 87 89 92 93 93 93 91 88 84 81 79 78 78 78 76 74 74 73 73 73 73 73 73 71 69 67 66 65 65 66 66 66 66 66 68 70 72 72 74 76 78 81 85 86 85 83 81 75 70 69 71 72 74 78 82 86 88 89 89 91 91 90 92 93 91 89 87 85 82 79 77 82 88 91 91 88 86 88 89 87 83 82 85 88 91 90 87 84 80 77 75 76 77 80 83 86 90 93 93 91 89 87 85 83 83 83 83 84 87 89 91 93 97 99 100 101 102 103 103 102 99 95 94 94 95 97 98 99 99 99 98 98 98 98 98 97 97 97 97 96 93 90 89 87 84 80 77 74 73 74 77 78 76 73 71 71 71 71 72 74 77 80 80 81 81 82 82 81 81 79 76 73 73 73 76 78 77 76 76 76 76 74 70 70 73 76 77 78 81 82 81 77 72 72 73 75 76 77 79 80 82 83 85 87 90 94 97 99 100 102 103 103 101 99 98 99 99 99 98 98 99 100 100 101 100 99 97 96 96 96 96 96 95 95 95 95 95 95 95 95 94 92 91 90 90 89 88 87 86 85 81 78 75 75 79 81 83 85 86 85 83 79 77 77 77 80 82 82 78 75 75 76 73 73 73 73 72 70 68 64 60 58 56 56 57 58 58 58 58 54 48 47 47 48 48 48 47 47 49 54 57 62 67 67 65 61 56 55 54 47 44 50 61 64 62 59 57 60 62 63 65 67 69 69 67 67 67 70 72 74 74 74 74 75 75 76 76 77 78 78 79 79 78 78 78 77 77 76 76 76 76 75 75 73 72 71 71 72 72 71 70 69 68 67 65 62 65 65 67 68 66 63 66 68 68 64 60 56
66 66 69 70 72 72 72 72 73 73 73 74 74 74 74 74 74 75 75 75 75 76 76 75 75 75 76 78 79 79 78 79 79 78 75 71 71 74 72 69 72 77 71 69 73 75 72 69 69 71 76 79 76 76 79 82 84 86 87 85 84 84 84 87 89 89 88 86 85 86 88 87 87 87 85 84 84 84 84 84 84 84 84 84 84 84 84 84 85 85 85 85 86 86 86 86 87 87 87 88 88 88 89 89 89 89 90 90 90 90 90 90 90 90 89 88 88 88 87 87 87 87 87 87 87 87 87 87 87 87 87 87 86 86 86 86 86 85 85 85 85 85 85 85 84 84 83 83 83 84 83 82 81 81 81 81 81 81 81 85 87 85 85 86 88 88 87 84 79 77 77 77 77 77 78 78 79 80 80 79 79 79 76 74 74 73 73 72 72 71 71 70 70 70 70 70 69 69 70 70 69 68 68 66 65 65 69 72 72 72 77 81 84 84 81 80 80 81 82 84 87 87 86 84 84 84 82 80 76 69 65 67 72 71 71 74 78 83 87 89 90 92 92 87 80 75 71 65 60 57 55 54 47 39 37 37 37 37 37 37 37 37 37 37 37 37 37 37 37 37 37 37 37 37 37 37 38 40 47 55 63 66 62 64 71 77 80 83 85 86 85 84 81 77 73 68 64 63 62 61 61 60 60 61 62 62 59 56 55 55 58 59 59 59 57 53 45 37 36 36 36 36 39 42 46 50 52 54 55 55 52 49 47 44 42 43 43 43 45 48 50 54 58 62 65 66 66 64 63 64 67 71 75 77 77 75 74 72 70 68 68 67 67 68 68 72 76 78 79 82 83 83 83 84 83 83 82 80 78 75 71 68 64 61 61 63 63 62 60 58 56 56 56 57 61 65 69 71 72 74 74 74 72 67 63 61 61 62 62 64 68 73 75 77 79 80 80 81 82 83 84 85 86 86 85 84 83 84 84 84 84 84 86 87 89 90 92 92 89 87 88 91 93 95 95 95 94 93 91 90 89 89 88 89 90 90 91 91 93 94 95 97 98 99 101 103 105 107 107 104 101 98 97 97 96 94 91 90 89 88 86 85 85 86 87 88 89 91 92 91 91 92 94 95 95 93 91 88 85 82 79 78 79 81 80 77 76 77 78 78 76 76 75 73 72 70 67 66 66 66 66 66 65 65 67 69 71 72 74 76 78 81 84 86 85 82 80 74 69 70 74 77 80 83 86 87 88 88 88 88 88 88 92 94 92 88 85 82 80 77 77 82 88 90 90 87 84 84 85 84 80 79 83 87 90 90 87 84 81 78 75 75 76 80 83 86 89 90 90 89 87 85 84 82 81 81 82 85 86 88 90 93 96 98 100 102 103 103 103 102 99 96 96 96 96 98 99 100 100 100 100 100 99 99 99 98 97 96 97 97 94 91 87 85 82 78 74 74 76 79 82 81 78 74 71 71 71 71 71 73 76 79 79 79 80 81 80 79 78 78 76 74 73 72 76 77 77 75 75 75 75 74 70 69 71 72 73 75 77 78 78 74 72 74 76 78 79 80 82 83 85 86 88 91 93 95 98 100 101 101 102 101 98 96 96 97 98 98 97 97 98 99 100 100 100 97 95 94 93 95 95 95 95 94 94 94 95 95 94 94 94 94 92 91 91 90 89 88 87 86 83 80 77 76 79 81 83 86 87 87 84 81 79 79 79 80 82 82 79 76 76 76 75 74 73 72 72 68 65 63 61 60 59 61 62 63 62 63 62 57 51 48 47 47 47 46 45 46 48 52 56 62 66 66 65 62 55 52 49 44 48 57 64 68 69 66 60 61 66 69 72 74 75 75 74 70 69 69 71 72 72 73 73 74 75 75 76 77 77 78 79 79 78 78 78 77 77 76 76 76 75 75 75 74 72 70 69 69 68 67 65 64 62 61 60 59 61 62 63 63 61 60 63 63 64 62 57 52
66 69 72 72 72 72 72 72 73 73 74 74 74 74 74 74 74 74 74 74 75 76 75 74 73 73 75 78 78 77 77 78 78 77 75 71 69 71 69 68 70 73 69 69 71 71 69 69 71 73 78 80 79 78 78 81 83 85 86 85 84 84 84 86 89 91 90 88 87 87 87 87 86 86 85 84 84 84 84 84 84 84 85 85 84 84 84 84 85 85 85 85 86 86 86 86 87 87 87 88 88 88 89 89 89 89 89 89 89 89 89 89 89 89 89 89 88 88 88 88 87 87 87 87 87 87 87 87 87 87 87 87 86 86 86 86 86 85 85 85 85 85 85 85 84 84 84 84 85 87 87 86 85 84 83 82 82 83 84 88 91 87 87 89 91 91 90 86 81 78 77 77 77 77 76 76 77 78 78 77 77 77 76 74 74 74 74 76 75 71 71 70 70 69 69 69 69 68 68 68 67 67 67 66 66 67 72 75 74 73 76 80 83 83 82 82 82 82 84 87 88 88 86 84 83 83 82 78 73 67 65 70 76 77 76 75 76 80 84 88 92 95 94 89 83 81 78 71 67 61 56 50 46 39 37 37 37 37 37 37 37 37 37 37 37 37 37 37 38 38 38 39 39 39 38 38 39 42 47 55 64 67 64 66 71 77 81 84 85 85 85 85 82 78 74 69 65 63 62 60 59 58 57 57 59 59 59 57 55 53 54 56 58 59 57 51 42 36 36 36 36 37 41 43 44 45 47 49 50 48 46 44 42 41 42 43 46 48 51 53 54 57 59 61 62 62 60 61 64 68 70 72 74 75 72 69 69 69 67 66 65 66 66 68 69 71 74 76 77 79 81 83 85 86 85 83 80 78 76 75 72 68 64 60 58 58 57 56 56 57 56 56 56 56 59 62 65 67 69 70 70 70 67 63 60 59 60 61 62 62 64 67 70 74 78 80 82 82 83 84 84 85 85 85 83 81 81 82 84 85 85 85 86 88 89 90 90 90 87 85 85 87 88 90 90 90 90 90 89 88 87 86 87 89 92 93 94 94 94 94 95 96 97 99 100 102 105 107 107 104 100 100 98 97 95 93 91 91 90 89 87 86 86 88 91 92 93 95 95 93 93 94 96 97 96 94 92 88 84 81 79 80 83 84 82 79 79 81 83 82 81 80 78 76 73 71 69 69 69 68 67 66 65 65 67 69 71 74 76 78 80 83 85 84 82 79 77 73 69 71 76 80 83 86 89 89 87 85 84 83 85 88 92 94 93 88 84 81 78 76 77 84 89 91 90 88 84 81 81 79 77 78 83 87 89 90 88 86 83 79 76 74 75 78 82 84 87 87 86 86 85 83 82 81 81 81 83 85 86 87 88 91 95 98 101 103 103 103 103 101 99 98 98 98 98 99 100 101 102 102 102 101 101 100 99 97 95 93 94 95 94 90 86 83 80 77 75 76 80 84 86 84 79 75 72 71 71 71 71 72 74 76 76 77 78 79 79 78 77 76 75 74 72 72 74 75 75 74 73 74 74 72 69 68 68 69 69 71 73 74 74 71 73 77 79 81 83 84 85 86 88 88 90 92 95 96 98 99 99 98 99 99 96 93 95 97 98 96 94 94 94 96 98 98 98 94 92 92 93 94 94 94 94 94 94 94 94 94 94 93 93 93 93 93 92 92 91 90 89 87 85 83 80 78 81 83 85 86 87 88 85 82 81 81 81 81 83 82 80 77 77 78 76 74 73 72 68 66 64 64 64 64 63 65 67 68 68 68 65 60 54 52 51 50 48 46 45 45 47 51 55 61 64 64 64 62 55 51 47 44 52 59 64 69 73 71 64 60 66 70 73 75 77 78 77 75 73 72 72 72 72 72 72 73 74 75 76 77 77 78 79 79 78 78 78 77 77 76 76 75 75 75 75 74 72 70 68 67 66 64 63 62 60 59 59 57 57 57 57 57 56 58 59 58 59 59 54 49
69 72 72 72 71 71 72 72 73 73 73 73 73 73 73 73 73 73 73 74 74 75 75 74 72 72 76 77 77 76 76 78 78 77 74 71 66 66 66 66 67 68 68 69 69 69 69 73 76 77 78 81 81 80 79 81 83 85 87 86 84 84 84 85 89 91 90 89 88 87 87 86 86 85 84 84 84 84 84 84 84 84 85 85 84 84 84 84 85 85 85 85 86 86 86 86 86 87 87 88 88 88 88 88 89 89 89 88 88 88 88 88 89 89 89 89 88 88 88 88 88 87 87 87 87 87 87 87 87 87 86 86 86 86 86 85 85 85 85 85 85 85 85 85 84 84 85 86 87 89 90 89 88 87 85 82 82 85 86 89 90 88 88 92 93 92 90 85 81 78 77 77 77 77 76 76 76 77 77 76 76 76 74 74 74 74 77 78 76 74 74 74 74 73 71 69 69 69 69 68 67 67 67 66 66 69 74 77 76 74 75 78 80 82 84 83 83 83 84 87 87 87 86 83 81 81 80 76 71 66 67 71 77 80 80 79 78 79 83 87 92 95 95 91 88 85 81 76 72 65 58 51 47 44 40 37 37 37 37 37 37 38 40 40 37 37 37 39 40 40 40 40 41 40 39 39 42 45 50 56 64 69 67 70 73 76 79 83 84 84 84 84 82 78 74 70 66 65 65 65 62 59 58 56 56 56 57 57 56 53 52 54 57 59 56 50 42 36 36 36 36 37 41 41 39 39 42 44 44 43 41 41 41 42 43 46 49 52 54 54 56 58 59 60 58 57 59 62 66 69 71 72 73 73 70 67 66 66 64 64 65 66 68 71 73 75 76 77 78 79 81 84 86 87 86 83 79 76 74 72 70 67 63 60 58 58 57 56 56 57 57 56 56 56 57 60 62 64 65 67 68 66 63 60 59 60 63 64 64 62 61 63 67 72 77 79 80 81 83 84 83 84 84 84 82 80 80 81 83 85 86 86 86 87 87 88 88 87 85 84 83 83 84 85 87 88 88 88 88 87 86 86 88 91 94 95 96 96 96 96 96 96 97 98 100 102 105 107 108 105 102 100 99 97 95 94 93 92 91 89 87 86 87 89 92 95 96 97 96 94 94 95 97 97 96 94 91 88 84 81 81 84 86 85 82 79 81 84 86 87 85 83 81 77 73 71 70 70 70 70 70 68 65 65 67 69 72 75 77 79 81 83 85 84 79 75 73 70 67 70 75 78 82 85 88 88 86 82 80 83 87 89 91 94 93 89 84 79 77 76 78 84 88 90 89 87 83 79 77 76 75 79 84 87 90 90 89 87 83 80 76 74 74 77 81 84 86 85 84 83 83 81 80 80 81 82 84 85 86 87 88 91 95 98 100 102 103 103 102 101 100 100 99 99 99 99 101 102 103 103 102 102 101 99 98 97 95 92 91 92 92 89 86 84 81 77 76 79 84 87 88 85 79 75 72 71 70 71 71 72 73 75 75 75 76 78 78 77 76 75 74 73 71 70 73 74 74 73 72 72 72 71 69 67 67 68 68 68 69 70 70 70 74 79 81 83 84 84 84 85 86 87 89 92 95 97 97 97 96 95 96 96 95 92 94 97 97 96 92 91 92 93 95 95 94 92 91 92 93 94 94 93 93 93 93 93 93 93 93 93 93 93 92 93 93 93 92 91 90 89 87 85 81 80 82 84 85 86 87 87 85 82 81 81 81 82 83 83 81 79 79 79 77 74 72 70 67 66 66 67 67 67 64 65 70 70 70 70 67 62 57 56 55 53 51 47 45 45 47 51 54 59 61 61 61 59 54 50 45 44 52 59 64 68 72 72 66 60 64 68 72 75 77 78 78 78 76 74 73 73 72 72 72 73 74 75 76 77 77 78 78 78 78 78 77 77 77 76 76 75 74 74 74 73 71 69 68 67 66 65 64 62 61 60 60 59 58 57 55 54 54 55 56 55 55 56 52 48
73 72 71 71 71 71 71 72 73 73 73 73 73 73 73 72 72 72 72 73 73 74 74 73 72 74 76 76 75 74 75 78 77 75 72 68 65 66 66 66 66 66 67 67 68 69 73 78 81 82 81 81 83 82 82 82 84 86 87 88 86 85 85 85 88 91 92 91 89 88 87 86 85 85 84 84 84 84 84 84 85 85 84 84 84 84 84 85 85 85 85 86 86 86 86 86 86 87 87 88 88 88 88 88 88 88 88 88 88 88 88 88 89 89 89 88 88 88 88 88 88 87 87 87 87 87 87 87 87 87 86 86 86 86 86 85 85 85 85 85 85 85 85 85 85 86 88 89 89 89 90 90 88 86 85 82 83 87 89 89 91 91 92 95 95 93 88 83 80 79 78 78 77 77 76 76 76 76 76 75 75 75 75 75 75 76 80 80 77 77 80 81 81 79 74 71 73 75 77 75 70 69 69 69 69 70 74 78 77 76 76 77 79 81 84 85 85 85 85 85 84 84 84 83 81 78 75 71 68 66 68 72 76 80 83 83 82 80 82 85 91 94 95 94 91 87 83 80 76 69 63 59 54 52 53 48 47 46 45 47 49 52 52 45 39 37 38 44 47 46 46 46 47 47 43 41 44 50 56 62 68 71 69 73 76 78 80 82 82 82 81 81 81 78 74 69 67 67 68 69 66 64 62 59 56 54 53 52 52 52 51 52 56 58 56 49 42 36 36 36 37 39 40 38 37 37 38 38 39 39 40 41 43 44 47 50 53 55 55 56 56 57 58 56 54 56 60 64 68 71 72 71 70 68 66 64 62 62 62 64 67 70 72 74 76 78 80 80 81 81 82 85 87 88 85 82 79 75 73 70 67 64 63 63 64 63 61 60 61 62 61 58 56 56 55 56 57 60 62 64 63 61 58 58 60 65 69 69 67 65 64 64 66 70 74 76 77 80 83 84 82 81 82 81 79 78 79 81 84 86 87 87 87 86 85 86 86 85 84 82 82 82 83 84 84 84 85 85 86 86 87 88 90 92 95 97 100 99 98 98 97 97 97 98 100 102 105 107 109 107 104 102 99 97 97 96 94 93 91 89 88 88 89 91 93 96 99 100 98 97 96 96 97 97 95 92 89 85 83 83 85 87 87 86 83 80 82 86 90 90 88 85 81 77 74 73 73 73 72 73 74 71 66 65 66 68 69 71 74 77 78 80 83 82 78 72 68 66 66 70 74 77 82 86 88 88 83 79 79 83 86 88 90 92 92 91 86 81 78 76 77 82 85 86 86 83 80 76 73 72 74 78 83 86 88 89 89 87 84 80 76 73 72 77 81 84 84 82 81 79 78 77 78 81 83 84 86 88 89 90 91 92 93 96 99 101 102 103 103 102 102 102 101 101 101 101 101 103 104 104 104 103 101 98 95 94 93 91 90 89 88 88 86 83 78 77 79 84 87 89 89 84 79 75 72 70 70 70 71 71 72 73 73 74 75 76 76 75 74 73 72 71 70 70 70 71 71 71 70 70 70 69 68 67 66 66 66 67 67 67 68 71 75 78 80 81 81 81 80 80 83 86 88 91 95 95 94 93 92 91 93 93 92 89 90 94 96 95 91 89 89 92 92 92 89 88 91 93 94 94 93 92 91 91 91 92 92 92 92 92 91 90 92 93 94 95 94 94 92 91 88 86 83 82 83 85 86 87 88 87 85 84 83 83 83 84 85 85 83 81 81 81 80 75 73 72 70 69 69 70 70 70 67 68 73 74 73 71 68 65 61 60 55 51 49 48 46 45 45 48 51 54 55 55 56 54 51 47 44 45 52 57 62 67 71 72 69 63 64 66 70 75 76 77 78 78 79 77 75 74 74 74 74 75 75 76 76 77 78 78 78 78 78 78 77 77 77 76 76 75 74 73 72 71 70 69 68 69 70 70 70 69 68 67 65 64 63 60 56 55 54 53 52 51 50 51 48 46
72 71 71 71 71 71 71 72 72 72 72 72 72 72 72 72 71 71 72 73 72 72 71 70 73 75 76 75 72 73 76 78 75 72 70 65 66 70 72 69 68 68 67 68 70 75 80 82 83 83 83 84 84 84 83 83 84 86 88 89 88 87 86 86 88 91 92 91 91 90 87 86 85 84 84 84 84 84 84 85 85 85 84 84 84 84 84 85 85 85 85 85 86 85 85 85 86 86 87 87 88 88 88 88 88 88 88 88 88 88 88 88 88 88 88 88 88 88 88 88 87 87 87 87 87 87 87 87 87 87 86 86 86 86 86 85 85 85 85 85 85 85 86 86 86 88 91 92 91 89 87 87 87 85 83 82 84 89 91 91 91 92 94 96 95 90 86 82 81 80 79 78 78 77 77 76 76 76 76 75 75 75 75 75 76 78 80 78 78 80 83 85 84 80 75 73 77 79 78 76 72 69 70 72 71 71 74 78 79 78 78 78 79 81 84 87 87 86 84 82 80 79 79 79 78 75 70 68 68 70 69 72 76 80 83 84 84 83 83 85 89 94 95 94 91 87 83 80 78 74 70 64 56 56 62 63 62 62 62 63 62 61 55 46 39 38 41 48 51 54 54 54 56 54 48 43 46 53 61 67 72 72 71 74 78 81 83 83 82 80 78 78 78 75 72 69 68 70 71 71 71 69 66 63 60 57 54 52 50 49 48 49 54 57 55 49 41 36 36 36 37 38 38 37 38 40 40 40 40 42 43 44 46 49 51 52 54 56 56 56 55 55 55 53 54 58 62 66 68 69 69 69 67 65 62 61 60 61 62 66 71 74 76 76 77 79 81 82 83 84 84 85 87 87 85 82 78 75 72 70 67 65 66 69 70 67 65 64 66 67 65 60 56 56 55 55 56 59 62 61 59 57 56 59 65 69 72 73 71 69 67 66 66 69 72 74 75 78 80 81 79 78 78 78 78 78 79 81 83 85 86 86 85 84 83 83 83 83 81 81 82 85 86 85 84 84 84 85 86 89 91 92 93 93 95 98 101 101 99 98 97 97 97 98 100 102 105 107 109 108 106 103 100 98 97 95 94 92 91 90 90 91 92 93 94 97 100 102 101 101 100 98 97 95 93 90 87 84 84 87 89 90 89 87 83 81 83 87 91 91 89 85 81 78 77 76 75 73 73 75 76 73 68 65 65 66 66 67 69 71 74 78 81 82 78 71 66 65 68 72 75 77 82 86 88 88 83 77 77 80 83 86 89 91 91 89 87 82 78 75 76 78 79 80 80 79 78 75 71 72 75 78 82 86 88 89 89 86 83 80 76 73 72 75 80 83 82 79 76 75 75 77 79 82 84 85 87 90 91 93 94 95 95 95 97 100 102 104 105 104 103 102 101 102 102 102 102 103 104 104 104 103 100 97 93 91 90 89 88 87 86 86 85 81 77 78 81 85 89 90 89 84 79 75 72 70 69 70 70 71 71 72 72 72 72 73 73 72 72 71 71 70 69 69 69 69 69 69 69 68 68 67 67 67 66 66 66 66 66 66 66 69 72 75 78 79 78 77 76 79 83 86 89 92 94 93 91 89 88 89 92 92 90 87 88 93 96 95 91 88 87 90 90 89 87 87 90 91 93 93 92 92 91 90 90 91 91 91 91 91 90 89 90 92 94 94 94 93 92 89 87 85 84 84 86 87 87 88 88 87 86 85 85 85 85 85 85 85 85 83 83 82 81 78 76 74 73 72 72 73 73 72 70 70 74 75 74 73 70 67 64 59 52 48 48 48 46 45 44 45 47 49 48 48 47 46 46 45 44 48 55 56 60 66 70 72 71 66 66 67 71 74 76 77 77 78 79 78 76 75 75 75 75 76 76 76 76 77 78 78 78 77 77 77 77 77 77 77 76 76 74 73 72 71 69 69 69 71 73 73 72 73 73 72 71 70 67 61 59 60 60 58 54 52 49 48 48 48
72 71 71 71 71 71 71 72 71 71 71 71 71 71 71 70 70 71 72 72 72 71 69 70 75 76 75 73 72 74 78 77 72 69 65 66 71 77 78 72 71 71 69 68 70 75 79 81 80 81 83 84 85 86 85 85 85 86 88 89 89 88 87 87 88 91 91 91 91 89 87 86 85 84 84 84 84 84 84 85 84 84 84 84 84 85 85 85 85 85 85 85 85 85 85 85 85 86 86 87 87 87 87 87 87 88 88 88 88 88 88 88 88 88 88 88 88 88 88 87 87 87 87 87 87 87 87 87 87 87 86 86 86 86 86 85 85 85 85 85 85 85 88 90 90 90 92 94 93 90 87 86 85 83 83 84 86 88 91 93 94 94 94 94 90 88 85 84 83 83 82 79 79 78 77 77 77 77 76 75 75 75 75 76 77 80 81 78 80 83 87 87 84 80 77 77 79 81 80 77 73 70 73 74 73 72 73 77 80 81 81 81 81 82 85 87 87 87 85 82 81 79 77 75 74 72 69 70 73 74 71 71 75 78 81 83 85 86 87 87 90 93 94 93 89 85 81 77 77 77 73 66 62 62 66 72 73 72 71 68 62 58 53 44 39 39 46 54 56 57 62 64 63 57 49 46 51 55 60 67 73 74 73 74 78 82 84 84 83 80 77 75 74 72 71 71 71 73 75 75 74 71 67 65 62 59 57 56 54 52 48 47 50 56 55 48 40 36 36 36 36 36 36 36 39 44 45 45 45 45 47 49 49 50 51 53 56 57 57 56 55 53 51 51 53 58 61 63 64 65 65 65 63 61 59 58 59 61 65 69 73 76 77 77 78 79 81 82 84 85 86 87 88 87 85 82 78 75 72 69 67 66 70 73 72 68 67 67 69 69 65 59 56 56 56 56 56 59 61 58 56 56 58 63 67 71 74 76 74 70 68 68 68 68 70 71 73 75 76 76 76 75 75 75 75 76 78 79 81 81 81 81 80 80 79 80 80 79 80 82 86 88 88 86 84 84 85 87 89 91 94 95 96 97 99 101 103 103 101 99 99 99 99 99 101 103 105 106 108 108 107 104 101 99 97 95 93 92 91 91 91 93 95 95 95 98 102 104 104 103 101 99 98 96 92 89 86 86 88 91 92 91 89 87 84 83 84 88 91 90 88 85 83 80 79 77 75 72 73 77 79 76 72 69 69 68 66 66 66 69 73 77 80 80 76 70 66 65 70 76 79 81 84 87 89 88 82 77 75 76 79 83 87 89 88 87 86 82 78 74 72 73 73 74 75 76 76 72 70 73 77 81 84 86 88 88 87 85 83 80 77 74 72 73 77 79 78 75 73 73 76 78 79 81 83 84 87 89 92 95 97 98 99 99 99 100 101 104 104 105 104 102 101 101 101 101 102 103 104 104 102 100 99 96 93 90 88 86 85 83 82 83 82 79 78 80 83 86 89 91 90 85 80 76 73 69 69 70 70 70 70 70 70 70 70 71 71 70 69 69 69 68 68 67 67 67 67 67 67 66 66 66 66 66 66 66 65 64 64 64 65 66 68 71 74 75 74 73 74 78 82 86 89 91 91 90 88 86 85 87 90 88 86 86 90 94 96 96 91 87 86 88 90 88 85 85 87 89 91 91 91 91 90 89 89 89 90 90 90 90 88 87 89 91 93 94 93 92 91 89 87 86 85 85 87 88 89 89 89 88 87 86 86 85 85 84 84 84 85 85 84 82 81 79 77 76 75 75 75 75 75 74 74 73 74 75 76 74 71 67 63 56 51 52 54 50 47 46 44 44 44 45 45 45 44 44 44 45 51 59 63 63 60 64 70 72 73 68 67 68 71 74 76 77 77 78 79 78 77 77 76 76 77 77 77 77 77 77 77 77 77 77 77 77 77 77 77 77 76 76 75 73 72 72 71 71 70 71 73 73 74 74 74 73 73 70 65 64 65 66 65 64 60 57 56 54 53 52
71 71 71 71 71 71 71 72 72 70 70 70 69 69 69 69 70 71 72 72 71 70 68 71 75 76 75 71 70 74 76 73 69 65 65 69 75 80 81 75 73 74 72 69 69 71 75 77 77 78 81 83 85 87 86 86 86 87 88 88 87 87 86 87 88 90 90 90 90 89 87 86 85 84 84 83 83 83 84 84 84 83 83 83 84 86 87 85 85 85 85 85 85 85 85 85 85 85 85 86 86 87 87 87 87 88 88 88 88 88 88 88 88 88 88 88 88 88 88 87 87 87 87 87 87 87 87 87 87 87 87 86 86 86 86 86 85 85 85 85 86 86 88 90 91 92 94 94 93 90 87 85 84 83 84 87 88 88 90 93 95 96 94 91 88 86 84 84 84 84 83 81 79 78 77 77 77 78 78 78 77 76 76 76 77 81 81 80 82 86 88 88 83 79 78 80 81 82 81 76 71 71 74 76 75 73 73 76 79 81 82 82 83 83 84 85 86 86 86 84 84 82 80 78 76 74 70 71 75 76 73 72 73 76 79 81 84 87 89 90 91 95 93 89 85 82 78 74 73 75 72 69 68 67 69 72 75 74 73 67 61 55 49 43 38 40 49 57 60 59 65 70 67 57 49 50 55 59 62 66 73 76 76 76 77 81 84 85 84 82 79 76 74 73 73 73 73 75 77 77 75 71 68 65 63 61 60 59 57 55 51 47 48 53 55 48 40 36 36 36 36 36 36 37 42 46 48 48 48 49 50 51 50 50 50 53 55 57 58 58 56 53 50 50 53 56 58 60 62 63 62 62 60 58 57 57 59 64 68 71 74 76 76 76 77 78 79 81 83 85 86 88 88 86 85 82 79 76 73 70 67 68 71 73 70 69 69 70 70 69 65 60 57 56 56 56 56 58 59 57 57 58 62 66 69 73 76 77 74 70 68 68 68 68 69 70 72 72 73 73 73 73 74 74 74 75 76 78 78 78 77 77 77 76 77 78 78 79 81 85 89 91 90 88 86 86 86 88 90 92 94 96 97 98 100 101 102 103 101 100 100 100 101 100 101 103 105 105 106 107 106 103 100 99 97 95 93 92 91 91 92 94 96 97 97 98 102 105 105 103 102 101 99 96 93 89 87 88 91 93 93 91 89 87 84 84 86 89 91 89 86 85 83 81 79 77 75 74 75 80 82 80 76 72 70 69 67 66 65 68 73 77 79 79 76 69 65 64 70 76 79 82 84 87 88 85 80 76 73 75 80 83 85 87 86 84 84 82 79 75 72 69 68 70 72 74 73 70 70 74 78 82 85 87 88 88 86 85 83 81 78 75 72 72 74 76 75 72 72 74 77 79 80 81 83 84 87 89 91 94 97 99 101 102 102 103 103 103 103 104 104 102 100 99 100 100 102 103 104 103 100 99 97 94 92 89 86 84 83 82 82 82 80 78 79 82 84 87 89 91 90 85 81 79 75 70 69 69 70 70 70 70 70 69 69 69 69 69 68 68 67 67 67 67 67 66 66 66 66 66 66 66 66 66 66 66 65 64 63 63 64 66 66 68 70 71 71 71 74 78 82 85 87 88 88 88 86 85 84 87 88 85 84 88 91 94 97 95 90 87 84 87 88 88 84 84 85 87 90 91 91 90 89 88 88 88 89 89 89 89 88 87 88 90 93 93 93 92 91 90 89 88 88 88 88 89 90 89 89 88 88 86 85 84 85 83 81 82 83 83 83 82 80 78 77 76 75 75 76 76 76 77 77 77 77 77 76 75 71 67 60 54 54 57 58 53 48 49 47 44 44 44 44 44 44 44 45 51 57 63 66 67 63 64 69 72 73 70 69 69 72 75 76 77 77 78 79 79 78 78 78 78 78 78 78 78 77 77 77 77 77 77 77 77 77 77 77 77 76 76 75 74 73 73 73 73 72 72 73 73 74 75 74 74 73 69 66 67 69 69 68 66 63 60 61 58 57 55
71 71 71 71 71 71 72 72 72 69 69 69 69 67 68 69 70 72 72 71 69 67 67 71 75 75 75 72 69 70 71 65 64 64 66 72 78 82 83 79 77 77 76 72 71 72 71 73 75 79 82 84 86 86 86 85 86 86 87 87 87 86 85 86 88 89 89 88 88 88 87 86 85 84 84 83 83 83 84 84 83 82 82 83 85 86 86 86 84 84 85 85 85 84 84 84 85 85 85 85 86 86 86 87 87 88 88 88 87 87 87 87 87 87 87 87 87 87 88 87 87 87 87 87 87 87 87 87 87 87 87 87 86 86 86 86 86 86 86 86 87 87 88 90 92 94 94 93 92 89 86 84 84 84 86 90 90 89 90 93 95 96 94 89 86 85 84 83 83 82 81 80 79 78 78 78 78 80 84 84 82 77 76 76 77 81 82 82 84 88 89 87 83 80 81 82 83 82 81 75 72 74 76 78 77 74 74 76 78 80 82 83 84 86 86 85 85 84 83 82 83 83 82 82 81 77 72 71 75 77 77 76 75 75 78 81 85 89 92 93 95 96 94 88 82 78 75 73 72 70 69 66 63 64 64 65 67 66 66 63 58 52 46 41 39 42 51 59 64 64 68 72 67 58 52 54 56 60 66 70 73 76 77 78 78 79 82 86 86 85 82 80 79 77 75 75 75 77 79 78 74 69 67 64 62 61 60 59 57 54 51 46 47 53 53 47 39 36 36 36 36 36 37 40 45 48 50 50 50 51 51 51 50 48 48 51 54 56 58 59 58 54 50 49 51 54 57 60 60 60 59 58 56 56 57 59 62 65 68 70 72 74 74 74 74 75 77 79 81 84 86 87 87 85 83 82 79 76 72 69 68 70 72 72 71 70 70 70 70 67 63 59 56 56 56 56 56 57 57 56 57 60 64 68 72 76 78 79 76 72 69 68 68 69 69 69 70 70 70 71 71 72 72 73 73 73 74 75 75 75 76 76 76 76 77 78 79 81 83 87 91 93 92 90 88 88 88 89 90 92 94 96 97 98 99 100 102 103 102 102 102 102 101 101 101 103 103 104 105 106 106 104 101 99 97 96 94 93 93 93 93 95 97 99 99 99 101 104 105 104 102 100 98 96 92 89 88 89 91 94 93 91 89 86 84 85 88 91 92 89 85 83 81 79 77 76 76 77 79 82 84 83 80 75 71 69 68 66 65 66 71 75 78 78 75 69 64 64 69 75 78 80 82 85 86 84 80 77 74 75 80 83 84 85 84 82 83 83 81 76 73 69 67 66 68 68 67 67 71 76 80 84 86 87 88 88 87 86 85 83 80 76 73 71 71 71 71 71 72 75 78 82 84 83 83 84 86 88 90 92 96 99 101 102 103 104 104 103 102 103 103 102 99 98 99 99 100 103 105 103 100 98 95 93 91 89 88 88 88 88 86 83 81 80 81 84 85 87 89 90 90 87 85 82 76 71 69 69 70 70 69 69 69 69 69 69 68 68 68 67 67 66 66 66 66 66 66 66 66 66 66 66 66 66 69 70 70 67 63 63 64 65 65 66 68 69 69 70 74 77 81 83 83 85 86 86 84 83 83 86 85 83 84 89 92 94 96 95 90 87 84 84 87 87 83 82 85 88 90 91 91 91 89 88 88 87 88 88 87 86 86 85 87 89 91 92 91 90 91 91 91 90 89 89 89 90 90 89 88 88 87 85 84 84 85 83 79 78 79 80 82 82 80 77 75 74 74 75 76 77 78 78 79 78 77 76 76 74 70 66 58 55 59 62 60 52 52 55 54 50 48 47 46 44 44 47 51 55 59 64 69 71 71 70 71 72 73 73 71 71 72 75 76 76 77 78 78 78 78 78 78 78 78 78 78 77 77 77 77 77 77 77 76 76 76 76 76 76 76 76 75 75 74 74 74 73 73 73 73 73 74 75 74 74 73 71 71 72 72 72 71 69 67 64 63 59 57 55
71 71 71 71 71 71 71 71 71 69 69 68 68 66 67 70 72 73 72 69 67 66 69 73 74 73 73 73 69 65 64 64 64 65 69 74 79 82 84 83 80 81 79 75 74 75 72 71 72 77 80 82 83 84 84 84 84 85 85 86 86 84 84 84 86 86 87 87 88 87 86 86 85 84 84 83 83 82 82 82 82 81 81 82 84 84 84 84 84 84 85 85 84 84 84 84 84 85 85 85 85 86 86 87 87 88 88 88 87 87 87 87 87 87 87 87 87 87 88 87 87 87 87 87 87 87 87 87 87 87 87 87 87 86 86 86 86 87 87 87 88 88 89 90 92 93 93 92 89 87 85 84 85 87 89 92 93 91 91 94 96 97 94 90 86 85 83 82 81 80 80 79 79 79 79 79 80 82 86 87 83 78 77 77 77 80 82 83 86 90 91 88 84 82 83 84 83 81 80 75 72 76 78 80 79 76 75 77 78 79 81 83 86 87 88 87 85 84 81 80 79 78 78 78 78 76 72 71 74 77 79 80 79 78 79 82 86 90 93 96 96 96 96 92 86 81 78 77 77 75 71 65 61 59 58 58 58 57 56 53 48 44 41 39 40 45 54 62 67 69 70 73 67 59 58 62 61 61 65 72 75 77 79 81 82 82 83 86 87 87 85 83 82 80 79 79 78 78 78 76 73 70 67 65 63 62 60 58 56 53 49 45 46 52 54 48 40 36 36 36 36 36 37 40 44 47 50 50 50 50 50 50 48 44 45 50 54 54 52 54 55 52 47 46 50 54 59 59 57 55 55 54 54 56 58 59 60 61 63 66 69 69 69 70 72 74 76 79 81 84 85 85 85 84 82 80 78 75 72 70 70 71 72 72 71 70 69 68 66 63 60 58 57 57 56 56 57 57 56 56 58 62 67 71 74 77 79 79 78 74 71 69 69 69 69 69 69 69 70 70 70 71 72 72 72 73 73 74 75 75 76 77 78 80 81 81 82 84 87 91 93 94 94 92 90 90 91 92 93 93 95 97 98 100 101 102 102 103 103 103 103 103 103 102 101 101 101 102 104 105 105 104 101 99 97 96 94 94 94 94 95 97 99 101 102 102 103 106 106 104 100 97 95 93 91 90 90 92 93 94 93 91 88 85 85 87 90 93 92 88 85 82 79 76 76 76 79 82 83 84 86 85 82 77 72 70 69 67 65 64 66 70 73 75 74 69 64 62 66 70 73 75 77 80 83 83 81 77 73 75 79 82 83 83 81 79 81 81 81 79 75 72 68 64 62 62 64 67 73 78 82 85 86 87 89 90 90 88 86 84 81 78 74 70 68 68 70 72 75 78 79 82 86 86 84 84 85 87 88 91 94 98 100 102 103 103 103 102 101 100 101 101 98 97 97 98 100 103 105 104 101 97 95 93 91 91 93 93 93 92 89 84 81 81 83 86 87 88 89 90 90 89 85 82 77 72 70 70 70 70 69 69 69 69 69 69 68 68 68 67 67 66 66 66 66 66 66 66 66 66 67 67 67 69 74 77 77 73 66 63 63 64 64 66 66 67 68 69 73 76 78 78 80 82 84 84 82 80 82 83 82 81 84 88 91 93 94 94 90 88 84 83 85 85 82 81 85 88 90 91 91 91 89 88 88 86 86 86 86 84 83 84 86 88 90 90 90 89 91 91 91 91 91 91 91 91 90 89 87 86 85 84 82 82 85 84 78 76 77 78 79 80 80 78 75 73 72 73 75 77 78 79 80 79 76 75 74 73 69 63 57 58 64 66 60 53 56 62 61 58 55 51 46 44 47 51 54 58 62 67 71 73 74 75 75 73 74 75 75 73 73 74 75 76 77 77 78 78 78 78 78 78 78 78 78 77 77 77 77 77 77 77 76 76 76 76 76 76 76 76 76 76 75 75 74 74 73 73 73 73 74 74 74 73 73 73 74 74 72 70 68 68 66 63 62 60 58 56
70 70 70 70 71 71 71 71 70 69 68 68 67 66 68 71 72 73 71 69 65 67 72 75 73 69 70 70 66 63 63 64 65 68 73 74 75 78 81 83 83 83 82 78 75 77 77 75 73 73 76 77 79 81 83 83 83 84 84 83 83 83 84 84 84 85 87 88 88 88 86 85 85 84 84 83 83 82 82 82 81 81 80 80 81 82 83 83 84 84 84 84 84 84 84 84 84 84 84 85 85 85 86 86 87 87 88 87 87 87 87 87 87 87 87 87 87 87 88 88 88 88 88 88 88 87 87 87 87 87 87 87 87 87 87 87 87 87 87 88 88 89 89 90 91 93 93 92 89 86 85 86 88 90 91 92 94 93 93 95 98 97 94 90 87 86 85 82 81 80 80 80 80 80 80 80 81 84 86 86 83 79 78 77 78 80 83 85 88 91 91 88 84 82 84 84 81 78 78 74 73 77 80 81 78 76 76 78 80 81 81 82 84 86 88 88 86 85 82 80 79 78 77 75 74 73 71 71 74 78 81 83 83 80 80 81 85 90 93 94 94 91 90 90 88 83 81 82 82 79 75 72 70 66 62 57 53 50 49 46 43 42 43 45 46 49 55 63 69 74 74 74 68 60 62 68 69 67 66 70 75 78 80 83 86 86 86 87 87 86 84 82 81 81 81 80 79 78 78 75 71 67 65 64 62 59 57 55 53 51 48 44 45 52 54 50 42 36 36 36 36 36 36 38 41 44 47 47 48 48 48 48 45 42 44 49 52 50 46 46 47 47 46 46 51 55 56 55 53 52 53 54 58 61 63 64 63 62 63 65 66 68 69 71 73 75 78 80 82 84 85 84 83 82 81 79 77 75 73 72 72 73 72 71 69 68 66 64 62 61 60 61 61 59 57 56 57 57 56 56 59 63 67 70 72 74 77 79 79 76 72 70 69 69 69 69 69 70 70 71 72 73 73 72 73 74 75 76 76 77 78 80 83 84 84 84 84 85 87 90 92 94 95 94 92 92 94 95 96 96 97 98 100 103 104 103 103 103 104 104 105 105 104 102 101 100 99 100 102 104 104 102 101 99 97 95 94 94 94 95 97 99 101 103 104 106 107 108 106 102 98 96 94 92 91 91 93 95 96 95 94 92 89 86 86 88 91 93 91 87 84 81 79 77 77 78 82 85 86 86 86 85 83 79 76 75 73 68 65 64 63 65 67 70 71 68 64 62 63 66 67 69 71 73 75 77 77 75 71 73 77 80 82 81 78 76 77 80 81 80 78 74 71 66 61 60 63 68 74 77 80 83 86 87 89 90 91 90 87 84 81 78 74 70 68 67 70 74 78 80 81 82 85 86 86 86 87 88 89 92 94 97 100 101 101 101 101 101 99 98 99 98 96 96 96 97 99 102 106 104 100 98 96 94 94 94 96 96 94 91 87 83 82 82 84 86 88 89 90 91 89 86 83 80 77 75 74 73 71 70 69 69 71 72 73 72 70 70 69 69 68 68 68 68 68 68 68 67 67 67 67 68 69 73 78 83 83 77 70 65 63 63 64 65 65 66 67 68 71 73 74 75 78 81 84 84 80 79 79 79 79 81 84 88 90 90 91 91 89 87 83 81 81 81 80 81 85 87 88 90 90 90 90 90 88 86 85 85 85 82 82 84 85 87 89 90 88 88 90 90 90 91 91 91 91 91 91 89 87 86 84 83 81 82 84 83 76 73 72 75 76 78 78 78 76 74 71 70 71 74 78 79 79 79 76 75 73 70 65 61 59 63 67 68 61 56 60 65 66 64 61 54 46 44 48 53 59 63 66 70 74 75 76 76 75 75 75 75 76 75 75 75 75 76 77 77 77 77 77 77 77 77 77 77 77 77 77 77 77 77 77 77 76 76 76 76 76 76 76 76 76 76 76 75 74 73 73 73 73 73 74 73 73 72 72 73 73 73 72 69 67 65 64 61 60 60 58 56
70 70 70 70 70 70 70 70 70 69 68 66 64 66 69 70 70 71 71 68 65 69 72 72 70 67 66 64 63 63 63 65 67 70 76 77 75 76 81 83 84 85 83 80 76 77 79 80 78 76 74 74 75 79 81 81 82 82 82 82 82 83 84 84 85 86 87 89 90 90 87 85 84 84 83 83 83 82 82 81 81 80 79 79 80 82 83 83 83 84 84 83 83 83 83 83 84 84 84 84 85 85 85 85 86 87 88 87 87 86 86 86 86 87 87 87 88 88 88 88 88 88 88 88 88 88 87 87 87 87 87 87 87 87 87 87 87 88 88 88 89 89 90 91 91 92 92 92 89 86 86 88 90 92 94 94 94 96 96 97 99 97 94 90 90 89 86 83 81 81 81 81 81 81 81 82 83 85 85 84 82 80 79 78 78 80 83 87 89 92 92 90 86 84 84 84 80 77 75 74 74 78 81 81 78 77 77 78 80 82 84 84 84 85 87 88 87 85 83 82 82 81 79 78 77 74 72 72 75 77 80 83 84 83 82 81 84 88 91 93 92 87 85 86 87 86 85 86 84 81 78 78 77 73 69 63 55 49 46 43 43 46 51 54 56 56 57 60 67 74 77 76 69 62 64 71 75 75 72 70 72 75 80 83 88 89 89 88 87 85 82 79 78 79 79 79 79 77 75 72 69 65 62 60 59 57 55 53 50 49 45 42 44 50 54 52 45 37 36 36 36 36 36 36 38 41 42 42 42 42 42 43 42 41 44 49 49 45 40 40 40 40 41 44 48 50 50 50 50 51 54 58 61 64 66 68 68 65 65 67 69 70 71 73 75 77 80 82 83 84 84 83 81 81 80 79 77 75 75 75 74 73 72 70 68 68 68 67 65 64 66 70 69 65 61 59 57 56 56 57 58 61 65 67 69 72 76 78 79 77 73 71 71 71 71 71 71 72 73 74 76 77 76 75 75 76 78 79 79 79 80 82 85 87 87 86 86 87 88 90 92 93 96 97 95 95 97 99 100 100 101 102 102 104 105 105 105 105 105 106 106 106 105 103 101 100 99 99 101 102 103 103 103 101 99 97 96 96 96 96 98 100 101 103 106 109 109 108 105 101 98 96 94 93 93 94 95 97 98 96 94 92 89 88 87 89 92 93 90 87 84 82 79 79 80 81 83 86 88 87 85 83 82 80 77 76 74 69 66 65 63 62 64 66 68 67 65 63 63 62 62 61 62 67 70 73 73 72 70 72 76 78 80 79 76 73 74 78 79 79 77 75 73 69 63 60 62 67 71 74 77 81 84 87 88 90 90 90 87 85 82 78 74 70 67 67 71 76 79 81 83 84 85 85 86 87 89 92 94 95 97 99 100 100 100 99 98 98 97 97 97 96 94 94 96 98 99 101 104 104 101 99 97 96 95 94 94 94 92 88 84 83 83 84 85 87 89 91 92 92 88 85 84 82 80 80 81 79 76 73 71 71 75 77 78 76 75 74 72 71 70 70 71 71 71 71 70 69 69 69 69 69 70 74 80 85 84 79 72 66 63 63 63 63 64 65 65 66 69 70 72 74 77 81 82 81 78 77 76 76 79 82 84 88 88 88 89 89 87 85 82 79 78 78 78 81 84 85 87 89 89 89 89 89 89 87 85 84 82 81 82 84 85 86 88 89 87 87 87 88 90 91 91 90 90 91 91 90 88 86 85 81 79 80 83 83 76 73 72 74 77 78 78 77 76 76 72 69 69 72 76 78 79 79 77 75 73 70 64 60 61 68 70 69 63 59 62 66 67 67 64 56 47 45 48 54 61 65 68 72 74 76 76 76 76 76 76 76 77 77 76 76 76 76 76 76 76 76 76 76 76 76 76 76 76 76 76 76 76 76 77 76 76 76 76 76 76 76 76 76 76 76 75 74 73 73 73 73 73 74 74 73 72 70 69 72 73 72 71 68 65 61 60 60 59 59 59 58
70 70 70 70 70 70 70 70 69 69 68 66 64 65 67 68 69 70 70 66 64 67 68 67 66 64 62 63 63 63 63 65 68 71 76 80 79 77 78 82 84 84 83 80 76 76 79 81 81 79 76 74 75 76 79 80 82 82 82 82 82 83 84 84 85 86 88 89 90 90 87 84 84 83 83 83 82 82 81 81 80 80 79 79 80 82 82 82 83 83 83 83 82 82 82 83 83 84 84 84 84 85 85 85 85 87 87 87 86 86 85 85 86 87 87 88 88 88 88 88 88 88 88 88 88 88 87 87 87 87 87 87 87 87 87 87 87 88 88 89 89 90 90 91 90 90 91 91 89 86 86 89 91 93 94 95 95 97 97 97 97 95 93 91 90 89 86 83 81 81 82 81 81 81 81 82 83 85 85 84 83 82 80 78 79 81 83 87 89 92 93 91 88 85 85 84 81 78 76 75 75 79 81 81 79 78 78 78 79 81 84 85 85 86 87 88 87 85 84 84 84 83 82 80 78 74 72 72 74 77 80 82 84 85 85 85 85 87 90 93 92 87 82 82 85 87 87 87 86 83 82 81 78 74 70 63 55 48 45 46 49 50 53 57 62 64 64 65 68 73 78 77 70 63 67 74 77 79 77 76 75 76 80 84 89 90 89 87 84 81 78 76 75 76 77 77 77 74 71 69 66 63 61 60 61 60 59 56 54 52 48 43 42 46 50 50 45 38 36 36 36 36 36 36 36 38 39 39 38 37 38 39 39 39 43 48 47 40 38 38 38 39 39 41 43 45 47 50 52 53 57 61 63 66 69 71 71 69 67 70 72 73 74 75 76 78 79 81 81 82 83 81 79 79 79 78 77 75 75 75 74 73 72 70 69 69 70 70 69 68 70 74 75 72 67 62 59 56 56 56 57 59 62 65 69 73 77 79 80 78 75 73 72 73 74 73 73 74 77 78 80 80 79 77 76 77 80 82 82 81 81 83 86 88 87 87 88 89 90 90 92 94 97 99 98 99 101 102 103 103 104 104 104 105 106 105 105 105 106 106 106 106 105 103 101 100 99 98 99 101 103 104 104 103 100 97 97 98 97 97 98 99 101 104 106 107 109 108 106 102 99 97 94 93 94 96 98 99 100 98 95 92 90 88 88 90 93 93 90 86 83 81 81 82 82 83 85 87 87 86 82 80 79 77 76 75 73 69 67 65 63 62 61 63 65 66 65 63 63 62 61 60 60 62 66 69 71 70 68 71 74 75 75 75 72 70 74 77 77 77 75 73 72 67 61 59 63 67 70 73 75 79 83 86 88 89 89 87 86 84 81 78 74 70 67 66 70 74 76 79 83 86 87 88 88 88 90 93 96 97 99 100 100 99 98 96 95 95 95 96 97 95 93 92 95 98 99 100 102 103 103 101 99 98 95 93 92 91 90 87 85 85 85 85 87 88 90 92 93 93 90 88 88 85 82 83 84 81 77 73 73 75 78 80 81 80 79 77 75 73 72 72 74 75 76 75 73 70 69 69 69 70 72 75 80 85 84 78 72 66 63 63 63 63 63 64 64 65 67 69 72 74 77 80 81 79 75 74 75 76 80 84 86 87 87 86 86 88 87 86 83 79 77 76 78 81 82 83 84 86 87 89 89 88 88 88 85 82 81 80 82 84 85 86 87 87 86 85 85 86 90 91 91 88 88 90 90 90 88 86 83 81 78 78 81 82 78 74 72 74 77 77 75 75 76 76 71 69 68 71 74 77 78 79 78 75 73 71 65 65 67 70 71 71 66 64 66 68 69 67 64 57 48 44 47 54 61 65 68 71 74 75 76 76 75 76 76 77 77 77 76 76 76 75 75 75 75 75 75 76 76 76 76 76 76 76 76 76 76 76 76 76 76 76 76 75 75 75 75 75 75 75 74 73 72 72 72 72 73 73 74 73 72 69 68 70 71 69 69 67 64 59 59 60 58 57 58 59
70 70 69 69 70 70 70 69 69 67 67 66 63 63 65 65 66 66 66 64 62 63 62 62 62 62 62 64 65 68 67 65 67 72 76 79 81 80 81 83 83 83 82 79 78 79 79 80 83 83 80 79 78 78 77 78 80 81 82 82 83 84 84 84 85 87 88 90 90 89 86 84 83 83 83 82 82 81 81 80 80 79 79 79 80 81 81 81 82 83 82 82 82 82 82 82 83 83 84 84 84 84 84 85 85 86 86 86 86 85 85 85 86 87 88 88 88 88 88 88 88 88 88 88 88 88 88 87 87 87 87 87 87 87 88 88 88 88 89 89 90 90 91 91 90 90 89 89 88 87 87 89 92 94 95 97 97 98 98 97 95 93 91 89 87 85 83 82 81 81 83 83 82 82 82 83 84 85 85 84 84 84 80 78 79 82 84 87 89 93 94 92 89 86 85 84 83 81 78 75 76 79 82 83 81 81 82 82 81 81 81 85 87 88 88 88 88 87 86 86 85 84 83 81 77 74 72 75 75 76 79 82 83 86 89 89 89 89 90 92 93 89 83 79 81 85 85 83 83 84 84 81 75 70 64 57 50 47 49 54 58 58 55 56 62 69 73 73 75 78 80 80 72 66 71 77 80 82 83 81 81 80 80 85 90 91 88 84 80 77 74 72 71 73 75 75 75 73 71 68 66 64 64 65 64 62 61 59 57 54 50 44 41 41 43 44 42 38 36 36 36 36 36 36 36 36 36 36 36 36 36 36 36 37 41 44 42 38 38 41 44 46 46 45 47 51 55 57 57 57 57 60 64 67 69 71 73 72 71 73 75 76 76 77 78 77 76 77 77 79 80 80 77 76 77 78 78 78 77 76 75 73 72 71 71 71 72 74 73 73 74 76 77 76 71 65 60 57 56 56 56 57 60 64 68 72 76 79 80 79 76 75 75 76 76 75 74 76 80 83 85 85 82 79 78 78 79 82 84 85 85 86 87 88 89 90 91 92 93 93 94 96 99 101 102 103 105 106 107 108 107 106 105 105 105 106 106 106 106 106 106 105 103 102 100 99 98 97 98 100 103 105 106 104 101 101 101 100 99 99 99 100 102 104 105 106 107 108 106 103 100 97 95 95 95 97 100 101 101 99 96 93 91 90 90 92 94 92 90 86 83 83 85 86 86 87 88 89 87 85 81 78 75 74 74 73 72 69 66 66 65 63 61 61 63 64 64 63 63 62 61 61 60 60 61 65 68 67 65 66 69 70 70 69 67 68 71 74 75 74 71 67 66 63 58 58 64 70 73 75 76 79 83 85 87 87 87 83 80 81 81 79 74 70 67 66 68 72 75 79 83 86 88 90 91 90 91 94 96 97 99 100 100 98 95 92 91 92 93 95 97 95 92 91 93 96 98 99 101 102 103 103 101 99 97 95 92 89 88 87 88 89 87 86 87 89 91 94 95 95 93 91 89 87 85 84 83 78 74 74 77 79 80 82 84 84 83 81 79 77 76 76 78 82 83 81 76 72 70 70 71 72 74 77 80 84 84 78 72 68 67 65 64 63 63 63 63 64 65 68 71 73 76 77 78 76 73 73 76 80 83 85 85 85 83 82 82 85 87 86 84 81 77 75 76 78 79 81 83 85 86 86 86 86 87 87 84 82 80 80 82 84 85 85 84 84 83 82 84 86 88 91 91 88 87 87 89 89 87 86 85 83 79 76 77 79 79 76 71 72 73 73 72 75 76 74 68 67 68 72 75 77 78 79 79 77 74 70 69 70 71 73 74 73 68 68 69 70 70 67 62 54 48 44 45 52 60 63 65 68 72 75 75 75 75 75 76 77 78 78 77 76 75 75 75 74 74 74 74 75 75 75 75 75 76 76 76 76 76 76 76 76 76 76 76 75 74 74 74 73 72 73 73 73 71 69 69 71 72 73 74 73 72 72 68 66 65 64 65 65 63 59 56 59 57 54 55 56
69 69 69 69 69 69 69 69 68 67 66 65 63 62 63 62 63 62 61 61 61 61 62 62 62 63 66 70 72 73 71 65 66 70 73 74 75 78 82 82 83 83 81 80 79 80 81 80 83 84 82 81 81 81 80 78 78 81 82 84 84 84 85 86 87 87 88 89 88 86 85 83 82 82 82 82 82 81 80 80 79 79 79 79 79 80 80 81 82 82 82 82 82 82 82 82 83 83 83 84 84 84 84 84 85 85 86 86 85 85 85 85 86 87 88 88 88 88 88 88 88 88 88 88 88 88 88 88 87 87 87 87 87 87 88 88 88 88 89 89 90 91 91 91 90 90 89 88 87 87 89 89 91 93 95 97 99 99 98 96 94 91 89 86 84 83 82 82 83 83 84 84 83 83 83 84 84 85 85 84 84 83 80 78 79 82 85 86 88 92 93 93 89 86 85 85 84 82 79 76 76 79 81 83 83 83 84 85 84 82 82 84 87 88 87 87 87 87 86 85 84 83 81 79 76 73 74 78 77 75 77 80 83 87 90 90 90 89 89 89 89 87 84 78 77 80 81 79 79 80 82 80 76 71 61 52 48 52 58 60 66 67 62 57 59 66 73 76 79 83 85 82 74 68 71 78 82 86 87 86 85 83 82 87 91 91 88 85 82 81 77 72 69 70 72 75 75 74 72 70 69 68 67 66 65 64 62 60 57 54 49 46 44 41 39 38 37 36 36 37 39 39 36 36 36 36 36 36 36 36 36 36 36 36 38 40 38 36 38 44 50 53 54 52 50 53 58 61 61 60 58 58 60 61 64 67 70 71 72 74 74 74 75 76 76 74 72 72 74 77 79 79 76 74 76 78 80 79 79 78 76 74 72 71 70 71 73 74 74 74 73 73 75 76 73 66 60 57 55 55 55 56 59 63 67 72 76 79 81 81 78 77 77 78 78 76 75 76 80 85 88 87 84 82 81 80 80 83 86 88 89 90 90 90 90 92 94 95 96 98 99 99 100 104 106 108 110 110 110 109 108 106 104 104 105 105 105 105 104 105 106 105 103 101 98 97 97 96 97 99 102 104 105 104 103 103 104 104 102 101 101 102 103 104 105 106 107 107 105 103 101 99 96 96 97 98 101 103 102 100 97 94 92 91 92 94 96 93 90 86 84 85 88 90 90 90 91 90 88 85 82 79 78 76 74 72 71 69 67 69 69 66 63 62 62 63 63 63 63 62 62 61 60 60 60 61 64 65 64 63 64 64 64 63 65 66 68 71 71 69 64 60 58 57 56 59 65 70 73 76 79 81 82 83 85 85 84 79 75 78 81 79 74 70 67 66 68 72 76 80 84 86 88 90 91 92 92 93 94 96 99 101 100 97 94 90 89 90 93 96 97 95 91 91 92 95 98 99 101 102 104 105 103 101 99 97 94 90 88 89 91 90 88 88 89 91 93 95 96 96 95 92 89 87 85 83 79 75 74 79 83 84 84 84 86 87 86 86 83 80 79 80 84 87 86 82 78 74 72 73 74 74 75 77 81 83 81 77 73 73 72 69 65 63 63 63 63 63 64 67 70 72 74 76 76 73 72 74 78 82 84 85 84 82 78 77 79 82 85 86 85 81 77 74 74 77 79 81 83 85 85 85 85 84 86 87 84 81 80 79 81 83 84 84 83 83 82 81 84 86 89 91 91 87 85 87 88 88 88 87 86 84 80 76 75 74 76 75 71 69 70 70 71 75 75 73 67 66 69 73 77 78 79 79 80 78 74 71 73 74 75 75 75 73 71 71 72 72 69 65 60 53 48 44 44 49 55 58 60 67 71 73 73 73 74 75 75 77 78 78 77 76 75 74 74 74 73 73 73 74 74 75 75 75 75 75 75 75 75 76 76 76 75 75 75 75 74 73 73 72 71 72 72 72 70 67 67 70 72 73 73 74 73 72 72 68 64 62 60 61 61 58 54 56 56 53 53 53
68 68 68 68 68 67 67 67 66 65 64 63 61 59 59 59 59 60 60 61 64 63 64 64 64 67 72 75 76 77 75 69 66 69 72 73 75 77 80 80 82 82 82 82 82 82 82 82 83 84 84 83 83 82 81 79 78 82 84 85 85 85 86 87 87 87 88 87 86 84 83 82 81 80 81 82 82 81 80 79 79 79 79 79 79 79 80 81 82 82 82 81 81 82 82 82 83 83 83 84 84 84 84 84 85 85 85 85 85 85 85 85 86 87 88 88 89 89 89 89 89 89 89 88 88 88 88 88 88 87 87 87 87 88 88 88 89 89 90 90 90 91 91 91 91 91 91 92 91 90 91 91 93 93 94 97 99 99 97 93 91 90 87 84 84 84 86 85 84 84 85 85 85 84 84 85 85 84 84 82 82 81 79 79 81 82 84 85 88 90 93 93 90 87 85 83 82 80 77 77 78 78 79 81 81 83 85 87 87 85 85 86 88 88 87 85 84 84 82 82 81 80 78 76 74 74 78 82 80 77 77 79 82 85 88 89 89 88 85 83 82 81 79 75 73 76 76 75 74 77 77 76 75 69 59 52 52 59 64 65 70 73 69 62 58 62 69 76 80 85 87 84 76 69 70 75 81 87 90 90 90 86 85 88 92 92 91 89 88 85 80 74 70 67 68 72 75 75 74 72 71 69 68 67 66 63 60 58 56 55 55 54 51 46 41 39 38 36 37 42 47 48 42 38 36 36 36 36 36 36 36 36 36 36 36 36 36 36 40 47 53 57 59 58 54 53 57 61 63 64 63 61 60 60 61 64 67 70 72 74 74 72 70 71 71 70 69 70 74 77 78 77 74 72 74 77 80 81 80 77 75 74 72 71 70 69 69 71 72 71 72 73 74 74 72 66 60 57 55 54 54 55 58 63 67 72 76 80 83 82 80 78 78 79 79 77 76 78 81 86 90 89 86 85 84 84 83 84 86 89 92 93 93 93 93 95 98 100 101 102 103 104 104 107 109 110 110 109 107 105 104 103 103 102 102 101 100 101 101 101 103 104 103 101 98 95 94 93 95 98 100 102 105 105 106 107 108 107 105 103 103 104 105 106 106 107 107 105 104 104 103 101 99 99 100 101 102 102 101 99 96 94 92 92 94 96 97 95 91 88 87 88 91 92 93 94 93 91 89 86 85 84 82 79 75 72 70 70 71 74 76 73 69 66 64 63 63 63 63 63 62 61 60 60 60 59 61 63 61 60 59 60 60 60 62 65 66 66 66 63 58 55 54 54 56 61 65 69 73 76 79 81 80 79 81 82 81 77 73 74 77 77 72 68 64 65 68 72 76 79 83 86 88 89 91 91 91 91 92 94 97 98 97 94 91 88 87 90 93 95 96 95 92 91 92 95 98 99 101 102 105 105 104 103 100 97 92 90 90 93 94 91 90 90 91 93 95 96 96 96 95 93 90 87 83 79 76 75 78 84 88 89 88 88 88 90 90 88 84 82 82 84 87 88 86 83 79 75 73 75 76 76 76 78 82 83 80 77 77 75 71 69 67 65 64 63 63 63 63 65 68 70 73 75 73 70 70 74 78 82 83 82 80 77 75 74 76 78 82 83 83 81 77 74 73 77 80 82 83 84 84 84 83 83 83 85 85 85 83 79 79 80 82 82 80 79 78 79 83 85 89 89 88 85 84 86 87 88 88 86 84 83 80 77 74 72 71 71 69 67 66 66 70 74 74 72 67 66 69 72 75 78 79 79 80 79 75 73 76 77 77 78 77 75 75 74 73 72 68 62 57 51 47 44 43 48 54 58 62 68 71 72 71 70 72 73 75 76 78 78 78 76 75 74 73 73 72 72 73 73 74 74 75 75 75 75 75 75 75 75 75 75 75 74 74 74 73 72 73 72 70 69 68 68 67 65 66 69 72 72 73 74 72 71 71 72 70 65 60 57 56 55 52 50 50 48 48 48
67 66 67 66 66 65 65 65 64 63 62 61 60 59 59 59 60 61 62 64 68 67 66 68 66 68 72 75 77 78 78 72 67 68 74 79 79 77 77 79 82 82 82 83 83 83 84 84 84 84 85 84 84 83 82 80 79 82 83 84 85 85 85 86 86 87 87 87 85 83 82 81 79 78 80 81 81 81 81 79 79 79 79 79 79 79 80 81 82 82 82 81 81 82 83 83 83 83 83 83 84 84 84 84 85 85 85 85 85 85 85 85 86 87 88 88 89 90 90 91 90 90 89 89 88 88 88 88 88 88 88 88 88 88 88 88 89 89 90 91 91 91 91 92 92 92 93 93 92 91 92 94 95 95 95 96 96 96 94 91 89 87 86 85 85 87 87 86 85 85 86 88 87 86 86 86 85 84 83 81 81 80 79 79 82 84 86 86 89 92 93 93 91 88 86 85 84 81 78 78 80 82 82 81 81 83 85 87 89 90 89 89 88 88 86 83 82 81 80 79 78 78 77 75 75 76 81 84 82 79 79 80 80 84 87 88 87 85 83 81 80 79 77 75 71 69 69 69 69 71 71 71 69 62 54 51 56 64 68 69 74 77 75 69 63 62 67 75 80 84 87 84 77 72 72 74 77 82 85 89 92 90 89 90 92 94 95 94 91 86 81 75 70 67 66 67 70 71 71 70 69 67 67 67 65 62 60 60 60 59 58 58 55 50 48 47 42 37 38 45 52 54 48 44 41 37 36 36 36 36 36 36 36 36 36 36 36 36 40 47 54 59 61 62 60 58 58 61 64 66 66 64 63 63 63 66 69 73 75 75 71 68 66 66 66 65 66 68 73 77 78 75 71 70 72 75 79 80 78 75 72 73 74 73 71 69 68 67 67 67 68 69 69 69 68 64 60 57 55 54 54 56 59 62 67 72 77 82 84 83 81 80 81 81 80 78 78 80 82 86 90 91 88 87 87 87 86 86 88 91 93 96 96 95 95 98 101 103 105 106 107 108 108 110 110 110 108 106 102 99 98 98 99 99 98 97 96 96 97 99 102 103 103 101 99 95 93 93 93 95 97 99 102 105 106 108 109 109 106 105 106 107 107 108 107 107 105 103 102 103 103 102 100 100 102 103 103 101 99 97 95 93 93 93 94 97 97 94 91 88 87 89 92 93 94 94 92 90 87 86 85 84 81 77 74 72 72 73 76 79 80 78 75 72 69 64 63 63 64 63 62 60 60 59 59 59 58 58 58 58 57 56 56 58 62 65 65 62 61 58 55 53 53 54 57 62 65 68 72 75 77 78 77 76 78 78 77 75 72 72 74 75 72 66 63 64 68 72 76 80 83 85 87 88 89 89 89 89 90 92 94 94 93 92 89 86 87 90 91 92 94 94 91 90 92 95 98 99 100 102 105 105 104 102 99 95 91 91 93 94 94 92 92 92 93 95 97 97 95 93 92 92 89 85 81 77 76 76 79 86 90 92 91 90 91 93 93 90 85 84 84 87 88 89 88 85 81 76 73 76 78 79 78 79 82 83 81 80 77 73 70 70 71 68 65 64 63 62 62 64 66 68 71 73 72 68 69 73 77 80 80 78 76 75 73 72 73 75 78 80 81 79 75 73 72 75 79 81 82 83 83 82 82 81 81 83 84 85 83 78 77 77 79 80 77 75 77 81 83 86 88 87 84 82 81 85 87 88 88 85 83 81 79 77 74 72 71 70 70 69 67 66 68 72 73 71 65 64 66 71 75 78 78 79 79 80 78 76 77 78 79 79 79 78 77 75 73 70 66 60 55 50 46 43 43 52 61 63 67 69 71 71 69 68 71 72 74 76 77 78 78 76 75 74 73 72 72 72 73 73 74 74 74 74 75 75 75 75 75 75 75 75 75 74 74 73 72 72 72 72 71 69 67 65 64 63 65 68 71 72 73 74 72 71 68 70 71 68 61 58 56 55 53 49 48 46 45 45
66 65 66 66 65 64 64 63 63 61 60 59 59 59 61 64 65 66 67 68 71 70 68 70 69 68 70 74 76 77 78 74 68 68 73 78 81 80 78 80 81 81 82 82 83 84 84 85 84 84 85 85 84 83 82 81 81 81 82 83 84 84 85 85 86 87 87 86 85 83 81 80 78 78 79 81 81 80 80 79 79 79 79 79 79 79 80 81 81 81 81 81 81 81 83 84 83 83 83 83 84 84 84 84 85 85 85 85 85 85 85 85 86 87 87 88 89 90 90 91 90 90 89 89 89 88 88 88 88 88 88 88 88 88 88 88 89 89 90 91 91 91 91 92 92 93 93 93 92 92 93 95 97 97 97 96 95 93 92 90 88 86 86 86 87 88 88 86 85 86 87 88 87 86 86 86 85 84 83 82 81 80 79 79 81 84 87 88 90 92 93 93 92 89 87 86 85 81 78 78 81 84 85 83 82 84 86 89 90 91 90 89 88 87 86 83 83 82 81 80 80 80 79 77 75 77 81 84 83 81 81 81 81 83 86 88 89 89 88 87 86 84 82 78 73 69 68 66 65 64 64 64 63 57 52 51 58 65 70 73 75 78 78 74 68 64 66 73 79 83 85 84 77 74 77 79 79 80 83 89 93 93 93 93 94 96 97 96 92 86 81 76 72 68 65 63 66 67 67 67 66 66 66 66 66 64 62 61 60 59 57 57 55 53 49 45 40 37 39 44 49 51 50 47 43 39 36 36 36 36 36 36 36 36 36 36 36 36 38 45 53 59 63 64 62 61 61 62 65 67 68 67 66 66 66 68 71 74 76 74 70 68 66 64 63 63 64 68 73 77 78 74 70 69 71 74 77 78 76 73 71 72 74 73 70 69 68 67 66 66 65 66 66 66 64 62 58 56 54 54 55 57 61 64 67 72 78 82 84 84 82 81 82 82 81 80 81 83 85 88 91 91 90 89 88 88 88 88 89 92 95 98 99 98 97 99 102 105 107 108 109 109 110 110 110 109 107 104 100 97 95 94 95 96 96 94 94 94 95 98 101 102 102 100 98 96 93 92 92 94 95 97 100 102 104 107 109 110 108 107 107 108 109 108 107 105 102 101 101 102 103 102 101 101 103 104 103 101 99 97 96 94 93 93 94 97 96 94 91 88 88 90 92 92 92 92 91 88 85 84 83 81 79 75 73 72 73 76 79 81 83 82 80 77 74 68 66 65 65 63 61 60 60 59 59 58 58 57 57 57 56 56 56 58 62 65 63 60 56 54 53 52 52 54 57 61 64 68 72 75 77 77 74 74 75 75 75 74 71 70 72 74 72 67 63 63 68 74 77 80 82 84 85 87 88 88 87 87 89 90 90 90 90 90 87 85 87 89 90 90 92 92 90 89 92 95 97 98 100 102 104 105 105 102 99 95 91 93 95 96 95 93 93 93 95 96 97 98 95 92 90 89 86 83 80 77 78 77 79 84 88 92 93 93 93 95 95 91 87 86 86 87 88 89 88 84 80 75 74 76 79 80 80 80 82 83 83 80 77 73 71 73 74 71 67 65 63 62 62 63 65 68 70 71 70 68 69 72 75 77 77 75 73 72 72 71 71 73 75 79 80 79 75 72 71 74 77 81 82 83 82 81 80 80 80 81 83 84 83 78 75 76 77 77 75 74 78 81 84 86 87 86 82 81 81 84 87 88 88 86 84 82 80 78 75 73 73 73 73 72 68 65 67 71 71 70 65 64 66 72 75 77 77 78 79 79 79 78 78 78 79 80 79 79 78 75 72 69 65 59 54 49 45 43 45 57 62 65 67 70 70 70 68 66 69 71 74 76 77 77 77 75 74 74 73 72 71 72 72 73 74 74 74 74 74 74 74 74 74 74 74 74 74 74 73 73 72 71 71 72 72 71 68 65 63 63 64 67 70 72 73 73 72 70 67 65 66 65 63 61 60 58 56 53 51 47 44 42
64 64 66 65 63 62 62 62 61 59 59 59 59 62 65 68 70 71 72 73 74 73 70 71 72 69 69 72 75 77 78 75 69 68 73 78 80 81 81 80 80 80 81 82 83 84 84 85 85 85 84 84 84 84 84 82 81 81 82 82 84 84 84 85 86 87 88 87 86 84 81 79 78 78 78 78 78 79 79 79 79 79 79 79 79 79 79 80 80 80 80 80 81 81 84 84 84 83 83 83 84 84 84 84 85 85 85 85 85 85 85 85 85 86 87 88 88 89 90 90 90 90 90 90 90 89 89 88 88 88 88 89 89 89 89 90 90 90 90 90 91 91 91 91 92 93 93 93 93 93 94 97 100 100 99 98 95 92 90 89 87 87 88 88 89 89 88 87 87 87 89 90 88 87 86 86 85 85 85 84 83 80 80 80 81 84 86 89 92 94 94 94 93 91 89 87 84 80 79 79 82 86 87 86 84 84 86 89 91 93 92 90 89 88 86 86 86 85 84 84 84 84 82 78 76 78 81 84 84 85 86 84 82 82 84 87 91 93 94 94 93 90 86 80 74 72 74 72 67 62 60 58 56 53 52 56 61 65 71 76 78 79 82 81 76 71 67 70 76 81 85 82 77 77 83 87 86 83 84 88 93 97 97 96 96 98 97 96 92 87 84 80 76 70 65 62 61 62 62 62 62 63 64 64 63 63 61 61 60 59 55 52 51 49 44 41 38 38 41 44 47 49 51 51 48 44 41 38 36 36 36 36 36 36 36 36 36 36 37 44 52 58 62 65 65 63 63 65 66 67 69 69 67 65 67 70 72 75 77 74 71 70 67 63 61 61 64 68 73 77 77 73 69 68 71 73 75 75 72 70 70 73 75 74 71 69 69 68 66 66 65 63 62 62 61 59 56 55 54 55 58 60 63 67 70 74 78 82 83 83 82 82 83 84 82 81 83 85 87 89 91 93 92 92 92 92 92 90 90 93 96 99 101 101 100 101 104 106 108 109 110 110 109 109 108 107 106 103 100 97 94 92 91 91 91 91 91 91 93 96 98 99 98 98 96 94 92 91 91 93 95 98 100 102 104 108 111 112 110 109 109 110 110 109 107 103 100 98 98 100 101 101 102 102 103 104 103 102 100 98 97 96 94 94 95 98 98 96 92 89 89 91 91 90 90 90 88 86 83 81 80 78 76 75 73 73 74 78 81 84 86 87 84 81 77 73 71 70 66 64 64 65 63 60 59 59 58 58 58 59 58 56 56 57 60 62 60 57 54 52 52 52 52 52 55 59 62 67 72 75 76 74 71 72 73 73 73 73 70 69 71 72 70 67 64 63 67 72 76 78 80 82 84 86 86 86 85 86 87 87 87 86 87 87 85 84 85 86 86 87 87 88 88 88 90 93 95 97 99 101 103 105 105 102 98 95 93 95 97 98 96 95 95 95 96 97 98 99 96 93 89 86 84 81 80 81 82 80 79 81 84 89 93 95 95 96 94 91 89 88 88 88 87 87 85 82 78 76 75 76 79 82 83 82 83 85 85 82 79 75 75 79 79 74 70 68 64 62 62 62 64 66 70 71 69 66 67 70 72 73 72 70 69 68 68 67 71 73 75 78 79 79 75 72 70 73 77 80 82 82 81 79 78 78 78 78 80 81 81 80 76 73 73 73 72 74 78 81 84 84 84 82 80 78 81 84 85 87 88 88 86 83 80 78 76 75 75 75 76 75 71 65 64 68 69 68 64 64 68 72 75 75 75 76 77 78 79 80 80 80 81 81 80 80 79 76 72 69 64 58 53 47 44 44 49 59 63 65 68 70 69 68 65 64 68 70 73 75 75 75 75 74 73 73 72 71 70 71 72 73 74 74 74 74 74 74 74 74 74 74 74 74 74 73 73 72 71 70 70 71 72 73 71 67 63 60 63 67 70 72 73 73 72 70 66 62 60 59 59 58 57 55 53 52 50 47 42 38
63 63 65 64 61 60 60 60 59 59 59 59 61 64 67 69 71 73 74 75 75 74 73 73 74 72 70 74 76 77 78 76 71 68 73 77 77 78 80 80 79 78 80 80 82 84 84 84 84 84 84 84 85 86 86 84 82 82 82 83 84 84 84 84 86 88 88 88 87 85 82 79 78 79 78 78 78 79 79 79 79 79 79 79 79 79 79 79 79 79 79 79 81 82 83 83 83 83 83 83 84 84 84 84 85 85 85 85 84 84 84 85 85 86 87 88 88 89 90 90 91 90 90 91 90 90 89 89 89 89 89 89 89 89 90 90 90 90 90 90 90 90 91 91 92 92 93 93 94 95 97 100 103 102 101 98 94 92 91 90 90 89 89 90 91 90 89 87 87 88 90 91 90 88 87 86 85 85 85 84 83 80 80 81 83 85 87 89 92 94 94 93 91 89 87 85 82 81 81 81 82 86 88 88 86 85 86 88 91 93 94 92 90 89 87 87 88 87 86 85 84 84 81 77 76 78 81 84 86 88 89 87 86 85 84 87 92 95 96 96 93 88 83 79 77 78 80 79 75 71 67 61 54 53 59 64 65 64 69 76 79 81 82 85 83 78 72 71 76 82 84 80 77 77 83 88 90 88 88 90 94 98 99 98 97 97 97 95 92 88 86 83 80 74 69 65 62 59 58 58 58 59 60 61 62 63 61 59 59 58 54 48 44 43 40 38 38 41 47 51 53 55 55 56 54 51 50 45 40 36 36 36 36 36 36 36 36 36 37 44 51 56 61 63 63 61 61 65 65 65 68 68 63 61 63 67 71 75 75 72 69 67 66 63 61 62 65 70 74 76 75 72 68 67 70 73 74 73 71 69 70 73 76 75 73 71 71 71 70 69 69 66 62 60 58 56 54 53 54 57 61 64 67 68 70 74 78 80 80 80 80 82 83 82 81 80 82 85 88 90 91 93 94 95 95 96 94 92 92 95 98 101 103 103 103 104 105 106 107 109 109 109 108 106 105 105 105 105 103 99 95 92 90 88 87 87 88 89 92 94 95 95 94 94 92 91 90 90 91 94 96 98 99 102 105 109 111 111 111 109 109 109 109 108 106 104 100 97 95 97 99 101 101 102 103 103 103 102 101 100 100 98 96 95 96 98 99 97 94 92 91 91 91 89 87 86 86 84 82 79 78 77 76 76 75 75 76 79 82 85 88 90 87 83 80 78 76 72 67 66 69 70 68 65 61 59 60 61 62 64 63 61 58 56 58 58 57 55 54 56 55 53 52 52 54 56 61 65 70 73 75 73 69 68 70 71 71 70 67 66 67 69 69 67 64 63 66 70 73 75 77 79 81 82 83 83 84 86 86 84 83 82 82 82 82 81 82 82 83 83 84 85 86 87 88 90 93 96 98 100 101 102 102 100 97 94 94 96 98 99 98 98 97 97 97 98 99 99 98 95 92 87 84 82 83 86 87 84 83 82 82 85 91 94 95 95 94 93 92 91 90 88 86 84 82 79 78 78 79 79 79 82 84 85 85 87 87 84 80 76 77 82 80 76 74 70 65 62 62 62 63 66 69 71 70 66 66 68 68 68 68 66 65 64 65 67 71 72 75 76 78 78 76 72 69 71 76 79 81 82 82 80 78 77 76 76 76 78 79 80 79 76 72 72 71 73 77 79 80 82 81 78 76 77 79 82 84 86 88 88 87 84 81 79 77 76 75 76 76 75 72 67 64 63 65 65 63 64 68 70 72 72 72 72 75 78 79 81 82 82 81 81 81 80 79 77 74 70 65 59 54 47 44 44 50 57 62 64 68 69 67 64 60 64 66 68 71 72 74 74 74 73 72 72 71 70 69 71 72 73 73 73 73 73 73 73 73 73 74 74 74 74 73 73 72 71 70 69 70 71 72 73 73 71 65 59 60 65 70 72 73 73 73 71 66 61 59 57 56 54 52 50 48 47 46 45 42 39
61 62 63 62 59 59 59 59 59 59 61 61 62 63 65 67 70 72 73 75 76 76 75 75 75 74 72 74 76 77 78 77 73 70 70 74 73 75 77 78 78 76 78 79 80 82 83 83 84 84 84 84 85 86 87 84 82 82 83 83 84 84 84 84 87 89 89 88 87 85 82 80 80 80 79 78 78 79 79 79 79 79 79 79 79 79 79 79 79 79 79 79 80 82 82 82 83 83 84 84 84 84 84 84 85 85 85 85 84 84 84 85 85 86 87 88 88 89 90 90 91 92 92 91 91 90 90 90 90 90 90 90 90 90 91 90 90 90 90 90 90 90 91 91 92 92 93 93 94 96 98 102 104 104 101 96 94 93 91 91 91 91 91 91 91 90 89 88 88 89 91 91 90 88 87 86 86 85 85 84 83 80 80 82 84 86 88 90 92 94 94 93 89 87 87 86 84 82 82 83 82 84 86 89 89 88 87 87 90 92 93 93 91 89 87 88 90 89 86 84 82 80 78 77 77 79 81 84 86 88 89 89 89 88 86 87 92 96 97 95 89 85 83 83 83 81 78 75 74 72 68 61 53 55 65 73 73 68 67 71 77 81 84 87 86 81 75 74 75 80 84 81 79 79 79 82 85 89 92 94 97 99 99 97 95 94 93 91 88 85 82 80 80 79 76 73 69 66 63 60 57 55 55 57 60 61 60 58 57 55 51 45 41 40 38 38 40 46 53 58 60 61 60 60 60 57 54 50 44 37 36 36 36 36 36 36 36 36 37 42 49 54 57 59 59 57 58 62 61 61 66 66 60 56 59 65 69 72 73 72 69 66 64 61 60 64 70 74 76 75 72 70 67 66 69 72 73 71 69 68 70 73 76 76 73 72 72 73 73 73 75 73 69 65 60 55 53 53 55 59 63 67 70 70 70 73 77 78 76 76 79 80 79 78 77 78 79 82 84 86 89 92 93 93 94 95 95 95 95 96 100 103 104 104 103 103 104 105 106 107 107 105 105 105 103 103 104 104 103 101 97 94 92 89 87 86 85 87 90 92 92 91 90 90 88 87 89 91 93 95 97 98 99 102 105 108 111 111 109 108 108 107 106 106 106 104 100 96 94 94 96 98 100 101 102 103 104 103 103 103 101 99 98 97 97 99 100 98 96 94 93 93 91 90 88 86 84 82 81 79 79 79 78 76 76 76 77 79 82 85 88 89 88 85 82 79 75 69 66 67 70 72 73 71 67 63 64 67 69 69 67 63 58 56 56 56 55 54 55 59 61 58 55 52 51 54 58 61 66 70 72 70 67 66 68 68 68 67 65 64 65 66 65 64 63 63 66 69 71 74 76 77 78 78 80 81 84 84 81 79 78 77 78 78 78 79 80 81 81 83 84 87 88 89 89 89 91 94 96 98 99 100 100 99 97 95 95 97 99 100 100 100 100 99 99 99 99 99 97 95 91 86 83 83 86 89 90 88 88 87 84 84 87 90 92 95 96 96 96 94 91 88 87 85 84 83 82 82 82 80 79 81 85 87 87 87 88 85 81 78 81 83 80 78 78 74 68 63 62 62 62 63 67 69 67 64 64 66 66 65 64 63 62 62 63 65 68 70 72 73 77 77 74 71 68 70 75 78 80 81 81 82 79 76 74 73 73 74 76 78 79 80 78 74 70 70 73 75 77 77 76 75 75 76 80 83 85 86 87 88 87 85 82 79 78 76 75 74 73 71 69 66 64 62 61 61 60 64 67 68 68 68 69 70 75 79 80 81 81 81 81 81 81 81 80 78 74 70 65 59 54 48 44 44 49 55 59 63 67 67 62 59 59 64 67 68 70 72 73 74 73 72 71 71 70 69 68 72 73 73 73 73 73 73 73 73 73 73 74 74 74 74 73 73 72 71 70 69 69 71 72 73 73 72 66 60 58 64 69 72 73 72 72 72 70 64 60 58 56 54 52 49 48 47 46 46 48 50
60 61 61 60 59 59 59 59 59 61 63 64 63 63 63 65 69 70 71 74 76 76 76 76 76 75 73 73 76 77 78 77 74 71 69 70 72 73 75 76 76 75 76 77 79 80 82 83 83 83 84 84 85 86 87 84 82 82 83 83 84 85 85 86 88 89 89 88 87 85 83 81 81 81 80 77 78 78 78 78 78 78 78 79 79 79 79 79 79 79 80 81 81 82 82 82 82 83 83 84 84 84 84 84 85 85 85 84 84 84 84 84 85 86 87 87 88 89 89 90 91 93 93 92 91 91 90 90 90 90 90 90 90 90 91 90 90 90 90 90 90 90 91 91 92 92 93 94 94 96 99 102 104 105 101 96 94 93 92 92 92 92 92 92 91 90 89 88 88 89 91 91 90 88 87 86 86 85 84 84 82 81 81 82 84 87 90 91 93 94 95 93 90 90 89 88 84 82 84 84 83 84 85 88 91 90 88 87 89 91 93 93 91 89 88 88 91 90 87 84 81 79 78 78 79 82 82 82 85 87 88 89 90 89 87 88 92 97 97 95 91 87 85 85 84 79 74 71 68 66 63 58 53 57 66 75 77 74 70 70 74 79 85 89 88 82 78 76 76 80 83 80 81 82 80 81 84 87 91 94 97 99 98 95 92 90 88 87 85 82 79 78 79 79 78 76 75 73 69 64 60 56 53 53 56 58 58 57 55 51 46 42 40 39 39 41 44 50 57 62 65 64 62 61 61 60 57 52 46 39 36 36 36 36 36 36 36 36 37 41 47 52 55 57 56 54 57 61 59 59 63 64 59 54 57 64 67 68 70 69 67 64 62 60 61 65 72 76 76 73 70 68 66 66 70 72 73 70 67 67 70 73 76 76 74 73 73 74 75 76 76 74 70 66 60 55 53 53 56 59 63 68 71 71 71 74 77 76 73 74 78 80 77 75 75 76 78 81 83 85 88 91 92 92 93 95 97 97 98 99 101 103 103 103 102 102 103 103 104 104 104 103 103 103 102 102 102 103 103 101 98 95 93 91 88 85 84 86 89 90 89 89 88 88 87 87 88 91 93 95 97 99 101 103 105 108 110 109 108 107 105 104 103 104 105 103 100 96 93 93 95 97 99 100 102 103 104 104 104 104 102 101 99 98 98 99 100 100 98 95 94 93 91 89 88 86 84 82 81 80 80 79 78 76 76 76 77 79 82 85 88 88 86 84 82 79 74 69 66 67 70 73 74 74 71 67 68 72 73 73 70 65 59 56 56 56 55 55 56 60 63 61 57 53 51 52 55 59 63 67 70 69 66 64 66 66 65 65 63 62 63 63 61 60 61 64 68 69 70 72 74 75 76 76 78 81 83 82 79 75 75 76 77 78 78 79 80 81 81 83 85 88 90 91 91 90 90 92 95 97 98 99 100 98 97 96 96 98 99 101 101 101 101 100 99 98 98 97 94 92 88 85 84 84 87 90 91 91 91 89 86 85 86 89 92 96 97 97 96 95 91 88 88 88 87 87 84 84 84 81 79 82 86 88 88 88 88 85 81 79 82 83 80 80 80 77 70 65 62 62 62 62 66 66 65 63 62 64 64 63 62 61 60 61 61 63 66 67 69 72 75 75 73 71 67 69 74 76 78 80 81 82 81 77 74 72 72 72 74 77 79 80 80 77 71 69 69 72 75 75 73 73 75 77 80 84 85 86 87 88 87 85 82 81 78 75 72 71 70 69 67 66 66 63 60 60 59 63 64 65 65 66 69 71 76 79 80 80 80 80 80 80 81 81 80 78 75 70 65 58 54 48 44 44 49 54 58 61 66 65 59 57 59 64 68 69 70 72 73 73 73 72 71 70 69 68 68 72 72 72 72 72 72 72 72 72 73 73 73 74 74 74 73 73 72 71 70 68 68 71 72 72 72 71 66 60 57 63 69 72 72 71 70 71 70 67 62 60 57 55 53 50 49 49 48 50 51 53
60 59 59 59 59 59 59 61 63 65 67 67 67 64 64 63 65 67 70 73 75 76 75 76 76 76 74 73 75 77 78 78 77 74 72 71 71 72 73 74 74 75 76 76 77 79 81 82 83 83 84 84 85 86 86 84 83 83 83 84 85 86 88 88 89 89 89 88 87 86 84 82 82 81 78 77 76 77 77 77 77 77 78 78 79 79 79 79 79 81 82 82 82 82 82 82 82 83 83 84 84 84 84 84 85 84 84 84 84 84 84 84 85 85 86 87 88 88 89 90 91 93 94 93 92 91 91 91 90 90 90 90 91 91 90 90 89 89 89 90 90 90 91 91 92 93 93 94 95 96 99 101 104 104 101 97 96 94 93 93 93 93 93 92 91 90 90 90 90 90 91 90 90 88 86 86 85 85 84 83 81 81 81 83 85 88 91 93 94 95 96 95 92 91 90 88 84 83 86 87 85 86 88 90 92 93 92 88 88 90 91 93 93 91 89 90 91 90 87 85 82 80 80 80 80 83 83 83 83 85 87 89 92 91 90 89 91 96 99 99 96 92 88 87 82 77 77 75 71 68 63 56 53 58 65 74 80 80 78 77 77 80 85 90 89 85 81 79 81 81 82 82 83 86 85 87 88 88 89 92 97 99 96 90 85 82 81 79 77 76 73 72 73 73 73 73 74 75 73 70 66 61 56 51 50 51 54 54 54 50 43 40 40 40 41 42 45 51 58 63 67 67 65 64 64 62 59 55 49 42 37 36 36 36 36 36 36 36 36 39 45 52 57 58 55 51 55 58 55 54 59 60 56 54 57 60 62 65 66 65 65 63 61 59 61 66 70 74 74 71 67 65 64 66 69 71 70 67 65 67 70 73 75 76 75 73 73 76 77 78 76 72 68 65 61 55 52 53 56 59 63 68 71 71 71 73 74 72 70 73 77 79 76 72 72 75 79 82 84 86 89 90 90 90 93 95 97 98 99 101 102 103 102 100 98 99 100 100 100 100 100 100 100 101 100 99 100 101 101 100 97 94 93 91 89 86 83 83 85 85 85 85 85 85 86 87 89 91 93 95 97 99 102 104 107 109 109 108 106 103 101 100 100 101 101 100 98 95 92 92 94 96 98 101 102 103 104 104 103 103 103 102 101 100 99 99 100 100 98 97 97 96 93 90 88 87 86 85 83 81 80 79 77 76 76 77 79 81 83 86 88 87 84 81 79 76 72 69 68 68 70 74 76 77 75 73 74 75 76 75 71 65 60 57 57 56 56 57 59 63 66 65 60 55 52 50 51 56 60 65 69 68 64 62 64 64 62 61 61 59 58 58 59 59 62 66 70 71 71 71 73 75 75 76 78 80 80 78 76 74 75 79 82 81 80 80 81 82 82 84 87 90 93 94 94 93 92 92 94 96 98 99 100 99 98 97 97 99 100 101 102 102 101 100 99 98 96 93 91 89 86 86 86 87 87 90 93 93 91 88 89 89 87 90 93 97 99 99 96 93 90 89 90 92 92 90 88 87 87 84 81 82 86 88 89 90 88 85 81 81 83 84 82 82 82 78 72 67 63 63 62 62 62 62 61 61 60 60 60 60 60 60 60 60 60 60 61 63 66 70 74 75 71 68 66 68 72 74 76 79 80 80 81 79 76 71 70 70 72 76 78 79 79 79 74 70 67 69 71 71 72 76 78 79 82 84 84 85 86 87 87 85 84 82 80 76 73 71 71 70 69 69 69 67 64 60 59 60 61 62 65 69 71 74 78 80 80 77 75 76 76 75 77 79 79 78 75 70 64 59 56 50 44 43 47 52 56 60 64 61 55 55 60 64 68 70 71 72 73 72 71 70 70 69 67 66 68 71 71 71 71 71 71 71 72 72 73 73 73 74 74 73 73 73 72 71 70 68 67 70 71 70 68 67 63 58 56 62 66 68 68 69 66 66 66 66 66 65 62 58 56 54 51 49 47 49 51 53
60 59 59 59 59 60 61 62 65 67 69 70 70 68 68 68 64 67 69 71 73 74 74 75 76 76 76 75 75 76 78 79 78 76 75 73 72 73 74 75 76 79 80 77 78 80 82 82 83 84 84 84 86 88 88 86 84 84 84 84 85 87 87 88 88 88 89 88 87 86 83 81 80 80 77 76 75 75 76 76 76 77 78 78 79 79 79 82 82 82 83 82 82 82 82 82 83 84 84 84 84 84 84 85 85 84 84 83 83 83 84 84 85 85 86 87 88 88 89 90 91 93 94 94 93 92 91 90 90 90 90 90 91 90 90 89 89 89 89 90 91 91 91 91 92 93 94 94 95 96 98 99 100 100 99 98 97 95 94 94 95 94 94 93 92 92 91 91 91 91 91 90 89 88 86 85 85 84 83 81 81 81 82 83 85 88 91 93 95 96 97 96 93 91 89 86 84 84 88 90 88 86 89 91 93 95 95 91 90 90 90 92 93 93 91 90 89 88 86 84 83 83 83 82 82 82 84 84 84 84 86 89 92 94 93 91 92 96 99 99 99 95 92 88 82 80 82 81 77 73 65 57 55 58 64 72 77 81 82 83 83 84 87 90 91 88 83 82 85 86 84 85 86 89 90 91 92 91 91 93 96 98 95 88 82 78 74 72 70 69 68 66 66 66 66 66 68 68 68 67 65 61 56 52 49 47 48 50 50 48 42 40 41 45 47 48 48 49 53 58 62 66 66 65 64 61 58 56 53 47 40 36 36 36 36 36 36 36 36 37 41 47 53 57 52 48 52 53 50 51 55 55 51 50 54 59 63 64 62 61 62 60 59 58 61 65 70 73 72 68 63 61 63 67 69 69 67 65 65 67 70 73 76 77 76 75 76 78 79 78 76 72 68 64 59 54 52 52 55 59 63 68 70 69 69 71 71 68 68 71 75 76 73 71 72 76 80 83 84 85 86 87 87 89 93 94 94 95 98 100 102 102 101 98 95 95 96 97 96 95 96 97 99 99 98 97 98 98 98 97 94 91 88 88 88 86 82 80 81 81 82 83 85 87 89 90 91 93 95 97 99 101 103 105 107 108 108 107 105 101 98 97 96 96 96 96 95 92 90 91 94 97 99 100 100 101 102 102 102 102 102 102 102 101 100 99 98 98 97 98 99 98 96 92 91 90 88 86 84 81 80 79 78 78 78 79 81 83 85 87 87 86 83 80 76 73 70 71 73 70 69 73 76 78 78 77 77 78 77 74 69 66 65 63 59 57 59 62 64 67 69 67 62 57 53 50 50 54 59 65 69 67 63 60 61 62 59 58 57 56 56 57 60 63 65 68 71 73 71 71 73 73 74 76 77 77 77 76 74 74 76 82 85 85 82 82 83 84 85 86 89 92 95 96 97 97 96 96 96 96 98 100 101 100 100 98 98 99 101 103 104 103 101 99 98 96 94 92 90 88 88 88 89 90 90 91 93 93 90 89 92 93 90 90 93 96 99 98 95 93 92 92 93 95 96 96 93 90 89 86 83 83 86 88 91 90 88 84 83 83 85 86 86 85 82 78 74 70 66 63 62 62 61 61 61 61 60 60 60 60 60 60 60 60 60 60 60 60 62 66 71 72 69 66 65 67 69 70 74 77 79 80 80 80 77 72 68 67 70 73 76 77 77 78 78 73 67 67 67 68 73 77 79 81 83 83 83 83 85 86 86 86 85 82 79 75 72 72 74 73 73 73 72 70 67 62 58 58 60 64 66 71 73 76 78 79 78 73 71 72 73 72 73 77 78 78 75 72 68 63 59 54 46 43 45 50 54 58 60 56 53 56 61 66 69 71 73 73 73 71 69 68 68 66 65 66 68 69 70 71 71 71 71 71 71 72 73 73 73 73 73 73 73 73 72 72 70 67 65 67 69 69 67 64 60 55 53 59 61 62 66 69 64 61 59 61 65 66 64 59 56 53 51 47 46 46 48 50
60 60 60 61 60 62 63 62 63 66 68 69 71 70 69 71 66 66 66 67 69 70 72 75 76 77 76 76 76 77 78 80 80 78 77 74 73 74 75 76 78 80 81 79 78 80 82 83 83 84 84 85 86 89 90 89 86 84 84 85 85 87 87 87 88 88 88 88 87 86 82 80 80 79 77 76 75 75 75 75 76 77 78 78 79 79 79 82 84 84 83 83 83 83 83 83 84 84 84 84 84 84 84 84 84 84 83 83 83 83 83 84 85 85 86 87 87 88 89 90 91 92 93 93 93 92 91 90 90 90 90 90 90 90 89 89 88 88 88 89 91 91 91 92 92 93 94 94 95 97 98 99 99 99 98 98 97 97 97 97 96 95 94 94 93 93 92 91 90 90 90 90 89 87 86 85 84 84 83 81 81 82 83 84 84 87 90 92 94 96 97 96 93 90 88 87 86 85 89 91 89 87 89 92 95 96 96 93 92 90 90 91 93 93 93 91 88 86 84 84 84 86 86 85 83 83 84 85 85 85 87 90 93 94 94 93 93 95 97 98 98 97 93 88 83 82 83 79 75 69 63 57 58 62 61 68 75 79 82 84 85 85 86 89 91 90 87 87 87 87 86 86 87 90 93 94 95 96 96 96 97 99 97 93 88 84 80 77 75 75 72 69 66 62 62 61 60 60 60 59 57 55 54 53 52 50 48 46 45 44 42 41 44 49 53 55 55 54 55 59 63 66 67 65 61 56 53 49 44 41 38 37 38 39 38 36 36 36 36 36 37 41 47 51 48 44 49 49 46 47 49 48 46 49 56 62 65 62 59 58 59 58 58 59 63 67 70 71 70 65 61 61 64 67 68 67 65 63 64 67 70 73 76 77 76 76 77 79 79 79 78 75 72 67 60 54 52 52 55 59 63 67 68 67 67 69 69 67 67 69 71 71 70 69 71 75 77 79 80 81 82 83 84 87 89 90 91 94 97 99 101 101 100 98 95 93 94 94 94 93 95 96 98 98 97 96 96 97 97 95 92 90 88 85 84 84 81 79 79 81 83 85 88 91 93 94 94 96 98 99 100 101 103 106 107 107 107 107 106 103 100 97 95 94 93 93 91 89 89 91 94 95 96 96 97 98 100 101 102 102 101 101 101 100 99 97 96 95 96 98 99 99 97 95 92 90 87 84 83 82 81 80 79 79 80 81 83 86 87 88 87 85 83 80 76 73 72 75 76 72 71 72 76 79 79 79 79 79 76 72 70 70 70 68 65 64 66 69 71 70 68 63 59 57 54 51 50 53 58 63 66 65 62 59 58 58 56 55 54 54 56 59 63 67 69 70 72 72 70 69 68 69 70 72 73 74 73 72 73 74 77 82 85 85 84 84 84 85 86 87 90 93 96 97 98 99 100 99 99 99 100 101 102 102 101 99 99 101 103 105 106 104 102 100 100 99 98 95 92 90 90 90 91 91 91 93 94 93 91 90 92 93 91 91 92 95 99 98 96 95 94 94 95 97 98 97 95 92 89 86 85 85 86 88 91 90 88 85 85 86 87 88 88 86 83 79 75 71 66 63 62 62 61 61 61 61 61 61 60 60 60 60 60 60 60 60 60 60 60 63 68 72 69 66 65 65 67 69 73 76 78 79 80 80 77 73 68 67 68 71 74 74 76 77 77 73 67 66 66 68 73 77 79 81 82 82 82 82 84 85 85 85 84 81 78 74 73 74 76 76 74 74 74 71 68 63 57 58 62 66 68 72 74 78 79 79 77 73 69 68 69 69 72 76 77 77 75 73 70 67 64 58 48 42 41 46 51 55 54 50 53 59 64 68 71 73 75 75 74 72 70 66 64 63 63 66 68 69 70 70 70 70 70 70 71 72 73 73 73 73 73 73 73 73 72 72 70 69 66 64 67 68 66 63 58 54 51 55 57 60 65 66 64 60 55 56 60 62 61 57 54 51 50 48 46 44 44 45
