ncols         942
nrows         41
xllcorner     -71.0333333333
yllcorner     42.26447
cellsize      1.0E-5
NODATA_value  -9999
21 20 20 23 25 29 30 29 27 23 17 14 13 12 12 12 14 15 15 15 15 16 17 16 15 15 15 14 14 14 14 14 14 14 15 14 14 14 14 14 14 14 14 14 15 15 16 16 16 16 16 16 16 16 17 17 17 19 19 20 20 19 20 20 20 22 25 27 27 27 26 27 27 27 27 27 26 27 27 27 27 27 27 27 28 27 28 30 34 38 42 43 45 45 41 39 36 35 30 28 34 41 49 52 50 48 44 41 41 40 37 31 27 27 29 40 45 45 44 41 34 29 30 29 28 28 27 27 27 31 34 36 33 28 29 29 30 28 32 40 46 49 52 51 54 52 51 56 57 58 59 56 54 53 55 58 62 65 59 54 43 39 31 30 29 29 29 30 30 31 31 31 31 29 27 26 25 25 24 24 24 24 24 26 26 26 26 26 25 25 25 26 28 28 28 29 30 29 28 28 28 27 25 22 22 22 26 29 32 42 50 52 49 47 45 41 41 43 48 49 48 43 29 25 22 21 19 20 20 20 20 20 20 19 19 19 20 20 20 20 20 20 28 36 38 40 45 48 41 41 43 46 48 51 50 50 50 49 46 44 43 40 37 36 36 39 45 48 49 44 39 38 39 39 39 42 47 47 48 49 49 50 48 44 41 37 33 28 27 27 24 23 24 25 23 23 23 22 20 20 20 20 21 23 28 34 36 38 38 38 38 40 40 39 34 31 30 33 37 39 37 36 34 28 26 25 25 24 23 21 18 18 18 16 15 15 14 14 13 12 10 8 7 8 11 15 14 12 8 11 16 21 21 21 18 17 17 17 19 18 19 19 19 19 17 18 19 22 24 25 23 20 19 15 12 8 8 7 7 7 7 7 7 6 6 6 6 5 4 3 0 0 3 2 2 1 0 0 0 0 0 3 9 12 13 14 14 17 20 22 24 25 24 23 20 16 12 11 9 9 8 8 8 8 8 8 8 8 8 8 9 9 10 12 13 13 13 13 12 12 12 12 12 12 13 14 14 14 12 11 11 11 11 11 12 12 11 11 10 9 9 9 9 8 8 7 7 7 6 6 6 6 6 6 6 5 5 5 5 7 8 8 9 10 11 10 8 8 8 7 6 2 0 0 0 0 0 0 0 0 0 0 0 0 0 0 0 0 0 0 0 0 0 0 1 5 8 10 11 15 17 14 18 20 20 13 11 11 11 11 12 13 15 16 16 15 15 16 16 13 9 6 1 0 0 0 0 0 0 0 0 0 0 0 0 0 0 0 0 0 0 0 0 0 0 0 0 0 0 0 0 0 0 0 0 0 0 0 0 0 0 0 0 0 0 0 0 0 0 0 0 0 0 0 0 0 0 0 0 0 0 0 0 0 0 0 0 0 0 0 0 0 0 0 0 0 0 0 0 0 0 0 0 0 0 0 0 0 0 0 0 0 0 0 0 0 0 0 0 0 0 0 0 0 0 0 0 0 0 0 0 0 0 0 0 0 0 0 0 0 0 0 0 0 0 0 0 0 0 0 0 0 0 0 0 0 0 0 0 0 0 0 0 0 0 0 0 0 0 0 0 0 0 0 0 0 0 0 0 0 0 0 0 0 0 0 0 0 0 0 0 0 0 0 0 0 0 0 0 0 0 0 0 0 0 0 0 0 0 0 0 0 0 0 0 0 0 0 0 0 0 0 0 0 0 0 0 0 0 0 0 0 0 0 0 0 0 0 0 0 0 0 0 0 0 0 0 0 0 0 0 0 0 0 0 0 0 0 0 0 0 0 0 0 0 0 0 0 0 0 0 0 0 0 0 0 0 0 0 0 0 0 0 0 0 0 0 0 0 0 0 0 0 0 0 0 0 0 0 0 0 0 0 0 0 0 0 0 0 0 0 0 0 0 0 0 0 0 0 0 0 0 0 0 0 0 0 0 0 0 0 0 0 0 0 0 0 0 0 0 0 0 0 0 0 0 0 0 0 0 0 0 0 0 0 0 0 0 0 0 0 0 0 0 0 0 0 0 0 0 0 0 0 0 0 0 0 0 0 0 0 0 0 0 0 0 0 0 0 0 0 0 0 0 0 0 0 0 0 0 0 0 0 0 0 0 0 0 0 0 0 0 0 0 0 0 0 0 0 0 0 0
22 22 22 23 25 29 30 32 32 27 20 14 12 12 12 13 15 15 15 15 15 17 18 18 16 15 15 14 14 14 14 14 14 14 14 14 14 14 14 14 14 14 14 14 14 15 16 16 16 16 16 16 16 16 17 17 17 17 18 19 18 17 18 19 19 20 24 27 27 27 26 27 27 27 27 27 26 27 27 27 27 27 27 27 27 27 27 28 31 31 33 35 36 39 37 34 33 31 29 27 30 42 51 53 49 45 38 34 37 38 36 30 27 27 27 28 34 41 44 40 34 27 28 31 27 27 27 27 27 27 28 28 28 27 27 27 27 27 28 30 32 31 33 41 45 49 51 56 58 58 59 56 56 55 58 59 61 60 52 45 39 34 30 29 28 27 27 27 29 30 30 30 29 27 27 26 25 24 24 24 24 23 23 24 25 26 26 26 26 26 26 26 26 27 28 29 29 29 28 28 27 27 25 22 22 23 26 29 32 43 50 52 49 45 41 41 41 44 49 50 50 42 30 27 25 23 20 19 19 19 20 20 20 19 19 19 20 20 20 20 20 20 23 31 35 38 43 44 41 40 42 46 48 51 51 51 51 52 52 47 44 41 38 36 36 36 38 41 41 37 36 36 37 37 40 46 48 48 48 48 49 49 47 44 41 37 33 33 32 33 29 26 26 26 26 25 23 22 21 21 21 21 21 21 22 27 30 33 36 38 38 39 39 39 35 30 30 31 33 35 36 35 35 32 31 24 20 21 21 20 17 17 17 16 15 15 14 14 12 11 9 7 7 7 10 17 18 11 7 12 20 23 24 23 19 17 16 17 20 23 24 24 23 21 19 19 19 22 23 22 20 17 15 13 11 8 8 8 7 7 7 7 7 6 6 6 6 6 5 3 0 0 2 2 1 0 0 0 0 0 0 5 10 12 13 15 16 18 20 22 23 23 23 21 18 15 12 11 10 9 9 9 8 8 8 8 8 8 8 8 9 10 11 12 13 13 13 13 13 12 12 12 12 12 12 13 14 13 11 11 11 11 11 13 13 13 13 13 11 10 9 9 9 8 8 7 7 7 6 6 6 6 6 5 5 5 5 5 6 8 10 10 12 12 12 10 7 6 3 0 0 0 0 0 0 0 0 0 0 0 0 0 0 0 0 0 0 0 0 0 0 0 0 0 0 4 8 10 10 13 13 12 18 17 13 11 11 11 10 10 12 13 15 15 16 15 15 15 15 13 10 6 0 0 0 0 0 0 0 0 0 0 0 0 0 0 0 0 0 0 0 0 0 0 0 0 0 0 0 0 0 0 0 0 0 0 0 0 0 0 0 0 0 0 0 0 0 0 0 0 0 0 0 0 0 0 0 0 0 0 0 0 0 0 0 0 0 0 0 0 0 0 0 0 0 0 0 0 0 0 0 0 0 0 0 0 0 0 0 0 0 0 0 0 0 0 0 0 0 0 0 0 0 0 0 0 0 0 0 0 0 0 0 0 0 0 0 0 0 0 0 0 0 0 0 0 0 0 0 0 0 0 0 0 0 0 0 0 0 0 0 0 0 0 0 0 0 0 0 0 0 0 0 0 0 0 0 0 0 0 0 0 0 0 0 0 0 0 0 0 0 0 0 0 0 0 0 0 0 0 0 0 0 0 0 0 0 0 0 0 0 0 0 0 0 0 0 0 0 0 0 0 0 0 0 0 0 0 0 0 0 0 0 0 0 0 0 0 0 0 0 0 0 0 0 0 0 0 0 0 0 0 0 0 0 0 0 0 0 0 0 0 0 0 0 0 0 0 0 0 0 0 0 0 0 0 0 0 0 0 0 0 0 0 0 0 0 0 0 0 0 0 0 0 0 0 0 0 0 0 0 0 0 0 0 0 0 0 0 0 0 0 0 0 0 0 0 0 0 0 0 0 0 0 0 0 0 0 0 0 0 0 0 0 0 0 0 0 0 0 0 0 0 0 0 0 0 0 0 0 0 0 0 0 0 0 0 0 0 0 0 0 0 0 0 0 0 0 0 0 0 0 0 0 0 0 0 0 0 0 0 0 0 0 0 0 0 0 0 0 0 0 0 0 0 0 0 0 0 0 0 0 0 0 0 0 0 0 0 0 0 0 0 0 0 0 0 0 0 0 0 0
22 23 23 23 25 28 29 32 34 28 19 14 12 12 13 14 14 14 14 14 15 21 23 23 20 18 16 14 14 14 13 13 13 14 13 13 14 14 14 14 14 14 14 14 14 15 16 16 16 16 16 16 16 16 16 16 17 17 17 17 17 17 17 17 19 19 21 26 26 27 27 26 26 26 27 27 27 27 27 27 27 27 27 27 27 27 27 27 28 27 27 27 26 27 27 27 27 26 26 26 27 32 47 51 46 39 33 29 31 31 32 27 27 27 27 27 27 29 30 29 27 27 27 27 27 27 27 27 27 27 27 27 27 27 27 27 27 27 26 26 26 27 30 41 48 52 54 56 58 58 58 56 57 58 60 60 60 56 45 38 33 30 29 28 25 23 23 24 28 30 30 29 27 26 26 25 25 24 24 24 23 23 23 24 25 26 26 26 26 26 26 26 26 27 27 28 29 28 28 28 27 26 25 22 22 23 26 29 37 45 50 51 48 40 40 40 43 46 50 50 49 41 33 28 27 25 21 19 19 19 20 20 20 20 20 19 19 20 20 20 20 20 21 30 35 38 41 42 41 39 40 45 48 51 51 51 52 53 53 53 49 46 39 36 36 36 36 36 36 36 36 36 36 36 41 44 46 46 47 47 47 46 45 42 40 37 35 37 37 39 36 32 28 28 28 27 24 23 23 24 23 23 23 21 21 21 24 29 32 35 36 37 37 32 29 29 30 30 30 30 33 33 34 34 31 27 19 16 18 16 14 14 15 15 14 14 14 14 11 10 9 7 6 6 7 13 15 8 7 14 22 25 25 25 21 18 16 14 17 22 24 25 25 22 20 20 20 20 20 18 15 12 11 10 10 9 9 8 8 8 8 7 7 6 7 7 6 6 5 2 0 0 0 0 0 0 0 0 0 0 2 7 11 13 15 18 20 21 21 21 21 21 20 18 16 14 13 12 10 10 9 9 9 9 9 9 9 9 9 10 10 11 13 13 14 14 14 14 14 14 12 12 12 12 11 11 11 11 11 11 11 11 11 14 14 14 13 12 11 10 10 10 9 8 8 7 7 7 6 6 6 6 6 5 5 5 5 5 7 11 13 13 14 15 13 11 7 2 0 0 0 0 0 0 0 0 0 0 0 0 0 0 0 0 0 0 0 0 0 0 0 0 0 0 0 3 6 7 7 9 8 9 11 10 9 11 12 11 10 10 11 13 14 15 15 15 15 15 15 13 11 7 0 0 0 0 0 0 0 0 0 0 0 0 0 0 0 0 0 0 0 0 0 0 0 0 0 0 0 0 0 0 0 0 0 0 0 0 0 0 0 0 0 0 0 0 0 0 0 0 0 0 0 0 0 0 0 0 0 0 0 0 0 0 0 0 0 0 0 0 0 0 0 0 0 0 0 0 0 0 0 0 0 0 0 0 0 0 0 0 0 0 0 0 0 0 0 0 0 0 0 0 0 0 0 0 0 0 0 0 0 0 0 0 0 0 0 0 0 0 0 0 0 0 0 0 0 0 0 0 0 0 0 0 0 0 0 0 0 0 0 0 0 0 0 0 0 0 0 0 0 0 0 0 0 0 0 0 0 0 0 0 0 0 0 0 0 0 0 0 0 0 0 0 0 0 0 0 0 0 0 0 0 0 0 0 0 0 0 0 0 0 0 0 0 0 0 0 0 0 0 0 0 0 0 0 0 0 0 0 0 0 0 0 0 0 0 0 0 0 0 0 0 0 0 0 0 0 0 0 0 0 0 0 0 0 0 0 0 0 0 0 0 0 0 0 0 0 0 0 0 0 0 0 0 0 0 0 0 0 0 0 0 0 0 0 0 0 0 0 0 0 0 0 0 0 0 0 0 0 0 0 0 0 0 0 0 0 0 0 0 0 0 0 0 0 0 0 0 0 0 0 0 0 0 0 0 0 0 0 0 0 0 0 0 0 0 0 0 0 0 0 0 0 0 0 0 0 0 0 0 0 0 0 0 0 0 0 0 0 0 0 0 0 0 0 0 0 0 0 0 0 0 0 0 0 0 0 0 0 0 0 0 0 0 0 0 0 0 0 0 0 0 0 0 0 0 0 0 0 0 0 0 0 0 0 0 0 0 0 0 0 0 0 0 0 0 0 0 0 0 0
22 23 23 22 23 23 25 31 32 27 17 14 12 12 13 14 13 14 14 14 15 25 29 29 26 22 18 14 13 13 13 12 12 12 12 13 14 14 14 14 14 14 14 14 15 15 16 16 16 16 16 16 16 16 16 16 16 17 17 17 17 17 17 17 17 17 18 23 26 26 27 26 26 26 27 27 27 27 27 27 27 27 27 27 27 27 27 26 26 26 27 26 26 26 26 27 27 26 26 26 27 27 31 37 35 32 29 27 27 27 26 27 27 27 27 27 27 27 27 27 27 27 27 27 27 27 27 27 27 27 27 27 27 27 27 27 27 27 27 27 27 27 28 41 52 56 55 55 56 57 57 55 56 58 60 61 60 53 43 35 31 30 29 27 24 23 23 23 26 30 30 29 28 26 26 25 24 23 23 23 23 23 23 24 25 26 26 26 26 26 26 26 26 27 27 28 29 28 28 28 27 26 25 22 22 24 26 30 38 46 50 50 46 40 40 41 44 46 50 50 48 41 35 31 28 26 20 20 20 20 20 20 20 20 20 19 19 20 20 20 20 20 21 29 35 38 41 42 42 40 38 44 48 51 51 51 52 53 54 55 56 54 46 36 36 37 37 36 36 36 36 36 36 36 36 38 41 43 44 45 45 44 42 41 39 36 36 38 39 41 40 36 32 28 26 26 25 25 25 27 26 25 25 24 22 21 21 23 27 29 31 33 33 28 25 28 30 30 29 28 27 28 29 31 30 27 22 17 13 13 12 12 14 14 14 13 13 14 11 10 8 7 6 6 7 7 9 8 7 17 23 25 26 26 24 21 17 14 12 16 16 16 18 17 18 20 20 20 19 16 14 12 11 12 12 12 12 10 8 8 8 8 7 6 6 6 6 6 4 1 0 0 0 0 0 0 0 0 1 2 2 7 12 14 18 21 21 22 21 21 19 18 17 15 14 13 13 12 11 10 10 10 9 9 9 9 9 10 11 11 11 13 16 16 16 14 14 14 15 14 14 13 12 11 11 11 11 11 11 11 11 11 11 13 14 13 13 11 11 10 10 10 9 8 8 7 7 7 6 6 6 6 6 5 5 5 5 5 8 15 17 16 16 16 14 11 8 1 0 0 0 0 0 0 0 0 0 0 0 0 0 0 0 0 0 0 0 0 0 0 0 0 0 0 0 3 3 4 4 5 5 6 8 8 9 10 15 11 10 9 10 13 14 15 15 15 15 15 15 14 12 7 1 0 0 0 0 0 0 0 0 0 0 0 0 0 0 0 0 0 0 0 0 0 0 0 0 0 0 0 0 0 0 0 0 0 0 0 0 0 0 0 0 0 0 0 0 0 0 0 0 0 0 0 0 0 0 0 0 0 0 0 0 0 0 0 0 0 0 0 0 0 0 0 0 0 0 0 0 0 0 0 0 0 0 0 0 0 0 0 0 0 0 0 0 0 0 0 0 0 0 0 0 0 0 0 0 0 0 0 0 0 0 0 0 0 0 0 0 0 0 0 0 0 0 0 0 0 0 0 0 0 0 0 0 0 0 0 0 0 0 0 0 0 0 0 0 0 0 0 0 0 0 0 0 0 0 0 0 0 0 0 0 0 0 0 0 0 0 0 0 0 0 0 0 0 0 0 0 0 0 0 0 0 0 0 0 0 0 0 0 0 0 0 0 0 0 0 0 0 0 0 0 0 0 0 0 0 0 0 0 0 0 0 0 0 0 0 0 0 0 0 0 0 0 0 0 0 0 0 0 0 0 0 0 0 0 0 0 0 0 0 0 0 0 0 0 0 0 0 0 0 0 0 0 0 0 0 0 0 0 0 0 0 0 0 0 0 0 0 0 0 0 0 0 0 0 0 0 0 0 0 0 0 0 0 0 0 0 0 0 0 0 0 0 0 0 0 0 0 0 0 0 0 0 0 0 0 0 0 0 0 0 0 0 0 0 0 0 0 0 0 0 0 0 0 0 0 0 0 0 0 0 0 0 0 0 0 0 0 0 0 0 0 0 0 0 0 0 0 0 0 0 0 0 0 0 0 0 0 0 0 0 0 0 0 0 0 0 0 0 0 0 0 0 0 0 0 0 0 0 0 0 0 0 0 0 0 0 0 0 0 0 0 0 0 0 0 0 0 0 0
21 22 22 21 19 19 22 27 28 24 16 13 12 12 12 13 13 13 13 14 16 27 35 37 32 25 18 14 12 12 12 12 12 12 12 13 14 15 18 19 18 19 19 18 16 16 16 16 16 16 16 16 16 16 16 16 16 16 16 16 16 17 17 17 17 17 17 20 25 26 27 27 27 27 27 27 27 27 27 27 27 27 27 27 27 27 26 26 27 27 27 26 26 26 26 26 27 27 27 27 27 26 27 27 27 27 27 27 27 27 26 27 27 27 27 26 27 27 27 27 27 27 27 27 27 27 27 27 27 27 27 27 27 27 27 26 27 26 26 26 27 27 27 36 44 50 54 54 53 56 56 54 51 54 55 56 55 45 37 31 30 29 27 25 23 23 23 25 29 30 30 30 29 26 26 25 24 23 22 22 22 22 23 24 26 26 27 26 26 26 26 26 26 27 27 28 29 28 28 28 27 26 24 22 22 24 26 29 37 46 49 48 44 40 40 42 45 48 49 49 46 41 35 31 27 26 20 20 20 20 20 20 20 23 23 20 20 20 20 20 20 20 21 28 35 38 41 43 43 41 38 43 47 50 52 52 52 53 53 54 57 57 50 44 37 39 38 36 36 36 36 36 35 35 36 36 37 37 38 38 39 39 38 37 37 36 37 39 41 41 40 39 38 34 28 26 26 26 28 31 31 26 26 26 23 21 20 19 21 23 28 29 28 24 23 27 29 30 29 28 27 26 26 27 28 28 27 20 13 12 11 11 12 13 11 12 13 14 12 11 8 7 7 6 7 8 8 8 11 21 23 25 26 26 26 24 20 16 12 11 11 12 13 14 17 21 21 20 19 16 14 13 13 14 15 16 15 13 10 8 8 8 7 6 6 6 6 5 4 1 0 0 0 0 0 0 0 0 2 2 2 7 12 15 18 20 21 21 21 20 17 15 14 14 14 13 13 12 12 11 10 10 10 9 9 9 10 10 12 12 12 13 18 18 17 14 14 14 14 14 14 14 14 11 11 11 11 11 11 11 11 11 11 12 13 13 13 12 11 11 10 10 9 8 7 7 7 6 6 6 6 6 6 5 5 5 5 5 8 14 17 17 17 17 14 11 7 1 0 0 0 0 0 0 0 0 0 0 0 0 0 0 0 0 0 0 0 0 0 0 0 0 0 0 1 3 3 3 4 5 5 7 10 9 9 9 13 11 9 9 9 12 14 14 15 15 15 15 15 15 14 8 3 0 0 0 0 0 0 0 0 0 0 0 0 0 0 0 0 0 0 0 0 0 0 0 0 0 0 0 0 0 0 0 0 0 0 0 0 0 0 0 0 0 0 0 0 0 0 0 0 0 0 0 0 0 0 0 0 0 0 0 0 0 0 0 0 0 0 0 0 0 0 0 0 0 0 0 0 0 0 0 0 0 0 0 0 0 0 0 0 0 0 0 0 0 0 0 0 0 0 0 0 0 0 0 0 0 0 0 0 0 0 0 0 0 0 0 0 0 0 0 0 0 0 0 0 0 0 0 0 0 0 0 0 0 0 0 0 0 0 0 0 0 0 0 0 0 0 0 0 0 0 0 0 0 0 0 0 0 0 0 0 0 0 0 0 0 0 0 0 0 0 0 0 0 0 0 0 0 0 0 0 0 0 0 0 0 0 0 0 0 0 0 0 0 0 0 0 0 0 0 0 0 0 0 0 0 0 0 0 0 0 0 0 0 0 0 0 0 0 0 0 0 0 0 0 0 0 0 0 0 0 0 0 0 0 0 0 0 0 0 0 0 0 0 0 0 0 0 0 0 0 0 0 0 0 0 0 0 0 0 0 0 0 0 0 0 0 0 0 0 0 0 0 0 0 0 0 0 0 0 0 0 0 0 0 0 0 0 0 0 0 0 0 0 0 0 0 0 0 0 0 0 0 0 0 0 0 0 0 0 0 0 0 0 0 0 0 0 0 0 0 0 0 0 0 0 0 0 0 0 0 0 0 0 0 0 0 0 0 0 0 0 0 0 0 0 0 0 0 0 0 0 0 0 0 0 0 0 0 0 0 0 0 0 0 0 0 0 0 0 0 0 0 0 0 0 0 0 0 0 0 0 0 0 0 0 0 0 0 0 0 0 0 0 0 0 0 0 0 0
19 19 20 20 19 17 17 20 20 17 15 12 12 12 12 12 13 13 13 14 17 28 37 38 33 24 17 12 11 11 11 11 11 11 11 13 16 18 20 20 19 19 20 19 17 16 16 16 16 17 17 16 16 16 16 16 15 15 15 15 15 16 17 17 17 17 18 20 25 26 27 27 27 27 27 26 27 27 27 27 27 27 27 27 27 27 26 26 27 27 27 27 27 27 27 26 27 27 27 27 27 26 27 27 27 27 27 27 27 27 27 27 27 27 27 26 27 27 27 27 27 27 27 27 27 27 27 27 27 27 27 27 27 26 26 26 27 26 26 26 27 26 26 29 36 41 44 46 47 47 47 45 42 43 42 43 43 40 33 30 29 28 27 25 23 23 24 27 30 30 32 32 31 29 28 25 24 22 22 22 22 22 23 26 27 27 27 26 26 26 26 26 27 27 27 28 29 28 28 28 27 26 25 23 23 24 26 28 35 43 49 47 41 40 41 43 46 48 49 47 45 41 33 27 27 25 20 20 20 20 20 20 25 30 30 23 20 20 20 20 20 20 21 27 32 36 39 43 43 42 38 41 46 49 52 53 53 53 53 53 55 56 55 52 47 42 39 36 35 35 35 35 35 35 36 37 38 37 36 34 33 34 33 35 36 37 38 39 40 39 38 39 38 37 32 26 26 26 27 31 34 31 27 26 23 21 20 18 18 17 18 19 18 17 21 23 23 24 25 28 30 30 29 25 24 25 26 19 13 11 11 11 11 11 11 11 13 14 14 12 9 8 8 8 8 8 8 8 16 22 23 23 23 23 24 23 21 17 12 11 11 10 11 14 18 21 20 20 19 16 15 14 14 16 14 13 14 13 11 8 8 8 7 6 5 5 5 4 2 0 0 0 0 0 0 0 0 2 2 2 2 6 12 16 18 20 20 20 18 15 14 14 14 14 14 14 14 14 13 13 12 11 11 10 10 10 10 11 12 13 13 13 18 20 19 14 14 13 13 13 14 14 13 11 11 11 11 11 12 13 13 13 12 12 12 13 13 14 13 11 10 10 9 8 7 7 7 6 6 6 6 6 6 5 5 5 5 5 7 12 17 18 18 18 13 10 6 0 0 0 0 0 0 0 0 0 0 0 0 0 0 0 0 0 0 0 0 0 0 0 0 0 0 0 1 3 3 3 4 5 5 7 11 10 9 9 9 9 9 9 9 13 15 14 15 15 15 15 16 17 14 9 3 0 0 0 0 0 0 0 0 0 0 0 0 0 0 0 0 0 0 0 0 0 0 0 0 0 0 0 0 0 0 0 0 0 0 0 0 0 0 0 0 0 0 0 0 0 0 0 0 0 0 0 0 0 0 0 0 0 0 0 0 0 0 0 0 0 0 0 0 0 0 0 0 0 0 0 0 0 0 0 0 0 0 0 0 0 0 0 0 0 0 0 0 0 0 0 0 0 0 0 0 0 0 0 0 0 0 0 0 0 0 0 0 0 0 0 0 0 0 0 0 0 0 0 0 0 0 0 0 0 0 0 0 0 0 0 0 0 0 0 0 0 0 0 0 0 0 0 0 0 0 0 0 0 0 0 0 0 0 0 0 0 0 0 0 0 0 0 0 0 0 0 0 0 0 0 0 0 0 0 0 0 0 0 0 0 0 0 0 0 0 0 0 0 0 0 0 0 0 0 0 0 0 0 0 0 0 0 0 0 0 0 0 0 0 0 0 0 0 0 0 0 0 0 0 0 0 0 0 0 0 0 0 0 0 0 0 0 0 0 0 0 0 0 0 0 0 0 0 0 0 0 0 0 0 0 0 0 0 0 0 0 0 0 0 0 0 0 0 0 0 0 0 0 0 0 0 0 0 0 0 0 0 0 0 0 0 0 0 0 0 0 0 0 0 0 0 0 0 0 0 0 0 0 0 0 0 0 0 0 0 0 0 0 0 0 0 0 0 0 0 0 0 0 0 0 0 0 0 0 0 0 0 0 0 0 0 0 0 0 0 0 0 0 0 0 0 0 0 0 0 0 0 0 0 0 0 0 0 0 0 0 0 0 0 0 0 0 0 0 0 0 0 0 0 0 0 0 0 0 0 0 0 0 0 0 0 0 0 0 0 0 0 0 0 0 0 0 0 0
17 18 19 19 18 16 15 15 15 14 13 12 12 12 12 12 12 13 13 14 20 29 36 37 31 21 12 11 11 11 11 11 11 11 11 13 15 18 20 19 18 18 18 17 16 16 16 17 17 17 17 16 16 16 15 15 15 15 15 15 15 16 17 17 17 17 17 20 26 26 27 27 27 27 27 26 27 27 27 27 27 27 27 27 27 27 27 27 27 27 27 27 27 27 27 27 27 27 27 27 27 27 27 27 27 26 27 27 26 26 26 27 27 27 27 27 27 27 27 27 27 27 27 27 27 27 27 27 27 27 27 27 27 26 26 26 27 26 26 26 27 26 26 27 29 32 38 41 39 37 36 35 33 32 32 33 33 31 30 29 28 27 26 24 23 23 25 29 30 30 34 35 32 31 30 29 26 23 21 21 21 22 27 30 29 28 27 26 26 26 26 26 27 27 28 28 28 28 28 28 27 27 26 26 25 25 25 27 31 41 48 45 39 39 42 44 45 45 44 45 43 40 32 26 26 23 20 19 20 20 22 25 32 34 31 27 23 20 20 20 20 20 21 27 29 35 39 42 44 43 38 39 45 48 51 52 53 53 53 53 53 56 56 55 54 47 39 35 35 35 35 34 35 35 36 38 38 38 37 33 32 32 32 34 35 36 37 37 38 37 37 38 38 36 30 27 27 26 26 26 29 31 27 23 23 22 19 18 17 17 16 14 14 15 20 22 22 22 24 25 30 32 32 30 26 20 22 18 12 11 11 11 11 11 11 12 14 15 15 13 11 11 13 11 8 7 7 8 15 18 18 17 17 17 19 19 15 13 12 10 10 10 10 13 16 14 13 14 15 14 14 14 14 13 8 7 8 11 10 8 8 8 8 6 5 4 4 2 1 0 0 0 0 0 0 0 0 3 5 6 8 8 12 16 18 19 20 19 16 15 14 14 14 14 14 14 14 14 14 14 14 12 11 10 10 10 10 11 12 12 13 13 17 20 19 14 14 13 13 13 14 14 12 11 11 11 12 13 14 15 16 17 15 13 11 11 12 14 14 11 10 10 9 8 7 6 6 6 6 6 6 6 5 5 5 5 5 5 7 11 15 18 19 19 13 9 5 0 0 0 0 0 0 0 0 0 0 0 0 0 0 0 0 0 0 0 0 0 0 0 0 0 0 0 2 3 3 4 4 5 5 6 9 10 9 9 9 9 9 9 9 13 17 14 14 15 15 17 19 17 14 8 1 0 0 0 0 0 0 0 0 0 0 0 0 0 0 0 0 0 0 0 0 0 0 0 0 0 0 0 0 0 0 0 0 0 0 0 0 0 0 0 0 0 0 0 0 0 0 0 0 0 0 0 0 0 0 0 0 0 0 0 0 0 0 0 0 0 0 0 0 0 0 0 0 0 0 0 0 0 0 0 0 0 0 0 0 0 0 0 0 0 0 0 0 0 0 0 0 0 0 0 0 0 0 0 0 0 0 0 0 0 0 0 0 0 0 0 0 0 0 0 0 0 0 0 0 0 0 0 0 0 0 0 0 0 0 0 0 0 0 0 0 0 0 0 0 0 0 0 0 0 0 0 0 0 0 0 0 0 0 0 0 0 0 0 0 0 0 0 0 0 0 0 0 0 0 0 0 0 0 0 0 0 0 0 0 0 0 0 0 0 0 0 0 0 0 0 0 0 0 0 0 0 0 0 0 0 0 0 0 0 0 0 0 0 0 0 0 0 0 0 0 0 0 0 0 0 0 0 0 0 0 0 0 0 0 0 0 0 0 0 0 0 0 0 0 0 0 0 0 0 0 0 0 0 0 0 0 0 0 0 0 0 0 0 0 0 0 0 0 0 0 0 0 0 0 0 0 0 0 0 0 0 0 0 0 0 0 0 0 0 0 0 0 0 0 0 0 0 0 0 0 0 0 0 0 0 0 0 0 0 0 0 0 0 0 0 0 0 0 0 0 0 0 0 0 0 0 0 0 0 0 0 0 0 0 0 0 0 0 0 0 0 0 0 0 0 0 0 0 0 0 0 0 0 0 0 0 0 0 0 0 0 0 0 0 0 0 0 0 0 0 0 0 0 0 0 0 0 0 0 0 0 0 0 0 0 0 0 0 0 0 0 0 0 0 0 0 0 0 0
17 18 17 17 17 15 15 15 15 14 13 12 12 12 12 12 12 13 13 15 22 28 33 32 25 17 12 11 11 11 11 11 11 11 11 12 15 17 19 18 16 15 15 15 15 16 16 17 17 17 17 17 17 17 15 15 15 16 16 17 17 17 17 17 17 17 17 20 26 26 26 27 27 27 27 27 27 27 27 27 27 26 26 27 27 27 27 27 27 27 27 27 26 26 26 27 27 26 26 26 27 27 27 27 27 26 27 27 27 26 27 27 27 27 27 27 27 28 28 28 27 27 28 27 27 27 27 27 27 27 27 27 27 27 27 27 27 26 26 26 27 27 27 27 27 27 29 30 28 27 27 27 27 27 27 27 28 28 27 27 27 26 25 24 24 25 26 29 29 31 38 39 37 35 33 31 29 26 22 21 21 22 28 30 30 28 27 26 26 26 26 26 27 28 28 29 28 27 27 27 27 27 27 26 26 26 26 27 30 38 47 43 38 39 42 43 39 37 39 43 40 34 30 25 24 22 19 19 20 22 27 29 34 34 30 27 24 21 20 20 20 20 23 27 29 33 37 40 44 44 40 38 42 46 49 51 52 52 53 53 53 53 56 56 55 53 47 37 34 34 34 34 35 35 35 37 38 40 39 34 32 32 31 31 32 33 34 35 34 35 36 36 34 34 27 27 28 27 26 25 24 25 24 22 21 21 18 18 17 17 17 14 14 14 16 19 21 22 24 25 26 30 31 29 27 22 14 13 11 11 11 11 11 10 10 12 17 19 18 16 14 15 16 11 8 7 7 7 9 12 12 14 16 16 17 15 8 7 7 9 10 10 8 8 10 9 9 10 11 12 12 12 13 9 5 5 5 7 8 8 8 9 8 6 4 2 1 0 0 0 0 0 0 0 0 0 0 2 6 9 13 12 13 15 17 18 18 19 17 16 15 14 14 15 15 15 15 15 15 15 14 14 12 11 11 11 11 11 12 12 13 13 14 14 14 14 14 14 13 13 14 14 13 12 12 13 13 15 17 19 21 20 17 15 12 11 11 13 12 10 9 9 9 8 7 6 6 6 6 5 5 5 5 5 5 5 5 5 9 12 15 19 20 20 17 12 5 0 0 0 0 0 0 0 0 0 0 0 0 0 0 0 0 0 0 0 0 0 0 0 0 0 0 0 2 3 3 4 4 8 7 7 8 9 9 9 9 9 9 9 9 13 17 14 14 14 16 19 20 17 13 7 0 0 0 0 0 0 0 0 0 0 0 0 0 0 0 0 0 0 0 0 0 0 0 0 0 0 0 0 0 0 0 0 0 0 0 0 0 0 0 0 0 0 0 0 0 0 0 0 0 0 0 0 0 0 0 0 0 0 0 0 0 0 0 0 0 0 0 0 0 0 0 0 0 0 0 0 0 0 0 0 0 0 0 0 0 0 0 0 0 0 0 0 0 0 0 0 0 0 0 0 0 0 0 0 0 0 0 0 0 0 0 0 0 0 0 0 0 0 0 0 0 0 0 0 0 0 0 0 0 0 0 0 0 0 0 0 0 0 0 0 0 0 0 0 0 0 0 0 0 0 0 0 0 0 0 0 0 0 0 0 0 0 0 0 0 0 0 0 0 0 0 0 0 0 0 0 0 0 0 0 0 0 0 0 0 0 0 0 0 0 0 0 0 0 0 0 0 0 0 0 0 0 0 0 0 0 0 0 0 0 0 0 0 0 0 0 0 0 0 0 0 0 0 0 0 0 0 0 0 0 0 0 0 0 0 0 0 0 0 0 0 0 0 0 0 0 0 0 0 0 0 0 0 0 0 0 0 0 0 0 0 0 0 0 0 0 0 0 0 0 0 0 0 0 0 0 0 0 0 0 0 0 0 0 0 0 0 0 0 0 0 0 0 0 0 0 0 0 0 0 0 0 0 0 0 0 0 0 0 0 0 0 0 0 0 0 0 0 0 0 0 0 0 0 0 0 0 0 0 0 0 0 0 0 0 0 0 0 0 0 0 0 0 0 0 0 0 0 0 0 0 0 0 0 0 0 0 0 0 0 0 0 0 0 0 0 0 0 0 0 0 0 0 0 0 0 0 0 0 0 0 0 0 0 0 0 0 0 0 0 0 0 0 0 0 0 0 0 0 0
17 18 17 17 15 15 15 15 15 14 13 12 12 12 12 12 12 12 13 15 20 23 28 28 20 13 11 11 11 11 11 11 11 11 11 12 14 16 16 16 14 14 14 14 15 16 16 17 17 18 18 18 17 17 15 15 16 16 16 17 17 16 16 16 17 17 17 21 26 26 26 27 27 27 27 27 27 27 27 27 26 26 26 27 27 27 27 27 27 27 27 27 26 26 27 27 27 27 26 27 27 27 27 27 27 27 27 27 28 30 31 32 30 33 34 34 34 34 35 35 33 33 35 35 34 34 33 33 33 32 31 29 27 27 27 27 27 27 27 27 27 27 27 27 27 27 27 26 25 25 25 25 25 25 25 25 26 26 26 26 26 25 25 25 25 26 27 28 28 32 40 40 39 36 33 31 29 26 23 22 21 21 25 29 29 28 27 26 26 27 28 27 28 29 29 29 28 27 27 27 27 27 26 26 26 26 26 27 30 36 46 40 38 40 42 41 36 35 38 40 35 31 27 24 22 21 19 20 20 24 29 31 32 29 28 24 24 24 22 20 20 21 25 27 29 30 34 39 44 43 40 38 39 43 46 50 51 51 52 53 53 53 53 55 55 53 47 41 34 34 34 35 35 35 35 35 37 40 40 36 32 32 32 31 31 31 31 31 31 32 35 34 31 29 27 26 26 27 27 25 23 23 22 22 21 20 18 17 17 17 16 14 14 14 14 14 15 19 25 27 27 27 27 27 25 22 13 11 11 11 11 11 11 10 10 11 17 19 19 18 17 16 16 10 7 7 8 7 7 8 8 10 12 13 13 10 5 4 4 8 10 11 8 8 8 8 9 9 9 9 8 7 6 5 4 4 4 6 7 8 11 12 9 6 3 0 0 0 0 0 0 0 0 0 0 0 1 2 4 8 10 11 13 14 16 17 18 18 18 17 16 16 15 15 15 16 16 16 15 15 15 15 13 11 11 11 11 11 12 12 13 13 14 13 13 14 14 13 13 13 13 13 13 13 13 14 14 16 17 20 21 20 17 15 13 11 11 11 10 10 9 9 9 8 7 6 6 6 6 5 5 5 5 5 5 5 5 5 9 15 18 19 20 20 20 13 4 0 0 0 0 0 0 0 0 0 0 0 0 0 0 0 0 0 0 0 0 0 0 0 0 0 0 1 3 4 4 4 5 10 9 8 8 8 9 9 9 9 9 9 9 13 17 15 13 13 15 18 18 15 11 7 1 0 0 0 0 0 0 0 0 0 0 0 0 0 0 0 0 0 0 0 0 0 0 0 0 0 0 0 0 0 0 0 0 0 0 0 0 0 0 0 0 0 0 0 0 0 0 0 0 0 0 0 0 0 0 0 0 0 0 0 0 0 0 0 0 0 0 0 0 0 0 0 0 0 0 0 0 0 0 0 0 0 0 0 0 0 0 0 0 0 0 0 0 0 0 0 0 0 0 0 0 0 0 0 0 0 0 0 0 0 0 0 0 0 0 0 0 0 0 0 0 0 0 0 0 0 0 0 0 0 0 0 0 0 0 0 0 0 0 0 0 0 0 0 0 0 0 0 0 0 0 0 0 0 0 0 0 0 0 0 0 0 0 0 0 0 0 0 0 0 0 0 0 0 0 0 0 0 0 0 0 0 0 0 0 0 0 0 0 0 0 0 0 0 0 0 0 0 0 0 0 0 0 0 0 0 0 0 0 0 0 0 0 0 0 0 0 0 0 0 0 0 0 0 0 0 0 0 0 0 0 0 0 0 0 0 0 0 0 0 0 0 0 0 0 0 0 0 0 0 0 0 0 0 0 0 0 0 0 0 0 0 0 0 0 0 0 0 0 0 0 0 0 0 0 0 0 0 0 0 0 0 0 0 0 0 0 0 0 0 0 0 0 0 0 0 0 0 0 0 0 0 0 0 0 0 0 0 0 0 0 0 0 0 0 0 0 0 0 0 0 0 0 0 0 0 0 0 0 0 0 0 0 0 0 0 0 0 0 0 0 0 0 0 0 0 0 0 0 0 0 0 0 0 0 0 0 0 0 0 0 0 0 0 0 0 0 0 0 0 0 0 0 0 0 0 0 0 0 0 0 0 0 0 0 0 0 0 0 0 0 0 0 0 0 0 0 0 0 0
20 19 18 17 15 15 15 15 15 14 14 13 12 12 12 12 12 12 12 13 14 15 19 19 14 11 11 11 11 11 11 11 11 11 11 12 14 13 13 14 14 13 14 14 15 16 17 17 18 20 21 20 18 17 15 15 16 16 16 16 17 16 16 16 17 17 17 22 26 27 27 27 27 27 27 27 27 27 27 27 26 26 26 26 26 27 27 27 27 27 27 27 27 27 28 28 29 28 28 28 28 30 32 33 31 30 29 31 32 34 35 36 35 40 43 44 44 43 43 43 41 39 41 43 44 43 43 42 42 41 39 36 35 38 38 37 32 31 32 30 31 29 28 27 27 27 27 27 27 26 26 26 25 25 25 24 25 25 25 25 25 25 25 25 25 26 26 26 25 28 35 40 37 33 31 31 29 26 24 22 20 20 21 25 29 29 28 31 31 36 38 37 32 29 29 29 28 27 27 27 27 27 26 26 26 27 27 29 32 35 42 38 38 41 41 37 36 35 35 34 32 29 27 23 20 20 20 21 22 27 32 33 30 27 24 24 25 26 26 26 26 26 27 27 29 29 30 36 39 42 41 38 38 39 42 46 48 49 49 51 52 52 51 51 51 51 47 42 35 35 35 34 35 35 35 35 35 38 40 37 33 35 36 36 34 32 31 31 31 30 30 30 27 25 25 25 26 27 27 23 23 23 23 25 26 23 19 17 17 18 16 14 14 14 14 14 14 15 23 27 28 27 24 23 19 18 12 11 11 11 11 11 11 10 11 11 11 15 17 18 17 15 13 8 8 10 12 13 10 8 6 5 7 7 7 5 2 2 2 5 7 9 10 11 9 7 8 8 8 6 6 5 3 3 4 4 5 7 9 12 15 17 12 5 3 0 0 0 0 0 0 0 0 1 1 1 1 2 3 3 4 5 5 12 15 17 17 18 18 18 18 18 17 17 16 16 16 16 16 16 16 16 15 14 13 12 12 12 12 13 13 13 14 13 13 13 13 13 13 13 13 13 13 14 15 16 17 17 17 19 20 20 17 13 11 11 11 11 10 9 9 9 9 8 7 6 6 6 6 5 5 5 5 5 5 5 5 5 9 15 18 18 17 19 20 12 1 0 0 0 0 0 0 0 0 0 0 0 0 0 0 0 0 0 0 0 0 0 0 0 0 0 0 3 5 5 5 5 5 6 8 8 8 9 9 9 9 9 9 9 9 10 15 14 12 12 12 16 16 14 9 6 0 0 0 0 0 0 0 0 0 0 0 0 0 0 0 0 0 0 0 0 0 0 0 0 0 0 0 0 0 0 0 0 0 0 0 0 0 0 0 0 0 0 0 0 0 0 0 0 0 0 0 0 0 0 0 0 0 0 0 0 0 0 0 0 0 0 0 0 0 0 0 0 0 0 0 0 0 0 0 0 0 0 0 0 0 0 0 0 0 0 0 0 0 0 0 0 0 0 0 0 0 0 0 0 0 0 0 0 0 0 0 0 0 0 0 0 0 0 0 0 0 0 0 0 0 0 0 0 0 0 0 0 0 0 0 0 0 0 0 0 0 0 0 0 0 0 0 0 0 0 0 0 0 0 0 0 0 0 0 0 0 0 0 0 0 0 0 0 0 0 0 0 0 0 0 0 0 0 0 0 0 0 0 0 0 0 0 0 0 0 0 0 0 0 0 0 0 0 0 0 0 0 0 0 0 0 0 0 0 0 0 0 0 0 0 0 0 0 0 0 0 0 0 0 0 0 0 0 0 0 0 0 0 0 0 0 0 0 0 0 0 0 0 0 0 0 0 0 0 0 0 0 0 0 0 0 0 0 0 0 0 0 0 0 0 0 0 0 0 0 0 0 0 0 0 0 0 0 0 0 0 0 0 0 0 0 0 0 0 0 0 0 0 0 0 0 0 0 0 0 0 0 0 0 0 0 0 0 0 0 0 0 0 0 0 0 0 0 0 0 0 0 0 0 0 0 0 0 0 0 0 0 0 0 0 0 0 0 0 0 0 0 0 0 0 0 0 0 0 0 0 0 0 0 0 0 0 0 0 0 0 0 0 0 0 0 0 0 0 0 0 0 0 0 0 0 0 0 0 0 0 0 0 0 0 0 0 0 0 0 0 0 0 0 0 0 0 0 0 0
25 21 19 19 16 15 15 15 15 14 14 13 12 12 12 11 12 12 12 12 12 11 11 11 11 11 11 10 10 10 11 11 11 11 11 12 13 13 13 13 14 13 14 15 16 16 17 18 20 22 23 21 20 18 15 15 15 15 15 16 16 16 16 16 17 17 17 22 26 26 26 27 27 27 27 27 27 27 27 26 26 26 27 26 26 27 27 27 27 27 27 27 28 30 32 33 34 34 32 35 36 38 39 38 35 36 34 35 35 35 36 37 37 39 45 48 47 48 49 50 49 45 43 45 49 48 47 47 47 44 43 43 42 44 44 44 40 38 40 38 40 38 36 30 29 32 32 32 32 30 28 28 28 27 25 24 25 25 25 25 25 25 25 25 25 25 25 25 24 24 27 31 32 31 30 30 29 26 25 22 20 20 20 22 29 29 29 36 40 42 46 45 35 28 28 28 28 27 27 27 26 26 26 26 26 27 27 29 32 35 37 36 38 41 40 37 37 36 37 37 37 34 27 23 20 20 20 22 27 32 33 32 28 24 24 24 25 26 26 26 26 26 26 26 29 29 28 29 33 38 40 38 38 38 39 41 45 47 47 49 50 50 49 49 51 50 50 48 39 36 35 34 35 35 35 35 35 36 38 37 36 41 44 45 43 38 33 31 31 31 30 30 26 26 25 25 25 25 25 23 23 25 27 28 33 31 26 18 17 19 15 14 14 14 14 14 14 14 16 23 26 23 18 15 11 12 11 11 11 11 11 11 11 10 11 11 11 11 11 16 16 14 9 8 10 15 17 18 18 13 8 5 4 4 3 3 2 2 2 3 5 7 9 11 11 5 6 6 5 4 4 3 2 2 3 3 5 8 13 16 18 17 12 4 2 0 0 0 0 0 0 1 1 1 1 2 2 2 2 2 2 3 5 12 15 17 17 18 18 18 18 18 18 17 16 16 16 16 15 15 15 15 17 16 14 13 13 13 13 13 13 13 13 13 13 12 12 12 12 13 13 13 13 16 17 18 18 18 17 17 18 18 18 13 11 11 11 10 10 9 9 9 8 8 7 6 6 6 6 6 5 5 5 5 5 5 5 5 7 14 17 16 15 17 16 9 0 0 0 0 0 0 0 0 0 0 0 0 0 0 0 0 0 0 0 0 0 0 0 0 0 0 1 3 5 5 5 5 5 6 8 8 9 9 8 9 9 9 8 8 9 9 11 11 11 11 12 14 15 14 8 5 0 0 0 0 0 0 0 0 0 0 0 0 0 0 0 0 0 0 0 0 0 0 0 0 0 0 0 0 0 0 0 0 0 0 0 0 0 0 0 0 0 0 0 0 0 0 0 0 0 0 0 0 0 0 0 0 0 0 0 0 0 0 0 0 0 0 0 0 0 0 0 0 0 0 0 0 0 0 0 0 0 0 0 0 0 0 0 0 0 0 0 0 0 0 0 0 0 0 0 0 0 0 0 0 0 0 0 0 0 0 0 0 0 0 0 0 0 0 0 0 0 0 0 0 0 0 0 0 0 0 0 0 0 0 0 0 0 0 0 0 0 0 0 0 0 0 0 0 0 0 0 0 0 0 0 0 0 0 0 0 0 0 0 0 0 0 0 0 0 0 0 0 0 0 0 0 0 0 0 0 0 0 0 0 0 0 0 0 0 0 0 0 0 0 0 0 0 0 0 0 0 0 0 0 0 0 0 0 0 0 0 0 0 0 0 0 0 0 0 0 0 0 0 0 0 0 0 0 0 0 0 0 0 0 0 0 0 0 0 0 0 0 0 0 0 0 0 0 0 0 0 0 0 0 0 0 0 0 0 0 0 0 0 0 0 0 0 0 0 0 0 0 0 0 0 0 0 0 0 0 0 0 0 0 0 0 0 0 0 0 0 0 0 0 0 0 0 0 0 0 0 0 0 0 0 0 0 0 0 0 0 0 0 0 0 0 0 0 0 0 0 0 0 0 0 0 0 0 0 0 0 0 0 0 0 0 0 0 0 0 0 0 0 0 0 0 0 0 0 0 0 0 0 0 0 0 0 0 0 0 0 0 0 0 0 0 0 0 0 0 0 0 0 0 0 0 0 0 0 0 0 0 0 0 0 0 0 0 0 0 0 0 0 0 0 0 0 0 0 0
24 22 22 20 19 17 17 17 16 16 15 14 13 12 12 11 11 12 12 12 12 11 11 11 11 11 11 10 10 10 11 11 11 11 11 12 13 14 14 14 15 16 16 17 17 17 18 20 23 25 24 22 21 20 16 15 15 15 15 15 16 16 16 16 17 17 18 23 26 26 26 26 27 27 27 27 27 27 27 26 26 27 28 28 27 28 29 27 28 30 28 28 29 31 35 37 39 39 39 41 42 43 43 42 40 40 38 39 37 37 37 39 40 38 41 44 45 47 49 51 49 45 44 44 47 48 48 48 48 48 48 49 50 50 49 47 44 42 45 45 46 44 41 37 35 37 37 35 36 35 35 35 35 33 29 25 25 25 25 25 25 25 25 25 25 25 24 23 22 23 25 27 28 29 29 29 29 27 26 23 20 20 20 20 27 29 30 40 45 48 48 45 34 28 28 28 28 27 27 27 26 26 26 26 26 27 29 31 32 35 36 36 38 40 39 38 38 39 40 40 39 38 32 25 21 20 20 25 33 34 32 29 23 23 23 24 24 25 25 25 25 25 25 25 28 28 27 28 30 36 40 41 39 38 39 39 41 43 46 47 48 48 47 47 49 52 51 48 41 39 39 38 36 37 38 35 35 35 35 36 38 41 43 47 49 48 40 33 33 33 34 36 34 28 25 25 25 24 24 23 23 26 31 32 35 36 32 23 19 16 14 14 14 15 15 14 14 14 14 17 20 19 13 11 10 10 10 11 11 11 11 11 11 10 11 11 11 11 11 11 12 9 8 9 15 21 22 22 25 24 16 9 7 5 3 3 3 2 2 2 3 5 6 5 6 2 2 2 2 2 2 1 1 1 1 2 5 8 13 17 18 15 7 3 1 0 0 0 0 2 2 2 2 2 2 3 3 2 2 2 2 2 5 11 15 17 17 18 18 18 18 18 17 17 16 16 16 15 15 15 15 15 19 19 16 14 14 13 13 13 13 13 13 13 12 12 12 12 12 12 13 13 13 16 17 18 19 20 18 18 18 18 18 13 12 11 11 10 10 9 9 9 8 8 7 7 7 6 6 6 6 6 6 5 5 5 5 5 5 9 12 13 12 13 9 2 0 0 0 0 0 0 0 0 0 0 0 0 0 0 0 0 0 0 0 0 0 0 0 0 0 0 2 3 5 6 6 7 8 10 10 10 10 9 8 8 8 8 8 8 9 9 10 10 11 11 11 12 12 11 4 2 0 0 0 0 0 0 0 0 0 0 0 0 0 0 0 0 0 0 0 0 0 0 0 0 0 0 0 0 0 0 0 0 0 0 0 0 0 0 0 0 0 0 0 0 0 0 0 0 0 0 0 0 0 0 0 0 0 0 0 0 0 0 0 0 0 0 0 0 0 0 0 0 0 0 0 0 0 0 0 0 0 0 0 0 0 0 0 0 0 0 0 0 0 0 0 0 0 0 0 0 0 0 0 0 0 0 0 0 0 0 0 0 0 0 0 0 0 0 0 0 0 0 0 0 0 0 0 0 0 0 0 0 0 0 0 0 0 0 0 0 0 0 0 0 0 0 0 0 0 0 0 0 0 0 0 0 0 0 0 0 0 0 0 0 0 0 0 0 0 0 0 0 0 0 0 0 0 0 0 0 0 0 0 0 0 0 0 0 0 0 0 0 0 0 0 0 0 0 0 0 0 0 0 0 0 0 0 0 0 0 0 0 0 0 0 0 0 0 0 0 0 0 0 0 0 0 0 0 0 0 0 0 0 0 0 0 0 0 0 0 0 0 0 0 0 0 0 0 0 0 0 0 0 0 0 0 0 0 0 0 0 0 0 0 0 0 0 0 0 0 0 0 0 0 0 0 0 0 0 0 0 0 0 0 0 0 0 0 0 0 0 0 0 0 0 0 0 0 0 0 0 0 0 0 0 0 0 0 0 0 0 0 0 0 0 0 0 0 0 0 0 0 0 0 0 0 0 0 0 0 0 0 0 0 0 0 0 0 0 0 0 0 0 0 0 0 0 0 0 0 0 0 0 0 0 0 0 0 0 0 0 0 0 0 0 0 0 0 0 0 0 0 0 0 0 0 0 0 0 0 0 0 0 0 0 0 0 0 0 0 0 0 0 0 0 0 0 0 0 0
22 22 22 21 20 20 22 22 19 18 17 14 13 13 13 12 11 11 11 11 11 11 11 11 11 11 11 11 11 11 11 11 11 11 11 12 13 14 15 15 16 17 17 17 17 18 21 22 24 26 23 23 23 21 18 15 14 15 15 15 16 16 16 16 17 17 18 23 26 26 26 26 27 27 27 27 27 27 27 27 27 27 29 29 29 30 31 32 35 35 33 33 32 33 36 38 41 42 44 46 47 47 47 44 44 44 43 42 39 39 40 44 45 42 43 46 47 48 49 52 51 46 44 44 46 48 48 48 49 52 55 57 57 54 51 48 46 44 46 47 47 45 43 40 37 40 42 42 45 45 45 44 43 41 36 31 28 25 25 25 25 25 25 25 25 25 24 22 20 20 20 24 27 27 28 29 29 27 26 25 20 20 20 20 28 29 31 42 48 48 46 42 32 27 27 27 27 27 27 27 27 26 26 27 27 28 30 32 34 36 37 38 40 41 40 39 39 40 42 44 45 45 38 28 24 20 21 32 36 35 32 29 23 23 23 24 24 24 24 22 22 22 22 23 26 27 27 27 29 33 37 40 39 37 38 39 40 41 43 46 47 47 46 45 45 49 50 47 41 39 39 40 41 44 43 39 35 35 34 34 36 37 40 42 46 49 47 39 38 38 40 42 41 35 26 26 29 28 27 27 24 27 32 33 35 37 37 28 20 17 14 14 14 16 15 15 15 15 15 16 16 16 12 11 11 11 11 11 11 11 11 11 11 11 10 10 10 11 11 10 10 9 9 14 20 27 28 28 32 36 28 17 13 11 6 5 5 3 2 2 2 2 2 1 1 1 1 1 1 1 1 1 1 1 1 1 3 6 9 13 13 7 3 1 1 1 2 3 3 3 3 3 3 3 3 3 4 6 4 2 2 2 2 9 16 17 17 18 18 17 17 17 17 17 16 16 16 15 14 14 14 14 15 16 14 14 14 14 13 13 13 13 12 12 12 11 11 12 12 12 12 12 13 15 17 20 20 21 17 17 18 18 15 14 14 12 11 11 9 9 8 8 8 7 7 7 7 7 6 6 6 6 6 5 5 5 5 5 5 5 6 8 11 8 4 3 0 0 0 0 0 0 0 0 0 0 0 0 0 0 0 0 0 0 0 0 0 0 0 0 0 1 3 4 5 5 6 7 10 14 14 13 13 10 8 8 8 8 8 8 9 10 11 11 11 11 11 12 12 9 2 0 0 0 0 0 0 0 0 0 0 0 0 0 0 0 0 0 0 0 0 0 0 0 0 0 0 0 0 0 0 0 0 0 0 0 0 0 0 0 0 0 0 0 0 0 0 0 0 0 0 0 0 0 0 0 0 0 0 0 0 0 0 0 0 0 0 0 0 0 0 0 0 0 0 0 0 0 0 0 0 0 0 0 0 0 0 0 0 0 0 0 0 0 0 0 0 0 0 0 0 0 0 0 0 0 0 0 0 0 0 0 0 0 0 0 0 0 0 0 0 0 0 0 0 0 0 0 0 0 0 0 0 0 0 0 0 0 0 0 0 0 0 0 0 0 0 0 0 0 0 0 0 0 0 0 0 0 0 0 0 0 0 0 0 0 0 0 0 0 0 0 0 0 0 0 0 0 0 0 0 0 0 0 0 0 0 0 0 0 0 0 0 0 0 0 0 0 0 0 0 0 0 0 0 0 0 0 0 0 0 0 0 0 0 0 0 0 0 0 0 0 0 0 0 0 0 0 0 0 0 0 0 0 0 0 0 0 0 0 0 0 0 0 0 0 0 0 0 0 0 0 0 0 0 0 0 0 0 0 0 0 0 0 0 0 0 0 0 0 0 0 0 0 0 0 0 0 0 0 0 0 0 0 0 0 0 0 0 0 0 0 0 0 0 0 0 0 0 0 0 0 0 0 0 0 0 0 0 0 0 0 0 0 0 0 0 0 0 0 0 0 0 0 0 0 0 0 0 0 0 0 0 0 0 0 0 0 0 0 0 0 0 0 0 0 0 0 0 0 0 0 0 0 0 0 0 0 0 0 0 0 0 0 0 0 0 0 0 0 0 0 0 0 0 0 0 0 0 0 0 0 0 0 0 0 0 0 0 0 0 0 0 0 0 0 0 0 0 0 0 0
21 21 21 21 21 22 26 26 23 21 18 14 13 12 13 12 11 11 11 11 11 12 12 11 12 13 12 11 11 11 11 11 11 11 11 12 13 14 16 17 17 17 17 17 17 18 20 21 21 21 22 23 23 23 20 16 14 15 15 15 15 16 17 17 17 17 18 24 26 27 27 27 27 27 26 26 27 27 27 27 27 27 30 31 32 32 35 37 37 37 37 37 37 37 38 40 42 44 49 50 50 50 48 47 47 47 46 45 43 43 45 49 49 47 48 50 51 51 53 56 53 49 49 49 50 49 50 49 52 56 60 59 57 53 49 48 47 47 48 49 50 49 48 42 39 43 45 47 52 52 52 50 50 48 44 40 34 30 26 26 26 26 26 26 26 25 24 23 21 20 20 20 25 26 26 27 28 27 26 25 20 19 20 20 28 30 34 44 47 47 45 40 29 26 26 26 27 26 26 26 27 26 26 27 30 32 32 34 37 37 41 41 42 41 40 38 41 44 47 51 53 52 42 30 26 20 21 38 40 36 33 31 25 24 24 24 25 24 22 22 22 21 22 23 24 26 27 27 28 32 35 37 38 37 37 38 39 41 41 42 43 45 46 44 42 43 46 42 39 38 38 38 41 44 43 42 37 36 34 33 34 36 39 41 44 46 46 43 41 41 44 46 47 41 32 26 28 32 33 32 29 29 31 33 34 33 30 26 21 19 17 14 14 15 16 17 17 17 15 14 13 12 11 11 11 11 10 10 10 10 10 11 10 11 10 10 10 11 11 11 11 9 11 17 24 33 35 36 35 36 34 25 19 15 10 7 7 5 2 2 2 1 1 1 1 1 1 1 1 1 2 2 2 2 1 1 1 3 4 5 4 3 1 1 3 3 3 4 5 6 5 6 5 5 5 5 5 6 9 7 5 4 2 9 17 18 18 18 18 17 17 17 17 17 16 16 16 15 14 14 14 14 14 14 14 13 13 13 13 13 13 13 12 12 11 11 11 12 12 12 12 12 13 16 18 20 20 20 16 16 17 18 15 14 16 13 12 11 9 9 8 8 8 7 7 7 7 7 6 6 6 6 5 5 5 5 5 4 4 4 5 5 6 5 4 3 3 0 0 0 0 0 0 0 0 0 0 0 0 0 0 0 0 0 0 0 0 0 0 0 1 4 5 5 5 5 5 8 11 14 15 15 14 10 7 7 7 7 8 8 10 11 11 12 12 12 12 12 12 7 3 0 0 0 0 0 0 0 0 0 0 0 0 0 0 0 0 0 0 0 0 0 0 0 0 0 0 0 0 0 0 0 0 0 0 0 0 0 0 0 0 0 0 0 0 0 0 0 0 0 0 0 0 0 0 0 0 0 0 0 0 0 0 0 0 0 0 0 0 0 0 0 0 0 0 0 0 0 0 0 0 0 0 0 0 0 0 0 0 0 0 0 0 0 0 0 0 0 0 0 0 0 0 0 0 0 0 0 0 0 0 0 0 0 0 0 0 0 0 0 0 0 0 0 0 0 0 0 0 0 0 0 0 0 0 0 0 0 0 0 0 0 0 0 0 0 0 0 0 0 0 0 0 0 0 0 0 0 0 0 0 0 0 0 0 0 0 0 0 0 0 0 0 0 0 0 0 0 0 0 0 0 0 0 0 0 0 0 0 0 0 0 0 0 0 0 0 0 0 0 0 0 0 0 0 0 0 0 0 0 0 0 0 0 0 0 0 0 0 0 0 0 0 0 0 0 0 0 0 0 0 0 0 0 0 0 0 0 0 0 0 0 0 0 0 0 0 0 0 0 0 0 0 0 0 0 0 0 0 0 0 0 0 0 0 0 0 0 0 0 0 0 0 0 0 0 0 0 0 0 0 0 0 0 0 0 0 0 0 0 0 0 0 0 0 0 0 0 0 0 0 0 0 0 0 0 0 0 0 0 0 0 0 0 0 0 0 0 0 0 0 0 0 0 0 0 0 0 0 0 0 0 0 0 0 0 0 0 0 0 0 0 0 0 0 0 0 0 0 0 0 0 0 0 0 0 0 0 0 0 0 0 0 0 0 0 0 0 0 0 0 0 0 0 0 0 0 0 0 0 0 0 0 0 0 0 0 0 0 0 0 0 0 0 0 0 0 0 0 0 0 0
21 20 20 20 21 23 29 31 27 24 18 14 11 11 11 11 11 11 11 11 11 13 11 11 13 18 15 11 11 11 11 11 11 11 11 11 13 14 16 17 17 17 17 17 17 17 18 17 17 18 22 25 23 23 20 16 14 15 15 15 15 16 17 17 17 17 18 23 26 26 27 27 27 27 26 26 27 27 27 27 27 27 30 32 34 36 37 40 41 40 42 43 43 42 41 41 44 47 52 55 54 51 50 51 52 52 51 49 50 50 50 53 54 53 54 56 57 57 58 60 56 56 56 56 54 52 54 54 56 60 61 60 57 51 49 48 49 50 50 50 50 49 48 43 42 44 46 52 58 58 57 56 53 51 49 46 41 34 30 27 26 26 27 27 27 26 25 24 22 20 20 20 21 24 25 25 25 25 25 21 20 19 20 24 28 31 38 45 46 46 44 36 26 26 26 26 27 26 26 26 26 26 26 26 30 34 33 34 36 37 41 43 43 41 39 38 42 48 50 53 54 52 42 30 25 20 21 38 43 38 34 32 29 26 24 25 25 23 22 22 22 21 22 23 24 26 27 27 27 31 34 36 38 36 36 38 40 41 41 40 39 38 38 39 39 40 40 35 36 38 38 39 41 44 44 45 42 39 35 34 32 34 37 39 42 44 44 43 42 43 44 46 47 45 42 31 28 30 32 32 30 29 28 27 27 25 23 23 22 24 22 14 14 14 15 17 17 16 15 14 13 12 11 11 11 11 10 10 10 10 10 10 10 11 11 11 11 11 11 11 10 10 14 20 25 35 38 38 34 31 29 24 25 22 14 10 7 5 3 2 2 1 1 1 1 1 2 3 4 5 5 5 5 5 3 1 1 1 1 1 2 1 1 2 3 3 4 5 8 11 9 7 5 5 5 5 5 5 7 11 13 13 12 15 17 18 19 18 18 17 17 17 17 17 17 16 16 15 14 14 14 14 14 14 14 13 13 13 12 13 12 12 12 12 12 12 12 12 12 12 12 12 12 15 17 18 17 17 15 15 17 19 19 18 16 13 11 10 9 8 8 8 8 7 7 7 7 6 5 5 5 5 5 5 5 4 4 4 4 4 4 4 4 4 4 3 3 3 1 0 0 0 0 0 0 0 0 0 0 0 0 0 0 0 0 0 0 0 0 2 4 4 5 5 5 5 5 9 11 13 14 14 13 9 7 7 7 7 8 8 10 11 12 12 12 12 12 12 11 7 4 0 0 0 0 0 0 0 0 0 0 0 0 0 0 0 0 0 0 0 0 0 0 0 0 0 0 0 0 0 0 0 0 0 0 0 0 0 0 0 0 0 0 0 0 0 0 0 0 0 0 0 0 0 0 0 0 0 0 0 0 0 0 0 0 0 0 0 0 0 0 0 0 0 0 0 0 0 0 0 0 0 0 0 0 0 0 0 0 0 0 0 0 0 0 0 0 0 0 0 0 0 0 0 0 0 0 0 0 0 0 0 0 0 0 0 0 0 0 0 0 0 0 0 0 0 0 0 0 0 0 0 0 0 0 0 0 0 0 0 0 0 0 0 0 0 0 0 0 0 0 0 0 0 0 0 0 0 0 0 0 0 0 0 0 0 0 0 0 0 0 0 0 0 0 0 0 0 0 0 0 0 0 0 0 0 0 0 0 0 0 0 0 0 0 0 0 0 0 0 0 0 0 0 0 0 0 0 0 0 0 0 0 0 0 0 0 0 0 0 0 0 0 0 0 0 0 0 0 0 0 0 0 0 0 0 0 0 0 0 0 0 0 0 0 0 0 0 0 0 0 0 0 0 0 0 0 0 0 0 0 0 0 0 0 0 0 0 0 0 0 0 0 0 0 0 0 0 0 0 0 0 0 0 0 0 0 0 0 0 0 0 0 0 0 0 0 0 0 0 0 0 0 0 0 0 0 0 0 0 0 0 0 0 0 0 0 0 0 0 0 0 0 0 0 0 0 0 0 0 0 0 0 0 0 0 0 0 0 0 0 0 0 0 0 0 0 0 0 0 0 0 0 0 0 0 0 0 0 0 0 0 0 0 0 0 0 0 0 0 0 0 0 0 0 0 0 0 0 0 0 0 0 0 0 0 0 0 0 0 0 0 0 0 0 0 0 0 0 0 0 0
24 20 20 20 20 23 30 31 29 23 18 15 12 11 11 11 11 11 11 11 11 13 11 11 14 21 19 15 11 11 11 11 11 11 11 11 13 14 16 17 17 17 16 16 16 15 15 14 16 18 22 24 23 20 18 15 14 15 15 15 15 16 17 17 17 18 22 22 25 26 27 27 27 27 27 27 26 26 26 26 26 27 30 32 34 37 40 45 46 45 45 48 49 46 43 44 47 49 53 55 55 54 54 56 55 57 58 57 55 55 55 57 58 59 61 63 63 61 62 61 59 59 58 57 56 56 58 58 61 64 63 61 57 51 50 50 51 53 52 51 50 49 48 44 45 46 49 54 58 59 58 57 55 53 50 48 42 36 33 29 27 28 28 28 28 28 27 27 23 22 20 20 20 20 22 22 22 22 20 20 20 19 20 26 28 31 38 43 44 46 41 34 26 26 26 26 26 26 26 26 26 26 26 26 28 30 31 31 33 34 40 43 43 39 36 37 43 48 52 53 53 49 39 28 24 20 21 34 45 43 38 35 31 28 26 26 25 22 22 21 21 21 23 24 26 26 27 27 27 28 31 34 34 35 36 37 40 43 43 45 41 38 38 37 37 37 34 33 36 38 39 40 41 44 46 47 46 42 39 36 32 32 35 35 38 38 37 39 41 42 43 43 45 44 44 40 28 26 29 31 31 30 28 25 24 24 25 24 24 24 22 15 14 14 14 15 16 14 14 14 14 14 12 12 11 11 11 11 11 11 11 10 10 10 10 10 11 11 11 10 9 11 16 21 25 34 36 36 32 31 29 24 25 24 18 12 8 5 4 2 2 1 1 1 2 3 5 7 8 8 9 10 12 11 8 3 2 2 2 1 1 1 1 3 4 4 5 8 13 13 11 10 8 5 5 5 5 5 5 6 14 16 16 18 19 20 20 19 18 18 18 18 17 17 18 17 16 15 14 14 14 14 14 14 13 13 13 13 12 13 12 12 12 12 12 12 12 12 12 12 12 12 12 11 15 16 14 12 11 11 16 19 19 16 12 11 11 10 9 8 8 8 8 7 7 7 7 6 5 5 5 5 5 5 4 4 4 4 4 4 4 4 4 4 3 3 3 3 2 0 0 0 0 0 0 0 0 0 0 0 0 0 0 0 0 0 0 0 0 4 5 5 5 4 4 5 5 9 10 11 12 12 10 8 7 7 7 7 8 9 11 11 12 12 12 12 12 12 10 7 4 0 0 0 0 0 0 0 0 0 0 0 0 0 0 0 0 0 0 0 0 0 0 0 0 0 0 0 0 0 0 0 0 0 0 0 0 0 0 0 0 0 0 0 0 0 0 0 0 0 0 0 0 0 0 0 0 0 0 0 0 0 0 0 0 0 0 0 0 0 0 0 0 0 0 0 0 0 0 0 0 0 0 0 0 0 0 0 0 0 0 0 0 0 0 0 0 0 0 0 0 0 0 0 0 0 0 0 0 0 0 0 0 0 0 0 0 0 0 0 0 0 0 0 0 0 0 0 0 0 0 0 0 0 0 0 0 0 0 0 0 0 0 0 0 0 0 0 0 0 0 0 0 0 0 0 0 0 0 0 0 0 0 0 0 0 0 0 0 0 0 0 0 0 0 0 0 0 0 0 0 0 0 0 0 0 0 0 0 0 0 0 0 0 0 0 0 0 0 0 0 0 0 0 0 0 0 0 0 0 0 0 0 0 0 0 0 0 0 0 0 0 0 0 0 0 0 0 0 0 0 0 0 0 0 0 0 0 0 0 0 0 0 0 0 0 0 0 0 0 0 0 0 0 0 0 0 0 0 0 0 0 0 0 0 0 0 0 0 0 0 0 0 0 0 0 0 0 0 0 0 0 0 0 0 0 0 0 0 0 0 0 0 0 0 0 0 0 0 0 0 0 0 0 0 0 0 0 0 0 0 0 0 0 0 0 0 0 0 0 0 0 0 0 0 0 0 0 0 0 0 0 0 0 0 0 0 0 0 0 0 0 0 0 0 0 0 0 0 0 0 0 0 0 0 0 0 0 0 0 0 0 0 0 0 0 0 0 0 0 0 0 0 0 0 0 0 0 0 0 0 0 0 0 0 0 0 0 0 0 0 0 0 0 0 0 0 0 0 0 0 0
28 22 20 20 19 23 28 27 26 22 20 18 15 15 13 11 11 11 11 11 11 12 11 13 18 24 24 23 17 11 11 11 11 11 11 11 13 14 16 16 16 18 17 16 15 14 13 13 15 17 19 19 18 16 16 14 14 15 15 15 16 17 17 17 18 21 24 26 26 27 27 27 27 27 27 27 26 26 26 26 26 27 27 30 34 37 44 47 48 48 49 50 50 48 45 46 47 50 53 55 56 56 56 57 58 61 63 63 61 59 58 59 63 65 67 67 67 66 66 64 63 59 58 58 58 59 59 62 66 69 66 63 58 54 51 50 52 55 55 51 49 47 46 45 46 46 48 51 53 55 55 56 55 53 50 48 43 37 35 32 31 30 29 29 30 30 29 28 26 24 21 20 20 20 20 20 20 20 20 20 20 19 20 24 27 29 35 36 40 41 36 30 25 25 25 25 26 26 26 26 26 25 25 25 26 28 29 28 30 31 38 42 42 36 35 37 42 47 51 53 50 44 34 27 23 19 20 31 44 43 41 39 34 31 31 27 25 23 22 21 21 21 23 25 26 26 26 26 26 28 28 30 34 35 36 38 38 42 44 45 44 41 38 38 39 37 31 32 35 37 39 40 41 43 45 46 47 46 43 39 35 32 32 32 33 32 33 38 40 41 42 42 42 42 40 39 32 26 28 30 31 30 28 25 25 25 26 25 24 24 23 16 14 14 14 14 14 14 14 16 19 20 18 18 16 13 11 11 11 11 11 11 11 10 10 10 11 11 10 10 10 12 16 21 25 30 35 35 30 25 24 20 22 22 18 13 8 5 4 2 2 2 2 2 3 6 9 10 12 13 15 18 18 15 10 4 3 2 2 2 2 2 2 3 4 5 7 14 18 21 17 13 11 6 5 5 5 5 6 6 12 16 17 19 20 20 20 19 18 18 18 18 18 19 19 18 17 15 14 14 14 14 14 13 13 13 13 13 13 13 12 12 12 12 12 12 12 12 12 12 12 12 11 11 11 11 11 10 11 11 12 14 13 11 11 11 11 10 9 8 8 8 8 7 7 7 7 6 5 5 5 5 5 4 4 4 4 4 4 3 3 3 3 3 2 2 2 2 1 0 0 0 0 0 0 0 0 0 0 0 0 0 0 0 0 0 0 0 0 3 4 5 4 3 3 4 4 7 8 10 11 10 9 7 7 7 7 8 8 11 12 12 12 13 12 11 11 11 9 6 1 0 0 0 0 0 0 0 0 0 0 0 0 0 0 0 0 0 0 0 0 0 0 0 0 0 0 0 0 0 0 0 0 0 0 0 0 0 0 0 0 0 0 0 0 0 0 0 0 0 0 0 0 0 0 0 0 0 0 0 0 0 0 0 0 0 0 0 0 0 0 0 0 0 0 0 0 0 0 0 0 0 0 0 0 0 0 0 0 0 0 0 0 0 0 0 0 0 0 0 0 0 0 0 0 0 0 0 0 0 0 0 0 0 0 0 0 0 0 0 0 0 0 0 0 0 0 0 0 0 0 0 0 0 0 0 0 0 0 0 0 0 0 0 0 0 0 0 0 0 0 0 0 0 0 0 0 0 0 0 0 0 0 0 0 0 0 0 0 0 0 0 0 0 0 0 0 0 0 0 0 0 0 0 0 0 0 0 0 0 0 0 0 0 0 0 0 0 0 0 0 0 0 0 0 0 0 0 0 0 0 0 0 0 0 0 0 0 0 0 0 0 0 0 0 0 0 0 0 0 0 0 0 0 0 0 0 0 0 0 0 0 0 0 0 0 0 0 0 0 0 0 0 0 0 0 0 0 0 0 0 0 0 0 0 0 0 0 0 0 0 0 0 0 0 0 0 0 0 0 0 0 0 0 0 0 0 0 0 0 0 0 0 0 0 0 0 0 0 0 0 0 0 0 0 0 0 0 0 0 0 0 0 0 0 0 0 0 0 0 0 0 0 0 0 0 0 0 0 0 0 0 0 0 0 0 0 0 0 0 0 0 0 0 0 0 0 0 0 0 0 0 0 0 0 0 0 0 0 0 0 0 0 0 0 0 0 0 0 0 0 0 0 0 0 0 0 0 0 0 0 0 0 0 0 0 0 0 0 0 0 0 0 0 0 0 0 0 0 0 0 0
32 26 22 20 19 20 22 22 24 23 21 19 17 18 15 11 11 11 11 11 11 11 11 13 23 29 32 32 21 12 11 11 11 11 11 11 13 14 14 15 17 19 18 17 14 14 13 13 13 15 15 15 15 14 14 14 15 15 15 15 16 17 17 18 21 24 29 30 29 28 27 27 27 27 27 27 27 27 27 27 27 27 27 27 28 34 44 46 47 48 49 49 50 48 47 47 49 51 54 55 57 58 59 60 63 67 68 67 65 61 60 62 68 70 70 67 66 65 66 66 63 58 57 59 62 61 63 66 72 75 71 67 64 61 57 53 55 58 56 51 49 48 48 47 47 47 48 49 50 53 53 54 53 52 49 47 43 40 38 35 35 35 32 32 34 33 32 30 30 29 27 23 20 20 20 20 20 20 20 20 20 20 20 20 24 26 28 29 32 32 28 26 23 23 24 25 26 26 26 26 26 25 25 25 25 26 26 26 26 27 33 38 37 34 35 37 41 46 49 50 46 37 30 25 22 19 20 27 40 41 41 40 38 37 37 30 26 23 22 22 22 22 23 26 26 26 26 26 26 28 29 31 34 36 38 39 38 38 40 42 42 43 38 40 42 37 30 30 34 36 37 39 40 42 44 46 46 46 45 43 40 35 32 32 31 31 34 37 39 40 41 41 37 38 38 37 32 26 26 26 26 26 25 25 24 24 24 23 21 19 19 17 16 14 14 14 14 14 17 20 21 23 21 20 18 18 14 11 11 11 11 11 11 10 10 10 11 12 10 10 13 15 17 22 26 29 29 26 23 18 17 14 18 18 13 10 8 6 5 3 3 3 3 3 4 8 10 14 17 19 22 21 18 15 8 4 3 2 2 2 2 2 2 3 4 6 14 21 26 24 20 14 13 10 10 8 6 8 11 11 16 17 18 20 20 21 21 20 20 19 19 17 17 18 19 18 17 15 14 14 14 14 13 13 13 13 13 13 13 12 12 12 12 12 12 12 12 12 12 12 12 12 11 10 10 10 10 10 10 10 11 11 11 12 11 11 11 10 9 9 8 8 8 8 7 7 7 6 5 5 5 5 5 4 4 4 4 4 3 3 3 3 3 2 2 1 0 0 0 0 0 0 0 0 0 0 0 0 0 0 0 0 0 0 0 0 0 0 0 0 1 1 3 2 2 3 3 5 7 9 9 9 7 6 6 7 7 8 9 11 12 12 12 12 10 9 8 9 8 6 0 0 0 0 0 0 0 0 0 0 0 0 0 0 0 0 0 0 0 0 0 0 0 0 0 0 0 0 0 0 0 0 0 0 0 0 0 0 0 0 0 0 0 0 0 0 0 0 0 0 0 0 0 0 0 0 0 0 0 0 0 0 0 0 0 0 0 0 0 0 0 0 0 0 0 0 0 0 0 0 0 0 0 0 0 0 0 0 0 0 0 0 0 0 0 0 0 0 0 0 0 0 0 0 0 0 0 0 0 0 0 0 0 0 0 0 0 0 0 0 0 0 0 0 0 0 0 0 0 0 0 0 0 0 0 0 0 0 0 0 0 0 0 0 0 0 0 0 0 0 0 0 0 0 0 0 0 0 0 0 0 0 0 0 0 0 0 0 0 0 0 0 0 0 0 0 0 0 0 0 0 0 0 0 0 0 0 0 0 0 0 0 0 0 0 0 0 0 0 0 0 0 0 0 0 0 0 0 0 0 0 0 0 0 0 0 0 0 0 0 0 0 0 0 0 0 0 0 0 0 0 0 0 0 0 0 0 0 0 0 0 0 0 0 0 0 0 0 0 0 0 0 0 0 0 0 0 0 0 0 0 0 0 0 0 0 0 0 0 0 0 0 0 0 0 0 0 0 0 0 0 0 0 0 0 0 0 0 0 0 0 0 0 0 0 0 0 0 0 0 0 0 0 0 0 0 0 0 0 0 0 0 0 0 0 0 0 0 0 0 0 0 0 0 0 0 0 0 0 0 0 0 0 0 0 0 0 0 0 0 0 0 0 0 0 0 0 0 0 0 0 0 0 0 0 0 0 0 0 0 0 0 0 0 0 0 0 0 0 0 0 0 0 0 0 0 0 0 0 0 0 0 0 0 0 0 0 0 0 0 0 0 0 0 0 0 0 0 0 0 0 0
34 29 23 20 19 17 18 19 23 22 21 18 16 17 13 11 11 11 11 11 11 11 11 13 25 33 36 33 25 16 11 11 11 11 11 12 13 14 14 15 17 20 19 17 14 14 14 14 14 14 14 14 14 14 14 14 15 15 15 15 16 17 18 21 25 28 31 31 30 30 29 28 28 28 29 29 32 31 29 27 27 27 27 27 27 28 35 41 45 46 47 47 48 48 48 48 50 51 54 56 57 59 59 61 66 70 72 71 68 65 63 65 69 69 69 65 62 62 62 63 63 58 56 57 62 64 65 69 77 79 76 71 66 64 62 59 59 61 58 52 49 49 49 49 48 48 48 49 50 51 52 52 51 49 47 45 41 41 41 40 40 39 38 37 39 38 36 33 32 31 29 27 25 21 21 20 20 20 20 20 20 20 20 20 21 23 25 25 25 26 23 22 21 23 24 25 26 27 26 26 26 25 25 25 25 25 25 25 25 25 26 30 33 34 38 39 42 45 48 47 42 33 28 25 23 20 20 23 34 39 40 41 39 39 39 31 25 23 23 23 23 23 23 26 26 26 26 26 26 27 29 33 35 35 37 41 42 38 37 36 37 37 38 39 41 34 29 30 34 36 37 38 39 41 43 44 44 44 44 43 43 39 35 32 30 30 33 35 38 39 41 40 33 36 38 37 33 27 25 25 25 25 25 25 24 24 24 25 28 28 28 27 25 21 16 16 15 15 19 24 25 25 22 21 18 18 16 11 11 11 11 11 11 10 10 11 12 12 11 11 13 15 17 21 23 23 20 16 14 13 13 13 14 14 12 9 8 7 6 5 4 5 6 6 6 9 11 14 17 22 23 18 13 8 4 3 2 2 2 2 3 3 3 3 4 10 17 24 27 24 20 16 19 16 16 12 12 13 16 16 17 18 18 20 20 20 20 20 20 20 20 16 15 16 16 17 16 14 13 13 13 13 12 12 13 13 13 12 12 12 12 12 12 12 12 12 12 12 13 12 12 12 11 10 10 10 10 9 10 10 10 10 11 13 15 12 11 10 10 9 9 9 8 8 8 7 7 6 5 5 5 5 5 4 4 4 4 3 3 2 2 2 2 1 0 0 0 0 0 0 0 0 0 0 0 0 0 0 0 0 0 0 0 0 0 0 0 0 0 0 0 0 0 0 1 2 3 4 4 5 7 7 6 6 6 6 6 7 8 10 11 12 11 8 3 1 1 5 5 4 0 0 0 0 0 0 0 0 0 0 0 0 0 0 0 0 0 0 0 0 0 0 0 0 0 0 0 0 0 0 0 0 0 0 0 0 0 0 0 0 0 0 0 0 0 0 0 0 0 0 0 0 0 0 0 0 0 0 0 0 0 0 0 0 0 0 0 0 0 0 0 0 0 0 0 0 0 0 0 0 0 0 0 0 0 0 0 0 0 0 0 0 0 0 0 0 0 0 0 0 0 0 0 0 0 0 0 0 0 0 0 0 0 0 0 0 0 0 0 0 0 0 0 0 0 0 0 0 0 0 0 0 0 0 0 0 0 0 0 0 0 0 0 0 0 0 0 0 0 0 0 0 0 0 0 0 0 0 0 0 0 0 0 0 0 0 0 0 0 0 0 0 0 0 0 0 0 0 0 0 0 0 0 0 0 0 0 0 0 0 0 0 0 0 0 0 0 0 0 0 0 0 0 0 0 0 0 0 0 0 0 0 0 0 0 0 0 0 0 0 0 0 0 0 0 0 0 0 0 0 0 0 0 0 0 0 0 0 0 0 0 0 0 0 0 0 0 0 0 0 0 0 0 0 0 0 0 0 0 0 0 0 0 0 0 0 0 0 0 0 0 0 0 0 0 0 0 0 0 0 0 0 0 0 0 0 0 0 0 0 0 0 0 0 0 0 0 0 0 0 0 0 0 0 0 0 0 0 0 0 0 0 0 0 0 0 0 0 0 0 0 0 0 0 0 0 0 0 0 0 0 0 0 0 0 0 0 0 0 0 0 0 0 0 0 0 0 0 0 0 0 0 0 0 0 0 0 0 0 0 0 0 0 0 0 0 0 0 0 0 0 0 0 0 0 0 0 0 0 0 0 0 0 0 0 0 0 0 0 0 0 0 0 0 0 0 0 0 0 0 0 0
34 30 24 22 20 18 17 17 19 21 20 15 13 13 12 11 11 11 11 11 11 11 11 13 26 33 37 36 29 20 12 11 11 11 11 12 13 14 14 15 16 20 19 16 14 14 14 14 14 14 14 14 14 14 14 15 15 16 16 16 16 17 19 22 26 28 31 31 31 31 33 33 31 30 30 31 34 36 36 33 28 27 27 27 27 27 28 32 36 39 41 43 45 47 48 49 50 52 54 56 57 58 59 63 66 72 75 75 73 69 67 67 69 68 67 61 59 58 58 58 59 56 56 56 58 63 68 73 78 82 80 75 71 67 69 67 64 63 60 56 50 50 52 54 52 49 49 50 50 52 52 51 50 49 47 45 42 42 44 44 44 45 45 45 44 43 40 37 35 33 30 28 27 27 27 25 22 20 20 19 19 20 20 20 20 19 19 20 20 20 19 19 20 23 24 25 26 27 27 27 26 25 25 25 25 25 25 25 25 25 26 29 33 36 42 42 42 43 46 46 42 36 29 27 25 23 20 20 26 35 40 40 39 39 40 33 25 24 23 23 23 23 24 25 26 26 26 26 26 26 29 33 35 34 34 38 44 41 38 35 35 34 34 33 32 30 28 29 36 38 38 38 39 39 39 40 40 40 41 42 43 40 35 32 28 28 28 31 35 37 39 37 31 33 37 34 31 27 25 25 25 25 25 25 25 27 30 35 39 37 36 34 32 28 19 18 17 17 19 23 24 23 23 22 19 17 15 11 10 10 10 11 11 11 11 11 12 13 12 12 12 14 15 16 16 14 13 13 13 13 13 13 14 14 13 11 11 11 12 10 8 10 10 10 11 11 12 12 14 19 18 13 8 3 2 2 2 3 3 3 4 4 4 4 7 14 20 25 28 27 21 20 21 19 18 17 17 17 18 18 18 18 19 19 19 19 19 20 21 21 20 15 14 13 13 14 13 12 12 12 12 12 12 12 12 12 12 12 12 12 12 12 12 12 12 12 12 13 14 13 12 12 11 10 10 10 10 9 10 10 10 10 11 15 16 15 12 11 10 10 10 10 9 9 9 8 7 6 5 5 5 5 5 4 4 3 3 3 3 1 1 1 0 0 0 0 0 0 0 0 0 0 0 0 0 0 0 0 0 0 0 0 0 0 0 0 0 0 0 0 0 0 0 0 0 0 1 2 3 5 5 5 5 5 6 5 5 5 6 9 10 11 8 1 0 0 0 0 0 0 0 0 0 0 0 0 0 0 0 0 0 0 0 0 0 0 0 0 0 0 0 0 0 0 0 0 0 0 0 0 0 0 0 0 0 0 0 0 0 0 0 0 0 0 0 0 0 0 0 0 0 0 0 0 0 0 0 0 0 0 0 0 0 0 0 0 0 0 0 0 0 0 0 0 0 0 0 0 0 0 0 0 0 0 0 0 0 0 0 0 0 0 0 0 0 0 0 0 0 0 0 0 0 0 0 0 0 0 0 0 0 0 0 0 0 0 0 0 0 0 0 0 0 0 0 0 0 0 0 0 0 0 0 0 0 0 0 0 0 0 0 0 0 0 0 0 0 0 0 0 0 0 0 0 0 0 0 0 0 0 0 0 0 0 0 0 0 0 0 0 0 0 0 0 0 0 0 0 0 0 0 0 0 0 0 0 0 0 0 0 0 0 0 0 0 0 0 0 0 0 0 0 0 0 0 0 0 0 0 0 0 0 0 0 0 0 0 0 0 0 0 0 0 0 0 0 0 0 0 0 0 0 0 0 0 0 0 0 0 0 0 0 0 0 0 0 0 0 0 0 0 0 0 0 0 0 0 0 0 0 0 0 0 0 0 0 0 0 0 0 0 0 0 0 0 0 0 0 0 0 0 0 0 0 0 0 0 0 0 0 0 0 0 0 0 0 0 0 0 0 0 0 0 0 0 0 0 0 0 0 0 0 0 0 0 0 0 0 0 0 0 0 0 0 0 0 0 0 0 0 0 0 0 0 0 0 0 0 0 0 0 0 0 0 0 0 0 0 0 0 0 0 0 0 0 0 0 0 0 0 0 0 0 0 0 0 0 0 0 0 0 0 0 0 0 0 0 0 0 0 0 0 0 0 0 0 0 0 0 0 0 0 0 0 0 0 0 0 0 0 0 0
34 32 28 26 23 21 19 15 15 16 15 13 12 12 12 11 11 11 11 11 11 11 11 12 22 30 33 32 27 19 13 11 11 11 11 12 13 14 14 14 16 18 18 14 14 14 14 14 14 14 14 14 14 15 16 17 17 17 17 17 17 17 19 22 24 27 30 30 31 31 34 34 34 32 32 32 33 35 37 35 35 34 31 29 27 27 27 27 29 33 36 39 43 46 47 48 50 52 54 56 56 57 59 63 67 72 76 78 80 73 71 70 69 68 65 61 59 59 58 57 56 56 55 55 56 61 67 74 80 85 85 81 78 75 73 71 67 67 65 59 51 54 56 56 55 50 50 50 51 54 54 54 52 54 54 51 47 45 45 47 50 51 49 48 47 47 43 40 37 35 30 28 28 27 27 27 26 23 21 19 19 20 20 20 20 19 19 20 20 20 20 20 20 23 24 25 26 27 27 29 30 27 25 25 25 25 25 25 25 25 27 30 34 37 42 41 39 40 43 43 41 36 32 32 29 25 21 20 20 28 35 35 32 36 40 33 26 25 24 23 23 23 25 25 26 26 26 25 25 25 27 32 35 34 33 33 36 40 39 36 35 34 33 31 30 29 27 29 36 38 39 40 40 39 38 38 37 38 38 40 40 40 37 33 28 28 27 29 32 34 35 35 30 31 31 26 25 25 25 25 25 25 25 26 26 30 36 38 39 37 35 33 31 28 27 20 18 18 18 19 21 22 22 22 20 17 13 11 10 10 10 11 11 11 12 12 13 15 15 13 13 13 13 13 13 13 13 13 13 13 13 13 15 15 16 17 18 21 22 18 15 15 18 17 16 15 13 12 10 10 14 12 5 3 2 2 2 5 5 4 6 6 5 5 10 17 25 28 31 27 20 20 21 21 20 19 18 18 18 18 19 19 19 19 18 18 18 20 21 19 17 14 13 12 11 11 11 11 12 13 14 13 12 12 12 12 12 11 12 12 12 12 12 12 12 12 12 12 13 13 12 11 10 10 10 10 10 10 10 10 10 10 12 15 17 18 15 12 11 11 11 12 13 12 10 9 8 6 6 5 5 5 5 4 3 3 3 2 2 1 0 0 0 0 0 0 0 0 0 0 0 0 0 0 0 0 0 0 0 0 0 0 0 0 0 0 0 0 0 0 0 0 0 0 0 0 0 1 3 5 5 5 5 5 5 5 5 5 5 7 9 9 3 0 0 0 0 0 0 0 0 0 0 0 0 0 0 0 0 0 0 0 0 0 0 0 0 0 0 0 0 0 0 0 0 0 0 0 0 0 0 0 0 0 0 0 0 0 0 0 0 0 0 0 0 0 0 0 0 0 0 0 0 0 0 0 0 0 0 0 0 0 0 0 0 0 0 0 0 0 0 0 0 0 0 0 0 0 0 0 0 0 0 0 0 0 0 0 0 0 0 0 0 0 0 0 0 0 0 0 0 0 0 0 0 0 0 0 0 0 0 0 0 0 0 0 0 0 0 0 0 0 0 0 0 0 0 0 0 0 0 0 0 0 0 0 0 0 0 0 0 0 0 0 0 0 0 0 0 0 0 0 0 0 0 0 0 0 0 0 0 0 0 0 0 0 0 0 0 0 0 0 0 0 0 0 0 0 0 0 0 0 0 0 0 0 0 0 0 0 0 0 0 0 0 0 0 0 0 0 0 0 0 0 0 0 0 0 0 0 0 0 0 0 0 0 0 0 0 0 0 0 0 0 0 0 0 0 0 0 0 0 0 0 0 0 0 0 0 0 0 0 0 0 0 0 0 0 0 0 0 0 0 0 0 0 0 0 0 0 0 0 0 0 0 0 0 0 0 0 0 0 0 0 0 0 0 0 0 0 0 0 0 0 0 0 0 0 0 0 0 0 0 0 0 0 0 0 0 0 0 0 0 0 0 0 0 0 0 0 0 0 0 0 0 0 0 0 0 0 0 0 0 0 0 0 0 0 0 0 0 0 0 0 0 0 0 0 0 0 0 0 0 0 0 0 0 0 0 0 0 0 0 0 0 0 0 0 0 0 0 0 0 0 0 0 0 0 0 0 0 0 0 0 0 0 0 0 0 0 0 0 0 0 0 0 0 0 0 0 0 0 0 0 0 0 0 0 0 0 0 0
35 34 35 34 31 29 25 16 14 14 14 13 12 12 12 11 11 11 11 11 11 11 11 12 18 25 28 26 23 17 12 11 11 11 12 12 13 13 13 14 16 17 14 14 14 14 14 13 13 13 14 15 16 17 18 18 17 17 17 17 17 18 19 21 25 26 29 29 30 31 33 33 34 34 34 33 35 37 38 38 40 39 38 36 33 30 27 27 27 28 32 37 39 42 45 47 50 52 55 55 54 55 58 63 70 72 75 79 80 77 75 75 73 69 65 61 59 60 59 58 56 56 55 55 55 58 65 73 79 85 85 84 80 79 77 73 72 71 70 61 53 55 58 56 54 51 51 53 54 56 56 56 56 58 58 56 51 46 46 47 51 55 54 53 52 50 46 43 39 35 29 29 28 28 28 28 27 26 25 21 20 20 20 20 20 20 20 20 20 20 20 20 21 24 24 25 26 26 27 33 34 33 27 25 25 25 26 26 26 26 27 31 35 38 41 41 38 38 39 40 37 36 38 37 32 26 22 20 20 27 29 27 27 32 38 32 26 26 26 24 24 24 26 26 26 26 25 24 24 25 25 30 34 34 31 31 30 34 40 37 35 33 34 31 29 28 26 28 34 36 40 41 42 41 40 39 39 38 38 38 37 38 36 35 32 29 27 27 29 31 34 34 29 27 26 25 25 25 25 25 25 25 26 29 29 31 34 36 37 35 29 28 27 27 28 23 20 18 18 18 18 22 19 19 18 16 12 11 11 11 11 10 10 11 12 14 17 19 19 17 14 13 13 13 13 13 13 13 13 13 13 14 16 19 25 26 28 29 30 26 22 20 22 22 21 17 15 11 8 7 7 8 5 3 3 3 4 7 10 7 9 9 5 6 13 23 31 34 29 23 20 20 21 23 23 20 20 19 19 19 20 20 20 19 18 17 17 15 14 14 13 13 13 12 11 11 11 11 11 12 16 16 12 12 12 12 12 11 12 12 12 12 12 12 12 12 12 12 12 12 10 10 9 10 10 10 10 10 10 10 11 11 12 15 16 15 14 12 12 13 14 15 16 14 11 9 9 8 7 7 6 6 5 4 3 2 2 1 1 0 0 0 0 0 0 0 0 0 0 0 0 0 0 0 0 0 0 0 0 0 0 0 0 0 0 0 0 0 0 0 0 0 0 0 0 0 0 0 2 4 4 4 5 5 5 5 5 4 4 5 6 6 0 0 0 0 0 0 0 0 0 0 0 0 0 0 0 0 0 0 0 0 0 0 0 0 0 0 0 0 0 0 0 0 0 0 0 0 0 0 0 0 0 0 0 0 0 0 0 0 0 0 0 0 0 0 0 0 0 0 0 0 0 0 0 0 0 0 0 0 0 0 0 0 0 0 0 0 0 0 0 0 0 0 0 0 0 0 0 0 0 0 0 0 0 0 0 0 0 0 0 0 0 0 0 0 0 0 0 0 0 0 0 0 0 0 0 0 0 0 0 0 0 0 0 0 0 0 0 0 0 0 0 0 0 0 0 0 0 0 0 0 0 0 0 0 0 0 0 0 0 0 0 0 0 0 0 0 0 0 0 0 0 0 0 0 0 0 0 0 0 0 0 0 0 0 0 0 0 0 0 0 0 0 0 0 0 0 0 0 0 0 0 0 0 0 0 0 0 0 0 0 0 0 0 0 0 0 0 0 0 0 0 0 0 0 0 0 0 0 0 0 0 0 0 0 0 0 0 0 0 0 0 0 0 0 0 0 0 0 0 0 0 0 0 0 0 0 0 0 0 0 0 0 0 0 0 0 0 0 0 0 0 0 0 0 0 0 0 0 0 0 0 0 0 0 0 0 0 0 0 0 0 0 0 0 0 0 0 0 0 0 0 0 0 0 0 0 0 0 0 0 0 0 0 0 0 0 0 0 0 0 0 0 0 0 0 0 0 0 0 0 0 0 0 0 0 0 0 0 0 0 0 0 0 0 0 0 0 0 0 0 0 0 0 0 0 0 0 0 0 0 0 0 0 0 0 0 0 0 0 0 0 0 0 0 0 0 0 0 0 0 0 0 0 0 0 0 0 0 0 0 0 0 0 0 0 0 0 0 0 0 0 0 0 0 0 0 0 0 0 0 0 0 0 0 0 0 0 0 0 0
38 36 38 39 39 35 28 20 19 17 14 14 13 14 14 14 14 12 11 11 11 11 11 11 15 22 28 26 22 16 12 11 11 11 11 12 12 13 13 14 16 17 15 14 14 14 14 13 13 14 15 16 18 19 21 20 17 17 17 17 18 22 23 22 27 25 25 27 29 30 31 31 32 34 34 36 38 39 42 43 45 45 43 41 39 36 33 30 29 27 29 33 35 36 39 42 48 50 52 52 52 53 57 62 70 73 74 75 75 75 76 77 75 70 67 63 61 61 59 58 56 56 56 56 56 59 66 73 78 82 85 84 82 80 78 73 72 71 70 65 56 55 56 54 54 53 53 56 57 56 56 58 59 61 61 59 52 46 46 46 50 55 56 54 53 50 48 45 40 33 29 28 28 28 28 28 28 27 26 25 21 20 20 20 20 20 20 20 20 20 20 20 20 24 24 25 25 26 26 32 34 32 27 24 24 26 27 26 26 26 28 32 37 38 40 40 38 38 39 40 36 36 38 39 34 27 22 20 20 24 26 26 26 31 35 30 26 26 26 25 25 25 25 25 25 25 24 24 24 24 24 26 31 34 30 31 29 34 41 41 38 33 31 31 29 27 26 27 31 36 41 42 43 45 46 46 45 43 41 41 38 38 36 36 36 32 28 26 26 28 31 31 28 25 25 25 25 25 25 26 26 27 30 30 30 32 35 37 38 35 28 28 27 27 27 27 25 20 18 17 17 17 15 14 14 13 11 11 11 11 11 10 10 12 13 16 19 22 23 21 17 14 13 13 13 13 13 13 13 14 14 17 20 23 26 26 27 29 30 26 25 22 22 22 22 19 15 10 7 6 6 5 4 4 5 5 5 7 10 11 9 10 11 9 16 27 33 34 27 20 20 20 20 21 22 20 19 19 19 20 20 20 20 19 18 17 17 15 14 14 13 13 13 12 11 11 11 11 11 11 11 11 11 12 12 12 12 12 11 11 12 12 12 13 13 12 11 11 11 9 8 8 8 10 10 10 10 10 10 10 11 11 11 14 14 12 11 11 13 13 14 16 17 14 10 10 10 9 9 8 7 6 4 3 2 2 1 0 0 0 0 0 0 0 0 0 0 0 0 0 0 0 0 0 0 0 0 0 0 0 0 0 0 0 0 0 0 0 0 0 0 0 0 0 0 0 0 0 0 2 3 4 5 5 4 4 4 4 4 4 2 0 0 0 0 0 0 0 0 0 0 0 0 0 0 0 0 0 0 0 0 0 0 0 0 0 0 0 0 0 0 0 0 0 0 0 0 0 0 0 0 0 0 0 0 0 0 0 0 0 0 0 0 0 0 0 0 0 0 0 0 0 0 0 0 0 0 0 0 0 0 0 0 0 0 0 0 0 0 0 0 0 0 0 0 0 0 0 0 0 0 0 0 0 0 0 0 0 0 0 0 0 0 0 0 0 0 0 0 0 0 0 0 0 0 0 0 0 0 0 0 0 0 0 0 0 0 0 0 0 0 0 0 0 0 0 0 0 0 0 0 0 0 0 0 0 0 0 0 0 0 0 0 0 0 0 0 0 0 0 0 0 0 0 0 0 0 0 0 0 0 0 0 0 0 0 0 0 0 0 0 0 0 0 0 0 0 0 0 0 0 0 0 0 0 0 0 0 0 0 0 0 0 0 0 0 0 0 0 0 0 0 0 0 0 0 0 0 0 0 0 0 0 0 0 0 0 0 0 0 0 0 0 0 0 0 0 0 0 0 0 0 0 0 0 0 0 0 0 0 0 0 0 0 0 0 0 0 0 0 0 0 0 0 0 0 0 0 0 0 0 0 0 0 0 0 0 0 0 0 0 0 0 0 0 0 0 0 0 0 0 0 0 0 0 0 0 0 0 0 0 0 0 0 0 0 0 0 0 0 0 0 0 0 0 0 0 0 0 0 0 0 0 0 0 0 0 0 0 0 0 0 0 0 0 0 0 0 0 0 0 0 0 0 0 0 0 0 0 0 0 0 0 0 0 0 0 0 0 0 0 0 0 0 0 0 0 0 0 0 0 0 0 0 0 0 0 0 0 0 0 0 0 0 0 0 0 0 0 0 0 0 0 0 0 0 0 0 0 0 0 0 0 0 0 0 0 0 0 0 0 0
43 39 40 44 44 39 29 24 25 23 17 16 17 19 21 22 21 18 13 11 11 11 11 11 15 23 28 26 21 15 11 11 11 11 11 12 12 13 13 13 15 17 16 14 14 14 14 14 14 15 17 19 22 22 22 21 17 17 17 17 19 25 26 23 28 25 25 26 26 26 28 29 29 31 34 37 41 43 46 48 49 50 48 46 45 43 41 38 37 35 30 32 35 36 37 38 40 44 48 50 51 53 55 60 67 71 73 72 72 74 76 78 76 71 67 64 63 62 59 57 56 56 56 56 56 61 69 74 77 79 82 83 82 80 77 71 68 68 68 66 57 55 54 54 53 53 55 58 58 55 55 58 60 62 62 61 53 47 47 47 48 51 52 52 52 50 49 47 41 33 29 28 29 28 28 28 28 26 26 25 23 21 20 20 20 20 20 20 20 20 20 20 20 23 24 24 25 25 25 27 27 25 24 23 24 26 28 27 27 27 29 33 38 38 39 38 38 38 40 40 36 35 36 35 32 26 21 20 20 24 26 26 28 30 30 27 26 26 27 26 26 26 25 24 24 23 23 23 23 23 24 25 26 31 28 30 28 30 37 42 41 36 31 30 28 27 26 26 30 38 43 46 48 50 49 49 49 49 47 44 43 39 37 37 37 36 33 27 26 26 26 26 26 25 25 25 25 28 29 30 32 33 34 33 36 38 38 38 38 33 28 27 26 26 26 26 27 26 19 17 17 15 14 12 11 11 11 11 11 11 11 11 11 12 15 19 21 25 26 24 20 16 14 14 13 13 13 13 14 14 16 18 21 23 23 23 23 26 28 26 24 23 23 23 23 21 16 10 7 6 6 5 4 4 5 6 7 8 8 8 8 8 13 14 17 26 31 30 25 20 20 19 19 19 19 19 18 18 18 20 21 21 21 20 19 18 18 16 14 13 13 13 12 12 11 11 11 11 11 11 11 11 11 11 11 12 12 12 11 11 11 11 11 12 13 13 10 9 8 8 8 8 9 10 10 10 10 10 10 10 10 10 11 11 11 11 11 11 13 14 14 14 16 14 11 10 10 10 10 9 7 5 3 2 2 1 0 0 0 0 0 0 0 0 0 0 0 0 0 0 0 0 0 0 0 0 0 0 0 0 0 0 0 0 0 0 0 0 0 0 0 0 0 0 0 0 0 0 0 0 1 3 4 4 4 4 4 4 3 2 0 0 0 0 0 0 0 0 0 0 0 0 0 0 0 0 0 0 0 0 0 0 0 0 0 0 0 0 0 0 0 0 0 0 0 0 0 0 0 0 0 0 0 0 0 0 0 0 0 0 0 0 0 0 0 0 0 0 0 0 0 0 0 0 0 0 0 0 0 0 0 0 0 0 0 0 0 0 0 0 0 0 0 0 0 0 0 0 0 0 0 0 0 0 0 0 0 0 0 0 0 0 0 0 0 0 0 0 0 0 0 0 0 0 0 0 0 0 0 0 0 0 0 0 0 0 0 0 0 0 0 0 0 0 0 0 0 0 0 0 0 0 0 0 0 0 0 0 0 0 0 0 0 0 0 0 0 0 0 0 0 0 0 0 0 0 0 0 0 0 0 0 0 0 0 0 0 0 0 0 0 0 0 0 0 0 0 0 0 0 0 0 0 0 0 0 0 0 0 0 0 0 0 0 0 0 0 0 0 0 0 0 0 0 0 0 0 0 0 0 0 0 0 0 0 0 0 0 0 0 0 0 0 0 0 0 0 0 0 0 0 0 0 0 0 0 0 0 0 0 0 0 0 0 0 0 0 0 0 0 0 0 0 0 0 0 0 0 0 0 0 0 0 0 0 0 0 0 0 0 0 0 0 0 0 0 0 0 0 0 0 0 0 0 0 0 0 0 0 0 0 0 0 0 0 0 0 0 0 0 0 0 0 0 0 0 0 0 0 0 0 0 0 0 0 0 0 0 0 0 0 0 0 0 0 0 0 0 0 0 0 0 0 0 0 0 0 0 0 0 0 0 0 0 0 0 0 0 0 0 0 0 0 0 0 0 0 0 0 0 0 0 0 0 0 0 0 0 0 0 0 0 0 0 0 0 0 0 0 0 0 0 0 0 0 0 0 0 0 0 0 0 0 0 0 0 0 0 0 0 0 0
46 43 42 46 47 41 32 29 29 27 25 23 22 25 29 30 29 25 18 13 11 11 11 11 13 22 26 24 19 13 11 11 11 11 11 12 12 13 13 13 14 15 14 14 14 14 14 14 15 17 21 23 24 23 23 22 19 17 17 17 21 26 26 24 25 25 25 26 26 26 27 29 29 32 35 38 43 47 48 50 51 54 52 50 50 50 48 46 43 40 37 35 39 38 38 39 39 40 42 48 51 53 54 54 58 61 65 68 70 75 77 78 77 72 67 64 64 62 59 56 56 56 56 56 57 62 70 73 77 80 81 81 80 78 75 71 67 67 67 66 57 50 51 51 51 53 54 57 55 51 52 56 59 61 61 59 51 46 46 46 47 48 49 51 51 51 51 49 43 35 31 30 29 29 29 28 28 27 26 25 25 24 21 20 20 20 20 20 20 20 20 20 20 20 22 23 23 24 25 25 24 24 23 23 23 24 26 27 26 27 29 32 38 37 37 37 37 38 39 37 36 35 34 33 29 24 21 20 20 24 33 34 34 31 28 27 27 29 31 29 27 27 26 25 23 23 22 21 21 21 22 23 24 26 25 25 27 26 30 32 35 34 30 28 28 26 26 26 29 36 40 45 47 50 49 48 48 49 48 48 48 44 40 39 39 40 38 31 26 26 26 26 25 25 25 25 28 34 35 36 37 36 37 39 38 38 37 37 37 29 27 27 26 25 25 25 25 25 25 20 17 15 13 11 11 11 10 10 11 11 11 11 11 14 20 24 25 26 26 24 22 19 17 15 14 14 14 14 14 15 17 19 21 23 23 23 23 23 24 23 23 23 23 24 27 26 21 14 8 6 6 5 4 5 7 12 14 10 8 8 8 8 10 16 16 20 23 23 21 19 19 19 19 18 18 18 18 18 18 19 22 23 23 20 19 19 18 15 14 13 13 13 12 12 11 11 11 10 10 10 10 10 10 11 11 12 12 12 12 11 11 11 10 10 10 10 9 8 8 8 9 11 11 11 11 11 11 11 10 10 10 10 10 10 10 11 11 11 13 14 14 14 14 12 11 11 11 11 11 9 6 3 2 0 0 0 0 0 0 0 0 0 0 0 0 0 0 0 0 0 0 0 0 0 0 0 0 0 0 0 0 0 0 0 0 0 0 0 0 0 0 0 0 0 0 0 0 0 0 0 1 2 3 3 4 4 4 4 3 1 0 0 0 0 0 0 0 0 0 0 0 0 0 0 0 0 0 0 0 0 0 0 0 0 0 0 0 0 0 0 0 0 0 0 0 0 0 0 0 0 0 0 0 0 0 0 0 0 0 0 0 0 0 0 0 0 0 0 0 0 0 0 0 0 0 0 0 0 0 0 0 0 0 0 0 0 0 0 0 0 0 0 0 0 0 0 0 0 0 0 0 0 0 0 0 0 0 0 0 0 0 0 0 0 0 0 0 0 0 0 0 0 0 0 0 0 0 0 0 0 0 0 0 0 0 0 0 0 0 0 0 0 0 0 0 0 0 0 0 0 0 0 0 0 0 0 0 0 0 0 0 0 0 0 0 0 0 0 0 0 0 0 0 0 0 0 0 0 0 0 0 0 0 0 0 0 0 0 0 0 0 0 0 0 0 0 0 0 0 0 0 0 0 0 0 0 0 0 0 0 0 0 0 0 0 0 0 0 0 0 0 0 0 0 0 0 0 0 0 0 0 0 0 0 0 0 0 0 0 0 0 0 0 0 0 0 0 0 0 0 0 0 0 0 0 0 0 0 0 0 0 0 0 0 0 0 0 0 0 0 0 0 0 0 0 0 0 0 0 0 0 0 0 0 0 0 0 0 0 0 0 0 0 0 0 0 0 0 0 0 0 0 0 0 0 0 0 0 0 0 0 0 0 0 0 0 0 0 0 0 0 0 0 0 0 0 0 0 0 0 0 0 0 0 0 0 0 0 0 0 0 0 0 0 0 0 0 0 0 0 0 0 0 0 0 0 0 0 0 0 0 0 0 0 0 0 0 0 0 0 0 0 0 0 0 0 0 0 0 0 0 0 0 0 0 0 0 0 0 0 0 0 0 0 0 0 0 0 0 0 0 0 0 0 0 0 0 0 0 0 0 0 0 0 0 0 0 0 0 0 0 0
46 44 44 49 49 45 34 31 31 31 30 28 26 29 35 39 38 33 26 20 14 11 11 11 11 17 23 21 16 12 11 11 11 11 11 11 12 12 12 13 13 14 14 14 15 16 14 15 17 21 23 25 26 26 24 22 21 17 17 18 23 25 25 25 25 25 25 26 26 26 28 30 33 37 40 42 46 49 49 50 49 51 50 50 53 55 55 53 50 47 44 40 40 43 40 40 40 40 39 45 50 53 52 48 50 52 56 61 66 75 77 78 77 71 66 63 62 60 56 56 56 56 56 57 61 64 70 73 78 80 80 80 79 77 74 71 67 66 66 66 57 48 44 47 49 52 52 51 50 47 47 52 55 59 60 58 49 45 45 46 46 48 48 50 50 50 50 49 44 40 35 30 29 29 29 29 28 28 27 26 25 24 22 20 20 19 19 20 20 20 20 20 20 20 20 20 22 24 24 24 24 23 22 23 23 23 23 25 25 25 28 32 36 35 35 37 38 38 38 37 36 36 34 32 28 24 21 20 20 21 36 40 38 30 28 28 29 32 34 34 32 30 28 26 24 23 22 20 20 17 17 20 23 23 23 22 23 22 23 26 29 30 29 29 28 26 26 26 30 34 37 41 44 47 48 46 46 47 47 47 47 47 45 44 43 44 42 37 29 26 27 26 25 25 25 26 33 38 38 38 38 37 38 38 38 38 37 35 33 28 27 27 25 24 24 24 24 25 27 27 21 15 13 11 11 11 10 10 11 11 11 11 12 18 23 25 25 24 24 23 21 19 18 16 15 15 16 17 16 15 17 19 21 22 24 25 25 25 25 25 25 24 23 23 25 25 22 16 8 7 6 5 7 9 12 14 14 10 8 8 8 8 8 9 15 17 17 18 19 18 18 19 19 18 18 17 17 17 17 17 19 21 20 18 17 17 15 14 13 13 12 12 12 11 11 11 11 10 9 9 9 9 9 10 10 11 11 12 12 11 11 11 10 9 9 9 9 8 8 9 11 11 12 11 11 11 11 11 10 10 10 10 10 10 10 11 11 12 14 15 15 14 14 13 12 12 12 12 10 8 4 2 0 0 0 0 0 0 0 0 0 0 0 0 0 0 0 0 0 0 0 0 0 0 0 0 0 0 0 0 0 0 0 0 0 0 0 0 0 0 0 0 0 0 0 0 0 0 0 0 0 2 2 3 3 3 4 4 2 1 0 0 0 0 0 0 0 0 0 0 0 0 0 0 0 0 0 0 0 0 0 0 0 0 0 0 0 0 0 0 0 0 0 0 0 0 0 0 0 0 0 0 0 0 0 0 0 0 0 0 0 0 0 0 0 0 0 0 0 0 0 0 0 0 0 0 0 0 0 0 0 0 0 0 0 0 0 0 0 0 0 0 0 0 0 0 0 0 0 0 0 0 0 0 0 0 0 0 0 0 0 0 0 0 0 0 0 0 0 0 0 0 0 0 0 0 0 0 0 0 0 0 0 0 0 0 0 0 0 0 0 0 0 0 0 0 0 0 0 0 0 0 0 0 0 0 0 0 0 0 0 0 0 0 0 0 0 0 0 0 0 0 0 0 0 0 0 0 0 0 0 0 0 0 0 0 0 0 0 0 0 0 0 0 0 0 0 0 0 0 0 0 0 0 0 0 0 0 0 0 0 0 0 0 0 0 0 0 0 0 0 0 0 0 0 0 0 0 0 0 0 0 0 0 0 0 0 0 0 0 0 0 0 0 0 0 0 0 0 0 0 0 0 0 0 0 0 0 0 0 0 0 0 0 0 0 0 0 0 0 0 0 0 0 0 0 0 0 0 0 0 0 0 0 0 0 0 0 0 0 0 0 0 0 0 0 0 0 0 0 0 0 0 0 0 0 0 0 0 0 0 0 0 0 0 0 0 0 0 0 0 0 0 0 0 0 0 0 0 0 0 0 0 0 0 0 0 0 0 0 0 0 0 0 0 0 0 0 0 0 0 0 0 0 0 0 0 0 0 0 0 0 0 0 0 0 0 0 0 0 0 0 0 0 0 0 0 0 0 0 0 0 0 0 0 0 0 0 0 0 0 0 0 0 0 0 0 0 0 0 0 0 0 0 0 0 0 0 0 0 0 0 0 0 0 0 0 0 0 0 0 0
45 44 45 51 53 46 35 32 32 31 30 28 28 31 40 43 42 39 34 28 19 12 11 11 11 13 18 18 14 12 11 11 11 11 11 11 12 12 12 12 13 13 14 14 14 16 15 16 17 21 23 27 29 28 25 24 22 19 18 20 25 25 26 26 28 29 29 30 30 30 31 33 35 40 44 46 48 49 48 46 44 43 47 53 59 60 59 58 56 51 46 41 40 43 43 43 41 41 41 40 45 51 51 46 44 45 46 52 62 72 75 74 72 69 66 62 60 57 56 56 56 56 56 58 61 66 71 75 79 80 80 78 77 76 73 70 67 64 63 66 56 47 40 41 45 48 47 43 43 43 44 48 52 57 57 52 46 42 43 44 45 46 46 47 49 48 48 47 43 40 36 30 29 29 29 29 29 29 30 30 27 26 25 24 21 19 19 20 20 20 20 20 20 19 19 19 20 24 24 24 24 23 22 23 23 23 23 23 23 23 26 30 32 30 32 38 40 40 41 41 39 36 35 32 27 23 21 20 20 20 30 34 34 29 28 29 33 37 36 36 36 35 33 30 26 25 23 21 18 16 16 16 17 20 21 20 20 19 21 25 27 30 31 32 31 27 25 26 30 33 37 40 42 43 44 44 44 44 44 43 44 46 48 48 46 46 46 44 38 30 29 26 25 25 25 29 39 43 46 44 42 39 38 37 37 37 36 35 33 29 28 26 25 23 22 22 22 22 22 22 22 20 13 11 11 11 11 11 11 11 11 12 14 22 24 24 23 21 19 18 18 18 18 17 17 17 18 18 18 17 17 17 18 20 24 28 28 28 30 30 30 28 25 22 18 17 16 13 8 8 9 9 11 13 14 14 10 8 8 8 8 8 8 8 8 9 10 12 16 18 18 18 19 18 18 17 17 17 17 17 17 17 17 16 15 14 14 14 13 13 12 12 12 11 11 10 10 10 9 9 9 9 9 9 10 11 11 11 12 12 11 11 10 9 9 9 9 8 9 11 12 12 12 12 12 12 14 12 10 10 10 10 10 10 10 11 11 13 16 17 17 16 15 14 14 14 13 12 10 6 0 0 0 0 0 0 0 0 0 0 0 0 0 0 0 0 0 0 0 0 0 0 0 0 0 0 0 0 0 0 0 0 0 0 0 0 0 0 0 0 0 0 0 0 0 0 0 0 0 0 0 1 2 2 2 2 1 0 0 0 0 0 0 0 0 0 0 0 0 0 0 0 0 0 0 0 0 0 0 0 0 0 0 0 0 0 0 0 0 0 0 0 0 0 0 0 0 0 0 0 0 0 0 0 0 0 0 0 0 0 0 0 0 0 0 0 0 0 0 0 0 0 0 0 0 0 0 0 0 0 0 0 0 0 0 0 0 0 0 0 0 0 0 0 0 0 0 0 0 0 0 0 0 0 0 0 0 0 0 0 0 0 0 0 0 0 0 0 0 0 0 0 0 0 0 0 0 0 0 0 0 0 0 0 0 0 0 0 0 0 0 0 0 0 0 0 0 0 0 0 0 0 0 0 0 0 0 0 0 0 0 0 0 0 0 0 0 0 0 0 0 0 0 0 0 0 0 0 0 0 0 0 0 0 0 0 0 0 0 0 0 0 0 0 0 0 0 0 0 0 0 0 0 0 0 0 0 0 0 0 0 0 0 0 0 0 0 0 0 0 0 0 0 0 0 0 0 0 0 0 0 0 0 0 0 0 0 0 0 0 0 0 0 0 0 0 0 0 0 0 0 0 0 0 0 0 0 0 0 0 0 0 0 0 0 0 0 0 0 0 0 0 0 0 0 0 0 0 0 0 0 0 0 0 0 0 0 0 0 0 0 0 0 0 0 0 0 0 0 0 0 0 0 0 0 0 0 0 0 0 0 0 0 0 0 0 0 0 0 0 0 0 0 0 0 0 0 0 0 0 0 0 0 0 0 0 0 0 0 0 0 0 0 0 0 0 0 0 0 0 0 0 0 0 0 0 0 0 0 0 0 0 0 0 0 0 0 0 0 0 0 0 0 0 0 0 0 0 0 0 0 0 0 0 0 0 0 0 0 0 0 0 0 0 0 0 0 0 0 0 0 0 0 0 0 0 0 0 0 0 0 0 0 0 0 0 0 0 0 0 0 0
45 44 47 54 54 47 36 32 32 31 30 28 28 31 44 45 42 39 37 32 25 19 13 11 11 11 13 14 13 12 11 11 11 11 11 11 11 12 12 12 12 13 14 14 14 14 15 15 16 19 26 31 29 28 27 26 25 22 21 22 27 28 29 31 32 33 33 33 33 33 34 36 38 42 45 47 48 48 45 40 36 43 49 56 62 64 64 61 57 53 48 42 40 43 44 43 42 42 42 42 39 45 49 44 42 41 41 45 53 63 68 69 64 61 60 59 58 55 56 56 56 57 58 59 61 66 72 77 80 80 79 74 72 71 70 69 66 62 61 63 54 46 37 37 39 44 42 40 41 41 42 47 49 52 52 45 40 40 39 40 41 43 45 46 47 46 45 44 42 40 37 30 28 28 28 29 30 32 32 32 31 29 29 26 24 22 20 20 19 19 19 20 20 19 19 19 20 23 23 23 23 23 22 22 22 22 22 23 23 23 23 24 25 25 29 36 40 40 41 41 39 37 35 32 25 22 20 20 20 20 22 23 25 27 28 30 35 37 36 37 38 39 40 36 30 29 26 23 19 16 16 16 16 17 19 20 20 19 22 24 26 31 32 33 31 27 25 26 28 33 35 39 41 42 43 43 43 41 40 40 40 44 47 49 48 46 46 44 41 34 29 26 26 27 27 32 40 43 47 47 49 46 42 38 35 35 35 35 33 30 28 26 25 23 21 21 20 20 19 18 17 17 15 11 11 11 10 10 11 11 11 13 17 23 25 24 22 20 17 17 17 17 17 17 17 17 18 18 19 18 18 18 18 20 23 25 27 28 29 30 30 28 25 21 15 14 13 11 11 12 12 13 14 14 14 14 9 8 8 8 8 8 8 8 8 8 8 8 15 17 17 18 19 18 18 17 17 17 17 16 16 16 16 15 14 14 14 13 12 12 12 12 11 11 10 10 10 10 9 9 8 8 8 8 9 10 10 11 13 13 12 11 10 9 9 9 9 9 11 12 12 13 13 13 13 13 14 12 10 10 10 10 10 10 10 11 11 14 17 19 21 22 19 17 18 17 14 11 9 1 0 0 0 0 0 0 0 0 0 0 0 0 0 0 0 0 0 0 0 0 0 0 0 0 0 0 0 0 0 0 0 0 0 0 0 0 0 0 0 0 0 0 0 0 0 0 0 0 0 0 0 0 0 2 2 1 0 0 0 0 0 0 0 0 0 0 0 0 0 0 0 0 0 0 0 0 0 0 0 0 0 0 0 0 0 0 0 0 0 0 0 0 0 0 0 0 0 0 0 0 0 0 0 0 0 0 0 0 0 0 0 0 0 0 0 0 0 0 0 0 0 0 0 0 0 0 0 0 0 0 0 0 0 0 0 0 0 0 0 0 0 0 0 0 0 0 0 0 0 0 0 0 0 0 0 0 0 0 0 0 0 0 0 0 0 0 0 0 0 0 0 0 0 0 0 0 0 0 0 0 0 0 0 0 0 0 0 0 0 0 0 0 0 0 0 0 0 0 0 0 0 0 0 0 0 0 0 0 0 0 0 0 0 0 0 0 0 0 0 0 0 0 0 0 0 0 0 0 0 0 0 0 0 0 0 0 0 0 0 0 0 0 0 0 0 0 0 0 0 0 0 0 0 0 0 0 0 0 0 0 0 0 0 0 0 0 0 0 0 0 0 0 0 0 0 0 0 0 0 0 0 0 0 0 0 0 0 0 0 0 0 0 0 0 0 0 0 0 0 0 0 0 0 0 0 0 0 0 0 0 0 0 0 0 0 0 0 0 0 0 0 0 0 0 0 0 0 0 0 0 0 0 0 0 0 0 0 0 0 0 0 0 0 0 0 0 0 0 0 0 0 0 0 0 0 0 0 0 0 0 0 0 0 0 0 0 0 0 0 0 0 0 0 0 0 0 0 0 0 0 0 0 0 0 0 0 0 0 0 0 0 0 0 0 0 0 0 0 0 0 0 0 0 0 0 0 0 0 0 0 0 0 0 0 0 0 0 0 0 0 0 0 0 0 0 0 0 0 0 0 0 0 0 0 0 0 0 0 0 0 0 0 0 0 0 0 0 0 0 0 0 0 0 0 0 0 0 0 0 0 0 0 0 0 0 0 0 0 0 0 0 0
45 46 52 55 54 48 38 34 33 31 31 28 28 31 44 45 41 38 38 36 33 30 21 15 11 11 11 12 12 11 11 11 11 11 11 11 11 12 12 12 12 13 14 14 14 14 14 15 15 19 26 28 24 28 30 28 27 25 25 25 29 31 32 33 34 35 35 36 36 37 38 38 41 43 44 44 46 46 41 35 35 43 48 53 59 64 65 62 58 53 48 42 40 43 44 45 44 42 43 41 39 43 44 42 41 40 40 42 45 52 56 60 56 55 53 53 54 55 56 56 56 59 60 60 61 65 71 78 81 82 79 74 72 71 69 68 66 62 61 60 53 45 37 33 35 39 37 39 41 41 43 43 43 42 41 39 38 35 35 36 37 41 45 46 46 46 45 45 44 43 39 31 28 28 28 30 31 33 35 36 37 35 34 29 26 25 22 20 19 19 19 20 20 19 19 19 20 21 21 22 22 22 22 22 22 22 22 22 22 22 23 23 23 23 24 28 32 37 40 40 40 39 36 30 24 20 20 20 20 20 20 20 23 27 31 35 37 36 36 37 39 40 43 42 36 33 30 26 21 16 16 16 16 17 20 21 20 21 22 23 24 27 30 33 31 28 25 26 27 32 35 37 38 40 41 40 39 39 37 36 36 37 41 45 46 45 41 40 37 32 28 27 26 29 31 33 38 42 44 45 45 46 44 42 36 35 34 32 31 31 28 26 24 22 20 20 19 18 17 16 16 16 15 13 10 10 10 10 11 11 11 14 21 25 27 27 23 19 17 17 17 17 17 17 17 17 19 20 20 20 23 22 20 20 22 23 24 24 27 28 27 25 23 20 15 14 13 12 13 13 14 15 15 15 14 14 8 8 8 8 8 8 8 8 8 8 8 8 12 16 17 18 19 18 18 17 17 17 16 16 16 16 16 15 15 14 14 13 12 12 11 11 11 11 10 10 10 9 9 8 8 8 8 8 8 9 9 10 12 13 12 12 10 9 9 9 9 9 12 13 15 14 14 12 12 12 11 11 10 10 10 10 10 10 11 11 14 16 18 19 22 23 20 19 19 17 13 10 4 0 0 0 0 0 0 0 0 0 0 0 0 0 0 0 0 0 0 0 0 0 0 0 0 0 0 0 0 0 0 0 0 0 0 0 0 0 0 0 0 0 0 0 0 0 0 0 0 0 0 0 0 0 0 0 1 0 0 0 0 0 0 0 0 0 0 0 0 0 0 0 0 0 0 0 0 0 0 0 0 0 0 0 0 0 0 0 0 0 0 0 0 0 0 0 0 0 0 0 0 0 0 0 0 0 0 0 0 0 0 0 0 0 0 0 0 0 0 0 0 0 0 0 0 0 0 0 0 0 0 0 0 0 0 0 0 0 0 0 0 0 0 0 0 0 0 0 0 0 0 0 0 0 0 0 0 0 0 0 0 0 0 0 0 0 0 0 0 0 0 0 0 0 0 0 0 0 0 0 0 0 0 0 0 0 0 0 0 0 0 0 0 0 0 0 0 0 0 0 0 0 0 0 0 0 0 0 0 0 0 0 0 0 0 0 0 0 0 0 0 0 0 0 0 0 0 0 0 0 0 0 0 0 0 0 0 0 0 0 0 0 0 0 0 0 0 0 0 0 0 0 0 0 0 0 0 0 0 0 0 0 0 0 0 0 0 0 0 0 0 0 0 0 0 0 0 0 0 0 0 0 0 0 0 0 0 0 0 0 0 0 0 0 0 0 0 0 0 0 0 0 0 0 0 0 0 0 0 0 0 0 0 0 0 0 0 0 0 0 0 0 0 0 0 0 0 0 0 0 0 0 0 0 0 0 0 0 0 0 0 0 0 0 0 0 0 0 0 0 0 0 0 0 0 0 0 0 0 0 0 0 0 0 0 0 0 0 0 0 0 0 0 0 0 0 0 0 0 0 0 0 0 0 0 0 0 0 0 0 0 0 0 0 0 0 0 0 0 0 0 0 0 0 0 0 0 0 0 0 0 0 0 0 0 0 0 0 0 0 0 0 0 0 0 0 0 0 0 0 0 0 0 0 0 0 0 0 0 0 0 0 0 0 0 0 0 0 0 0 0 0 0 0 0 0 0 0 0 0 0 0 0 0 0 0 0 0 0 0 0 0 0 0
46 49 57 57 53 48 40 37 34 31 31 28 28 28 36 39 37 38 39 38 40 37 32 24 12 11 11 11 11 11 11 11 11 11 11 11 11 12 12 12 12 13 13 13 14 14 14 14 14 16 19 21 24 29 31 30 29 29 28 27 30 31 33 34 35 36 37 38 39 40 40 40 40 42 44 44 43 44 38 32 36 43 48 51 54 58 60 60 58 54 47 42 40 42 44 45 45 45 43 39 41 42 40 39 39 39 39 41 43 45 48 50 49 51 52 53 55 56 56 56 56 58 59 59 59 62 70 77 82 82 81 76 74 72 71 68 67 61 61 60 53 46 40 31 31 33 32 38 40 41 44 44 38 35 35 34 34 31 31 33 36 41 45 47 47 46 46 46 45 43 40 32 29 29 29 31 32 34 37 40 42 40 35 30 26 26 24 22 20 20 20 20 20 20 19 19 20 20 20 21 21 21 22 22 22 22 22 22 22 22 22 22 22 22 22 25 32 37 41 41 41 40 37 30 23 20 20 20 20 20 20 20 24 30 35 36 37 35 35 36 38 40 45 45 41 36 34 27 23 17 16 16 16 16 19 22 22 20 22 23 23 25 29 32 31 29 26 26 26 31 35 37 38 40 40 39 37 35 33 33 32 32 34 37 38 37 37 33 32 28 27 27 27 28 32 36 40 44 44 44 44 46 44 44 41 37 34 32 29 28 28 25 24 21 20 20 19 18 17 17 17 16 15 15 11 10 10 11 11 11 11 16 22 25 28 25 19 17 17 16 16 16 17 17 17 18 20 23 24 25 26 27 24 22 22 22 23 22 20 21 21 21 20 20 15 14 14 14 14 14 15 15 15 14 14 10 8 8 8 8 8 8 8 9 9 9 8 9 12 16 17 18 18 18 18 17 17 17 16 16 16 16 15 15 14 14 13 12 12 11 11 11 11 10 10 10 10 9 9 8 8 8 8 8 8 8 8 9 10 13 12 11 9 8 8 8 9 10 14 16 17 17 14 13 12 11 11 10 10 10 10 10 10 10 11 12 15 17 18 20 22 22 19 18 19 15 8 4 0 0 0 0 0 0 0 0 0 0 0 0 0 0 0 0 0 0 0 0 0 0 0 0 0 0 0 0 0 0 0 0 0 0 0 0 0 0 0 0 0 0 0 0 0 0 0 0 0 0 0 0 0 0 0 0 0 0 0 0 0 0 0 0 0 0 0 0 0 0 0 0 0 0 0 0 0 0 0 0 0 0 0 0 0 0 0 0 0 0 0 0 0 0 0 0 0 0 0 0 0 0 0 0 0 0 0 0 0 0 0 0 0 0 0 0 0 0 0 0 0 0 0 0 0 0 0 0 0 0 0 0 0 0 0 0 0 0 0 0 0 0 0 0 0 0 0 0 0 0 0 0 0 0 0 0 0 0 0 0 0 0 0 0 0 0 0 0 0 0 0 0 0 0 0 0 0 0 0 0 0 0 0 0 0 0 0 0 0 0 0 0 0 0 0 0 0 0 0 0 0 0 0 0 0 0 0 0 0 0 0 0 0 0 0 0 0 0 0 0 0 0 0 0 0 0 0 0 0 0 0 0 0 0 0 0 0 0 0 0 0 0 0 0 0 0 0 0 0 0 0 0 0 0 0 0 0 0 0 0 0 0 0 0 0 0 0 0 0 0 0 0 0 0 0 0 0 0 0 0 0 0 0 0 0 0 0 0 0 0 0 0 0 0 0 0 0 0 0 0 0 0 0 0 0 0 0 0 0 0 0 0 0 0 0 0 0 0 0 0 0 0 0 0 0 0 0 0 0 0 0 0 0 0 0 0 0 0 0 0 0 0 0 0 0 0 0 0 0 0 0 0 0 0 0 0 0 0 0 0 0 0 0 0 0 0 0 0 0 0 0 0 0 0 0 0 0 0 0 0 0 0 0 0 0 0 0 0 0 0 0 0 0 0 0 0 0 0 0 0 0 0 0 0 0 0 0 0 0 0 0 0 0 0 0 0 0 0 0 0 0 0 0 0 0 0 0 0 0 0 0 0 0 0 0 0 0 0 0 0 0 0 0 0 0 0 0 0 0 0 0 0 0 0 0 0 0 0 0 0 0 0 0 0 0 0 0 0 0 0 0 0 0 0
50 51 57 57 53 48 43 41 35 31 29 28 28 28 29 33 37 39 40 40 40 43 37 31 18 11 11 11 11 11 11 11 11 11 11 11 11 12 12 12 12 13 13 13 14 14 14 14 14 15 16 20 25 28 30 30 31 33 33 32 32 34 36 38 38 38 39 40 40 41 41 40 38 40 44 44 39 38 34 32 37 45 48 50 50 52 55 57 56 51 45 40 40 41 44 45 45 45 42 38 42 41 39 39 39 38 38 39 40 41 42 45 49 52 54 56 59 60 58 58 56 56 58 59 59 61 69 76 81 82 80 77 75 74 73 69 67 60 61 59 50 44 37 30 30 29 30 36 38 41 45 46 40 36 35 34 33 31 31 32 36 41 45 47 48 48 48 48 45 44 41 35 30 29 29 32 34 36 39 44 44 38 31 27 26 25 25 23 23 20 20 20 21 20 20 20 19 20 20 20 21 21 21 22 22 22 22 22 22 22 21 21 21 22 22 24 32 39 43 44 44 43 37 29 22 20 20 20 19 19 20 21 26 32 38 38 35 34 34 35 37 40 45 46 43 41 34 27 23 17 16 16 16 16 16 19 21 20 22 23 23 23 26 27 27 28 26 26 26 30 35 37 38 40 40 38 38 36 33 30 29 29 29 30 30 30 33 29 27 27 27 27 27 27 31 38 41 43 43 43 43 44 44 44 43 41 39 34 31 29 28 25 23 21 21 20 20 18 17 16 16 16 17 16 13 11 11 11 11 11 11 16 22 23 21 18 17 17 17 16 16 16 17 17 17 20 25 29 26 26 26 27 27 27 23 20 20 19 17 16 15 16 16 16 14 14 14 15 15 15 15 15 15 13 12 10 8 8 8 8 8 8 8 9 10 13 15 16 16 17 17 18 18 18 18 17 17 17 16 16 15 15 15 14 14 13 13 12 11 11 11 11 11 10 10 10 10 9 8 8 8 8 7 7 7 8 8 8 9 9 9 9 8 8 8 8 10 13 17 20 21 21 21 18 13 11 11 10 10 10 10 10 10 10 11 12 15 17 20 21 22 17 14 12 12 7 1 0 0 0 0 0 0 0 0 0 0 0 0 0 0 0 0 0 0 0 0 0 0 0 0 0 0 0 0 0 0 0 0 0 0 0 0 0 0 0 0 0 0 0 0 0 0 0 0 0 0 0 0 0 0 0 0 0 0 0 0 0 0 0 0 0 0 0 0 0 0 0 0 0 0 0 0 0 0 0 0 0 0 0 0 0 0 0 0 0 0 0 0 0 0 0 0 0 0 0 0 0 0 0 0 0 0 0 0 0 0 0 0 0 0 0 0 0 0 0 0 0 0 0 0 0 0 0 0 0 0 0 0 0 0 0 0 0 0 0 0 0 0 0 0 0 0 0 0 0 0 0 0 0 0 0 0 0 0 0 0 0 0 0 0 0 0 0 0 0 0 0 0 0 0 0 0 0 0 0 0 0 0 0 0 0 0 0 0 0 0 0 0 0 0 0 0 0 0 0 0 0 0 0 0 0 0 0 0 0 0 0 0 0 0 0 0 0 0 0 0 0 0 0 0 0 0 0 0 0 0 0 0 0 0 0 0 0 0 0 0 0 0 0 0 0 0 0 0 0 0 0 0 0 0 0 0 0 0 0 0 0 0 0 0 0 0 0 0 0 0 0 0 0 0 0 0 0 0 0 0 0 0 0 0 0 0 0 0 0 0 0 0 0 0 0 0 0 0 0 0 0 0 0 0 0 0 0 0 0 0 0 0 0 0 0 0 0 0 0 0 0 0 0 0 0 0 0 0 0 0 0 0 0 0 0 0 0 0 0 0 0 0 0 0 0 0 0 0 0 0 0 0 0 0 0 0 0 0 0 0 0 0 0 0 0 0 0 0 0 0 0 0 0 0 0 0 0 0 0 0 0 0 0 0 0 0 0 0 0 0 0 0 0 0 0 0 0 0 0 0 0 0 0 0 0 0 0 0 0 0 0 0 0 0 0 0 0 0 0 0 0 0 0 0 0 0 0 0 0 0 0 0 0 0 0 0 0 0 0 0 0 0 0 0 0 0 0 0 0 0 0 0 0 0 0 0 0 0 0 0 0 0 0 0 0 0 0 0 0 0 0 0 0 0 0
51 53 56 56 53 49 47 45 38 32 29 28 28 28 29 35 39 40 41 41 41 39 37 32 21 14 11 11 11 11 11 11 11 11 11 11 11 12 12 12 12 13 13 13 14 14 14 14 15 16 16 20 27 28 28 30 35 38 38 35 33 36 38 40 40 40 40 41 41 41 41 40 37 39 44 45 38 31 30 32 38 45 49 50 50 50 50 53 53 50 45 40 40 41 44 45 45 44 40 39 42 42 39 39 39 39 38 39 38 38 39 45 52 56 58 59 61 63 59 60 56 56 57 58 58 60 67 74 79 81 79 76 76 74 72 68 63 57 54 51 44 38 33 30 30 30 30 31 33 38 41 44 40 37 37 37 36 32 31 31 34 38 44 47 48 50 51 48 43 43 41 39 31 29 29 32 35 38 42 44 41 36 31 25 25 24 24 24 23 23 23 23 21 21 21 20 19 20 20 20 21 21 21 21 21 21 21 21 21 21 21 21 21 21 21 22 29 38 44 45 45 43 35 26 21 20 20 20 19 19 21 23 27 33 40 39 35 33 33 34 35 38 44 46 43 42 39 27 23 17 15 15 15 15 16 17 18 20 23 23 23 23 23 23 23 23 25 25 26 29 33 36 35 36 37 36 33 32 32 29 28 27 25 25 26 26 30 28 29 30 27 27 27 27 31 37 40 41 41 41 41 41 40 39 38 38 38 34 33 30 27 24 23 21 21 20 20 19 17 16 16 17 17 17 16 11 11 11 11 11 11 14 19 19 17 17 17 17 17 17 17 17 18 17 19 23 26 29 26 25 23 24 26 27 24 19 17 16 16 14 14 14 14 14 14 14 14 15 15 15 14 14 14 13 12 11 9 9 8 8 8 8 8 9 15 17 17 17 17 17 17 18 18 18 18 17 17 17 16 15 15 15 15 14 13 13 12 12 11 11 11 11 11 10 10 9 9 9 8 8 7 7 7 7 7 7 7 7 8 8 8 8 8 8 8 8 10 15 19 24 25 24 24 21 16 12 11 10 10 10 10 10 10 10 11 11 13 16 19 20 16 10 7 2 2 0 0 0 0 0 0 0 0 0 0 0 0 0 0 0 0 0 0 0 0 0 0 0 0 0 0 0 0 0 0 0 0 0 0 0 0 0 0 0 0 0 0 0 0 0 0 0 0 0 0 0 0 0 0 0 0 0 0 0 0 0 0 0 0 0 0 0 0 0 0 0 0 0 0 0 0 0 0 0 0 0 0 0 0 0 0 0 0 0 0 0 0 0 0 0 0 0 0 0 0 0 0 0 0 0 0 0 0 0 0 0 0 0 0 0 0 0 0 0 0 0 0 0 0 0 0 0 0 0 0 0 0 0 0 0 0 0 0 0 0 0 0 0 0 0 0 0 0 0 0 0 0 0 0 0 0 0 0 0 0 0 0 0 0 0 0 0 0 0 0 0 0 0 0 0 0 0 0 0 0 0 0 0 0 0 0 0 0 0 0 0 0 0 0 0 0 0 0 0 0 0 0 0 0 0 0 0 0 0 0 0 0 0 0 0 0 0 0 0 0 0 0 0 0 0 0 0 0 0 0 0 0 0 0 0 0 0 0 0 0 0 0 0 0 0 0 0 0 0 0 0 0 0 0 0 0 0 0 0 0 0 0 0 0 0 0 0 0 0 0 0 0 0 0 0 0 0 0 0 0 0 0 0 0 0 0 0 0 0 0 0 0 0 0 0 0 0 0 0 0 0 0 0 0 0 0 0 0 0 0 0 0 0 0 0 0 0 0 0 0 0 0 0 0 0 0 0 0 0 0 0 0 0 0 0 0 0 0 0 0 0 0 0 0 0 0 0 0 0 0 0 0 0 0 0 0 0 0 0 0 0 0 0 0 0 0 0 0 0 0 0 0 0 0 0 0 0 0 0 0 0 0 0 0 0 0 0 0 0 0 0 0 0 0 0 0 0 0 0 0 0 0 0 0 0 0 0 0 0 0 0 0 0 0 0 0 0 0 0 0 0 0 0 0 0 0 0 0 0 0 0 0 0 0 0 0 0 0 0 0 0 0 0 0 0 0 0 0 0 0 0 0 0 0 0 0 0 0 0 0 0 0 0 0 0 0 0 0 0 0 0 0 0 0 0 0 0
50 52 55 57 54 50 50 47 40 35 30 28 28 28 30 37 43 44 42 42 41 39 37 32 24 17 14 14 13 11 11 11 11 11 11 11 12 12 12 12 12 13 13 13 14 14 15 16 17 17 17 20 23 25 28 32 40 43 43 39 36 36 39 41 42 42 43 43 42 42 42 41 36 36 42 41 35 27 29 36 40 46 50 50 50 50 50 50 50 49 45 41 40 40 42 44 45 43 40 39 42 43 41 39 39 39 39 39 39 39 39 43 50 54 58 60 64 63 58 59 58 56 56 56 56 58 63 69 72 76 75 74 73 74 71 65 56 51 46 43 38 31 29 29 29 29 30 30 33 37 39 42 40 39 39 39 37 33 31 31 33 38 42 47 48 51 52 48 40 37 36 35 31 29 29 31 34 36 41 42 38 35 30 25 25 24 24 24 24 24 24 23 21 21 21 21 21 20 20 20 20 20 21 21 21 21 21 21 21 21 21 20 20 20 20 20 26 35 43 45 44 40 31 24 20 20 20 20 20 20 22 24 28 33 40 38 36 34 32 30 31 34 43 46 39 41 39 27 23 18 15 14 14 14 15 16 18 20 24 26 27 26 23 23 24 24 24 25 26 28 30 32 31 31 31 31 30 29 29 29 28 27 25 25 26 26 29 28 29 31 27 27 28 34 35 38 40 41 41 41 41 41 39 38 38 38 36 32 27 25 24 22 21 21 21 21 20 19 17 17 17 17 18 17 16 11 11 11 11 12 12 14 17 17 18 18 18 18 19 21 21 21 24 24 22 24 27 27 25 23 19 18 19 20 17 15 15 14 14 14 14 14 14 14 14 14 14 15 14 14 13 12 12 12 11 11 10 10 9 8 8 9 9 10 17 18 18 18 17 17 17 18 18 18 17 17 17 16 16 15 15 15 14 14 13 12 12 12 11 11 11 11 10 10 10 9 9 9 8 8 7 7 7 6 6 6 6 7 8 8 8 8 8 8 8 9 10 15 19 23 25 24 23 20 16 12 11 11 10 10 11 11 11 11 11 11 11 13 15 15 9 5 0 0 0 0 0 0 0 0 0 0 0 0 0 0 0 0 0 0 0 0 0 0 0 0 0 0 0 0 0 0 0 0 0 0 0 0 0 0 0 0 0 0 0 0 0 0 0 0 0 0 0 0 0 0 0 0 0 0 0 0 0 0 0 0 0 0 0 0 0 0 0 0 0 0 0 0 0 0 0 0 0 0 0 0 0 0 0 0 0 0 0 0 0 0 0 0 0 0 0 0 0 0 0 0 0 0 0 0 0 0 0 0 0 0 0 0 0 0 0 0 0 0 0 0 0 0 0 0 0 0 0 0 0 0 0 0 0 0 0 0 0 0 0 0 0 0 0 0 0 0 0 0 0 0 0 0 0 0 0 0 0 0 0 0 0 0 0 0 0 0 0 0 0 0 0 0 0 0 0 0 0 0 0 0 0 0 0 0 0 0 0 0 0 0 0 0 0 0 0 0 0 0 0 0 0 0 0 0 0 0 0 0 0 0 0 0 0 0 0 0 0 0 0 0 0 0 0 0 0 0 0 0 0 0 0 0 0 0 0 0 0 0 0 0 0 0 0 0 0 0 0 0 0 0 0 0 0 0 0 0 0 0 0 0 0 0 0 0 0 0 0 0 0 0 0 0 0 0 0 0 0 0 0 0 0 0 0 0 0 0 0 0 0 0 0 0 0 0 0 0 0 0 0 0 0 0 0 0 0 0 0 0 0 0 0 0 0 0 0 0 0 0 0 0 0 0 0 0 0 0 0 0 0 0 0 0 0 0 0 0 0 0 0 0 0 0 0 0 0 0 0 0 0 0 0 0 0 0 0 0 0 0 0 0 0 0 0 0 0 0 0 0 0 0 0 0 0 0 0 0 0 0 0 0 0 0 0 0 0 0 0 0 0 0 0 0 0 0 0 0 0 0 0 0 0 0 0 0 0 0 0 0 0 0 0 0 0 0 0 0 0 0 0 0 0 0 0 0 0 0 0 0 0 0 0 0 0 0 0 0 0 0 0 0 0 0 0 0 0 0 0 0 0 0 0 0 0 0 0 0 0 0 0 0 0 0 0 0 0 0 0 0 0 0 0 0 0 0 0 0
50 51 54 55 53 50 54 50 44 38 34 29 28 28 31 39 45 48 43 42 40 39 38 33 26 19 14 13 13 12 11 11 11 11 11 11 12 12 12 12 12 13 13 13 14 14 15 17 18 17 17 21 23 25 29 37 44 47 46 43 39 37 38 40 42 45 47 45 45 45 43 42 36 34 40 36 30 26 29 36 42 46 48 48 49 49 49 49 50 49 48 43 40 39 40 41 44 43 40 38 41 41 41 39 39 39 39 39 39 39 38 39 44 48 54 60 61 59 57 54 55 56 56 56 56 56 60 63 65 69 71 68 67 68 65 59 52 44 41 38 33 30 29 29 29 29 30 30 33 36 37 39 40 40 40 39 37 35 30 30 32 36 41 46 47 49 51 46 36 32 31 30 29 29 29 31 31 35 36 36 36 33 27 25 25 24 23 23 23 23 23 23 22 21 21 21 21 21 20 20 19 20 20 20 20 20 20 20 21 21 21 20 19 20 20 20 23 30 38 44 43 38 28 22 21 20 20 20 20 20 23 25 30 32 37 37 36 35 35 29 29 32 41 42 34 34 36 27 23 19 15 14 14 13 13 15 18 20 25 32 35 33 27 23 23 23 24 25 26 28 30 31 31 31 31 31 32 32 31 32 32 27 26 26 26 26 26 27 27 28 27 27 33 37 40 40 40 40 41 41 40 40 38 38 38 37 36 32 19 17 18 19 19 20 20 23 20 19 18 18 18 18 18 17 15 12 11 11 11 12 12 14 16 17 18 19 21 23 22 20 22 25 27 28 26 27 28 28 25 21 17 17 16 15 14 14 14 14 14 14 14 14 14 14 15 15 15 15 14 13 11 11 11 11 11 11 11 11 10 8 8 10 9 9 17 18 18 18 17 17 17 18 17 17 17 16 16 16 15 15 14 14 14 13 13 12 12 12 11 11 11 11 10 10 10 9 9 9 8 8 7 7 7 6 6 6 6 6 7 7 7 7 8 8 8 9 10 15 18 21 21 22 21 17 15 12 11 11 10 10 11 11 11 11 11 11 11 11 10 10 7 2 0 0 0 0 0 0 0 0 0 0 0 0 0 0 0 0 0 0 0 0 0 0 0 0 0 0 0 0 0 0 0 0 0 0 0 0 0 0 0 0 0 0 0 0 0 0 0 0 0 0 0 0 0 0 0 0 0 0 0 0 0 0 0 0 0 0 0 0 0 0 0 0 0 0 0 0 0 0 0 0 0 0 0 0 0 0 0 0 0 0 0 0 0 0 0 0 0 0 0 0 0 0 0 0 0 0 0 0 0 0 0 0 0 0 0 0 0 0 0 0 0 0 0 0 0 0 0 0 0 0 0 0 0 0 0 0 0 0 0 0 0 0 0 0 0 0 0 0 0 0 0 0 0 0 0 0 0 0 0 0 0 0 0 0 0 0 0 0 0 0 0 0 0 0 0 0 0 0 0 0 0 0 0 0 0 0 0 0 0 0 0 0 0 0 0 0 0 0 0 0 0 0 0 0 0 0 0 0 0 0 0 0 0 0 0 0 0 0 0 0 0 0 0 0 0 0 0 0 0 0 0 0 0 0 0 0 0 0 0 0 0 0 0 0 0 0 0 0 0 0 0 0 0 0 0 0 0 0 0 0 0 0 0 0 0 0 0 0 0 0 0 0 0 0 0 0 0 0 0 0 0 0 0 0 0 0 0 0 0 0 0 0 0 0 0 0 0 0 0 0 0 0 0 0 0 0 0 0 0 0 0 0 0 0 0 0 0 0 0 0 0 0 0 0 0 0 0 0 0 0 0 0 0 0 0 0 0 0 0 0 0 0 0 0 0 0 0 0 0 0 0 0 0 0 0 0 0 0 0 0 0 0 0 0 0 0 0 0 0 0 0 0 0 0 0 0 0 0 0 0 0 0 0 0 0 0 0 0 0 0 0 0 0 0 0 0 0 0 0 0 0 0 0 0 0 0 0 0 0 0 0 0 0 0 0 0 0 0 0 0 0 0 0 0 0 0 0 0 0 0 0 0 0 0 0 0 0 0 0 0 0 0 0 0 0 0 0 0 0 0 0 0 0 0 0 0 0 0 0 0 0 0 0 0 0 0 0 0 0 0 0 0 0 0 0 0 0 0 0 0
50 50 50 52 52 50 57 54 49 41 37 30 28 28 34 39 44 46 42 41 39 38 39 36 26 18 15 14 15 15 14 12 11 11 11 11 12 12 12 12 12 13 13 13 13 14 14 16 18 18 17 21 24 28 32 40 48 50 48 46 43 40 38 39 42 45 49 50 47 46 45 43 37 32 34 31 25 26 29 34 40 45 44 44 46 46 47 47 49 50 48 45 44 42 42 39 39 42 40 38 38 39 39 39 39 39 39 39 39 39 39 39 40 45 53 58 60 59 57 53 54 56 56 55 55 56 60 63 65 67 70 67 63 63 61 58 52 43 37 35 33 30 30 30 30 30 30 30 33 35 36 38 41 41 41 40 38 35 30 30 31 33 39 45 46 47 47 38 32 30 30 30 29 30 30 31 31 32 31 29 29 29 26 25 25 24 23 23 23 23 22 22 22 21 21 21 21 21 20 20 17 17 17 18 18 18 19 19 20 20 20 20 19 19 19 20 20 24 31 38 41 33 25 21 20 20 20 20 20 20 23 25 29 32 36 38 39 41 40 28 27 31 37 36 28 26 27 23 22 19 15 14 14 13 13 13 16 18 24 32 36 36 33 26 23 23 23 26 26 29 30 31 32 32 32 33 37 37 37 37 35 29 26 26 26 26 26 25 26 27 27 30 36 40 41 40 39 37 38 38 38 37 37 37 37 36 35 23 6 3 7 14 16 19 20 26 25 21 18 17 17 17 17 16 13 12 12 12 12 12 12 14 17 18 20 21 25 25 22 20 21 25 28 28 28 30 32 32 29 22 17 17 16 16 15 14 14 14 14 14 14 14 14 13 14 14 14 14 13 11 11 11 11 11 11 11 12 12 12 11 11 13 13 12 17 17 18 18 18 17 17 17 17 16 16 16 16 15 15 15 14 14 14 13 12 12 12 12 11 11 11 11 10 10 10 9 9 9 8 7 7 7 7 6 6 6 6 6 7 7 7 7 8 8 9 10 11 13 17 17 16 17 16 15 13 12 11 11 11 11 12 12 12 12 12 11 11 11 10 9 8 2 0 0 0 0 0 0 0 0 0 0 0 0 0 0 0 0 0 0 0 0 0 0 0 0 0 0 0 0 0 0 0 0 0 0 0 0 0 0 0 0 0 0 0 0 0 0 0 0 0 0 0 0 0 0 0 0 0 0 0 0 0 0 0 0 0 0 0 0 0 0 0 0 0 0 0 0 0 0 0 0 0 0 0 0 0 0 0 0 0 0 0 0 0 0 0 0 0 0 0 0 0 0 0 0 0 0 0 0 0 0 0 0 0 0 0 0 0 0 0 0 0 0 0 0 0 0 0 0 0 0 0 0 0 0 0 0 0 0 0 0 0 0 0 0 0 0 0 0 0 0 0 0 0 0 0 0 0 0 0 0 0 0 0 0 0 0 0 0 0 0 0 0 0 0 0 0 0 0 0 0 0 0 0 0 0 0 0 0 0 0 0 0 0 0 0 0 0 0 0 0 0 0 0 0 0 0 0 0 0 0 0 0 0 0 0 0 0 0 0 0 0 0 0 0 0 0 0 0 0 0 0 0 0 0 0 0 0 0 0 0 0 0 0 0 0 0 0 0 0 0 0 0 0 0 0 0 0 0 0 0 0 0 0 0 0 0 0 0 0 0 0 0 0 0 0 0 0 0 0 0 0 0 0 0 0 0 0 0 0 0 0 0 0 0 0 0 0 0 0 0 0 0 0 0 0 0 0 0 0 0 0 0 0 0 0 0 0 0 0 0 0 0 0 0 0 0 0 0 0 0 0 0 0 0 0 0 0 0 0 0 0 0 0 0 0 0 0 0 0 0 0 0 0 0 0 0 0 0 0 0 0 0 0 0 0 0 0 0 0 0 0 0 0 0 0 0 0 0 0 0 0 0 0 0 0 0 0 0 0 0 0 0 0 0 0 0 0 0 0 0 0 0 0 0 0 0 0 0 0 0 0 0 0 0 0 0 0 0 0 0 0 0 0 0 0 0 0 0 0 0 0 0 0 0 0 0 0 0 0 0 0 0 0 0 0 0 0 0 0 0 0 0 0 0 0 0 0 0 0 0 0 0 0 0 0 0 0 0 0 0 0 0 0 0 0 0 0 0 0 0
50 50 50 50 51 51 58 58 53 47 39 31 28 28 34 39 42 43 41 40 37 37 39 35 25 17 16 16 17 19 19 18 16 12 11 11 12 12 12 12 12 13 13 13 13 14 14 14 18 18 18 22 27 30 33 40 47 49 49 49 49 44 40 40 40 42 47 50 50 49 45 43 37 30 30 26 22 25 29 30 33 37 37 38 39 40 43 47 50 51 50 50 49 46 47 43 40 39 39 39 39 39 39 39 39 39 41 44 44 40 39 38 38 40 48 56 59 59 55 53 56 60 59 56 55 56 60 64 67 68 69 67 62 58 58 57 53 44 35 33 32 30 30 30 30 29 30 30 33 35 36 38 41 41 40 40 39 36 31 30 29 30 35 43 45 42 38 31 30 30 30 30 30 30 30 31 29 28 26 26 26 26 26 25 25 24 24 23 23 23 23 22 22 22 22 21 21 21 20 20 17 17 16 17 17 17 17 17 18 19 19 19 19 19 19 19 19 20 24 29 34 30 24 21 20 19 19 19 20 20 22 23 28 31 37 39 40 42 40 28 24 28 32 33 24 18 18 18 17 16 15 14 13 13 13 13 15 16 19 27 34 35 33 30 26 23 23 26 29 33 33 32 32 34 35 38 40 40 39 37 36 34 33 32 28 26 26 25 25 26 26 31 36 41 41 39 38 36 36 36 36 36 36 36 36 36 33 7 0 0 0 3 9 18 20 22 24 22 19 17 17 16 16 14 13 12 12 12 13 14 16 19 22 25 26 26 25 25 21 20 20 24 28 29 30 32 34 34 29 23 19 18 17 17 17 19 17 15 14 14 14 14 14 13 13 13 13 13 11 11 11 11 11 11 11 12 13 14 14 14 14 14 15 17 17 17 17 17 17 17 17 16 16 16 15 15 15 15 15 15 15 15 14 13 12 12 12 12 11 11 11 11 10 10 10 9 9 9 8 7 7 7 6 6 5 5 5 6 7 7 7 7 8 9 10 11 13 15 17 17 15 13 15 14 12 11 11 11 13 15 15 14 14 14 14 13 12 11 10 9 8 5 1 0 0 0 0 0 0 0 0 0 0 0 0 0 0 0 0 0 0 0 0 0 0 0 0 0 0 0 0 0 0 0 0 0 0 0 0 0 0 0 0 0 0 0 0 0 0 0 0 0 0 0 0 0 0 0 0 0 0 0 0 0 0 0 0 0 0 0 0 0 0 0 0 0 0 0 0 0 0 0 0 0 0 0 0 0 0 0 0 0 0 0 0 0 0 0 0 0 0 0 0 0 0 0 0 0 0 0 0 0 0 0 0 0 0 0 0 0 0 0 0 0 0 0 0 0 0 0 0 0 0 0 0 0 0 0 0 0 0 0 0 0 0 0 0 0 0 0 0 0 0 0 0 0 0 0 0 0 0 0 0 0 0 0 0 0 0 0 0 0 0 0 0 0 0 0 0 0 0 0 0 0 0 0 0 0 0 0 0 0 0 0 0 0 0 0 0 0 0 0 0 0 0 0 0 0 0 0 0 0 0 0 0 0 0 0 0 0 0 0 0 0 0 0 0 0 0 0 0 0 0 0 0 0 0 0 0 0 0 0 0 0 0 0 0 0 0 0 0 0 0 0 0 0 0 0 0 0 0 0 0 0 0 0 0 0 0 0 0 0 0 0 0 0 0 0 0 0 0 0 0 0 0 0 0 0 0 0 0 0 0 0 0 0 0 0 0 0 0 0 0 0 0 0 0 0 0 0 0 0 0 0 0 0 0 0 0 0 0 0 0 0 0 0 0 0 0 0 0 0 0 0 0 0 0 0 0 0 0 0 0 0 0 0 0 0 0 0 0 0 0 0 0 0 0 0 0 0 0 0 0 0 0 0 0 0 0 0 0 0 0 0 0 0 0 0 0 0 0 0 0 0 0 0 0 0 0 0 0 0 0 0 0 0 0 0 0 0 0 0 0 0 0 0 0 0 0 0 0 0 0 0 0 0 0 0 0 0 0 0 0 0 0 0 0 0 0 0 0 0 0 0 0 0 0 0 0 0 0 0 0 0 0 0 0 0 0 0 0 0 0 0 0 0 0 0 0 0 0 0 0 0 0 0 0 0 0 0 0 0 0 0 0 0 0 0 0 0 0 0
50 50 50 50 51 53 58 60 56 49 42 32 28 28 33 40 42 40 39 39 34 33 36 33 23 16 17 18 20 23 23 24 23 16 11 11 11 12 12 12 12 13 13 13 13 14 13 14 14 15 19 24 29 30 33 37 43 46 48 49 49 46 42 40 41 41 43 48 49 49 44 40 35 27 24 21 22 23 26 25 26 28 29 31 33 40 45 49 52 53 53 52 51 51 51 48 47 42 39 39 39 39 39 39 39 42 45 48 50 44 40 38 39 39 44 50 53 53 53 52 55 60 62 57 56 57 60 62 67 68 68 63 59 55 55 56 54 49 42 34 31 30 30 30 30 29 30 30 32 34 36 38 41 40 40 40 40 39 34 30 29 29 30 35 38 34 30 29 30 30 30 30 30 30 30 30 28 26 26 26 26 26 26 26 26 25 25 24 23 23 23 22 22 22 22 22 21 21 20 20 17 17 16 17 17 17 17 17 17 17 18 18 18 19 19 19 19 19 20 22 27 27 21 19 19 19 18 18 19 19 21 22 24 29 38 39 37 40 39 27 22 25 29 29 23 17 17 16 16 16 16 14 13 13 13 13 13 15 16 20 27 30 30 30 28 24 22 24 28 34 35 35 35 36 40 40 40 40 39 35 35 34 34 35 29 27 26 25 25 26 26 32 36 41 41 38 38 36 36 36 37 38 38 38 38 37 32 1 0 0 0 0 3 16 20 21 23 23 21 18 17 16 16 14 13 13 13 14 15 18 20 23 27 26 26 25 24 23 19 19 19 23 28 31 33 33 32 31 28 25 23 22 21 19 17 19 20 17 15 15 15 14 13 13 13 13 13 12 11 11 11 11 11 12 13 14 15 15 16 16 16 16 16 17 17 17 17 17 17 16 16 16 16 15 15 15 15 14 14 15 15 15 14 13 13 12 12 12 11 11 11 11 10 10 10 9 9 9 8 7 7 7 6 6 5 5 5 6 7 7 7 8 10 11 12 15 16 17 18 17 14 12 13 12 10 10 12 14 17 17 16 16 16 16 16 15 14 13 11 8 7 4 0 0 0 0 0 0 0 0 0 0 0 0 0 0 0 0 0 0 0 0 0 0 0 0 0 0 0 0 0 0 0 0 0 0 0 0 0 0 0 0 0 0 0 0 0 0 0 0 0 0 0 0 0 0 0 0 0 0 0 0 0 0 0 0 0 0 0 0 0 0 0 0 0 0 0 0 0 0 0 0 0 0 0 0 0 0 0 0 0 0 0 0 0 0 0 0 0 0 0 0 0 0 0 0 0 0 0 0 0 0 0 0 0 0 0 0 0 0 0 0 0 0 0 0 0 0 0 0 0 0 0 0 0 0 0 0 0 0 0 0 0 0 0 0 0 0 0 0 0 0 0 0 0 0 0 0 0 0 0 0 0 0 0 0 0 0 0 0 0 0 0 0 0 0 0 0 0 0 0 0 0 0 0 0 0 0 0 0 0 0 0 0 0 0 0 0 0 0 0 0 0 0 0 0 0 0 0 0 0 0 0 0 0 0 0 0 0 0 0 0 0 0 0 0 0 0 0 0 0 0 0 0 0 0 0 0 0 0 0 0 0 0 0 0 0 0 0 0 0 0 0 0 0 0 0 0 0 0 0 0 0 0 0 0 0 0 0 0 0 0 0 0 0 0 0 0 0 0 0 0 0 0 0 0 0 0 0 0 0 0 0 0 0 0 0 0 0 0 0 0 0 0 0 0 0 0 0 0 0 0 0 0 0 0 0 0 0 0 0 0 0 0 0 0 0 0 0 0 0 0 0 0 0 0 0 0 0 0 0 0 0 0 0 0 0 0 0 0 0 0 0 0 0 0 0 0 0 0 0 0 0 0 0 0 0 0 0 0 0 0 0 0 0 0 0 0 0 0 0 0 0 0 0 0 0 0 0 0 0 0 0 0 0 0 0 0 0 0 0 0 0 0 0 0 0 0 0 0 0 0 0 0 0 0 0 0 0 0 0 0 0 0 0 0 0 0 0 0 0 0 0 0 0 0 0 0 0 0 0 0 0 0 0 0 0 0 0 0 0 0 0 0 0 0 0 0 0 0 0 0 0 0 0 0 0 0 0 0 0 0 0 0 0 0 0 0 0 0 0 0
50 50 50 50 52 54 59 62 60 55 45 36 30 28 31 40 42 36 35 35 33 31 31 29 21 15 16 18 20 23 25 27 28 22 13 11 11 12 12 11 12 12 12 12 13 14 13 14 14 16 23 28 30 31 31 34 38 43 46 47 48 46 44 43 42 42 43 45 48 48 41 34 29 23 20 20 22 23 23 23 24 25 28 28 33 41 46 49 52 53 53 52 52 53 53 53 52 46 41 39 39 38 39 42 42 45 48 52 54 50 45 38 39 39 39 41 42 46 48 51 55 58 61 58 56 57 59 62 66 67 68 64 60 56 52 53 56 54 48 40 32 30 30 30 30 30 30 30 32 34 36 40 40 40 39 39 39 39 36 30 30 29 30 30 30 30 30 30 30 30 30 30 30 30 31 30 29 29 27 26 26 26 28 27 27 27 26 25 25 23 23 23 22 22 22 22 22 21 20 20 19 17 17 17 17 17 16 16 16 17 17 17 18 18 18 18 18 19 19 19 21 23 20 19 19 18 18 18 18 19 22 22 23 26 33 33 31 34 34 24 17 19 23 25 19 17 17 16 16 16 16 15 14 14 14 14 14 14 15 16 20 23 24 25 25 23 21 22 28 35 36 36 35 36 39 40 38 38 36 33 33 32 30 30 29 26 26 25 26 26 26 32 38 40 39 37 37 36 36 36 37 38 39 38 38 37 34 14 1 0 0 1 2 14 20 21 22 22 21 21 19 17 16 15 13 13 13 15 18 19 20 23 25 25 24 23 23 22 19 19 20 24 30 33 34 34 32 31 27 25 24 25 23 22 19 20 20 18 16 16 15 14 13 13 13 13 13 12 12 11 11 11 12 14 15 15 16 16 17 18 17 17 17 17 17 17 17 17 16 16 15 15 15 15 14 14 14 14 14 14 14 14 13 13 12 12 12 12 11 10 10 10 10 10 10 9 9 9 8 8 7 7 6 5 5 6 6 6 7 7 8 9 12 14 15 16 16 17 17 14 11 9 10 8 8 11 13 14 16 17 16 16 16 17 17 16 15 14 11 7 2 0 0 0 0 0 0 0 0 0 0 0 0 0 0 0 0 0 0 0 0 0 0 0 0 0 0 0 0 0 0 0 0 0 0 0 0 0 0 0 0 0 0 0 0 0 0 0 0 0 0 0 0 0 0 0 0 0 0 0 0 0 0 0 0 0 0 0 0 0 0 0 0 0 0 0 0 0 0 0 0 0 0 0 3 0 0 0 0 0 0 0 0 0 0 0 0 0 0 0 0 0 0 0 0 0 0 0 0 0 0 0 0 0 0 0 0 0 0 0 0 0 0 0 0 0 0 0 0 0 0 0 0 0 0 0 0 0 0 0 0 0 0 0 0 0 0 0 0 0 0 0 0 0 0 0 0 0 0 0 0 0 0 0 0 0 0 0 0 0 0 0 0 0 0 0 0 0 0 0 0 0 0 0 0 0 0 0 0 0 0 0 0 0 0 0 0 0 0 0 0 0 0 0 0 0 0 0 0 0 0 0 0 0 0 0 0 0 0 0 0 0 0 0 0 0 0 0 0 0 0 0 0 0 0 0 0 0 0 0 0 0 0 0 0 0 0 0 0 0 0 0 0 0 0 0 0 0 0 0 0 0 0 0 0 0 0 0 0 0 0 0 0 0 0 0 0 0 0 0 0 0 0 0 0 0 0 0 0 0 0 0 0 0 0 0 0 0 0 0 0 0 0 0 0 0 0 0 0 0 0 0 0 0 0 0 0 0 0 0 0 0 0 0 0 0 0 0 0 0 0 0 0 0 0 0 0 0 0 0 0 0 0 0 0 0 0 0 0 0 0 0 0 0 0 0 0 0 0 0 0 0 0 0 0 0 0 0 0 0 0 0 0 0 0 0 0 0 0 0 0 0 0 0 0 0 0 0 0 0 0 0 0 0 0 0 0 0 0 0 0 0 0 0 0 0 0 0 0 0 0 0 0 0 0 0 0 0 0 0 0 0 0 0 0 0 0 0 0 0 0 0 0 0 0 0 0 0 0 0 0 0 0 0 0 0 0 0 0 0 0 0 0 0 0 0 0 0 0 0 0 0 0 0 0 0 0 0 0 0 0 0 0 0 0 0 0 0 0 0 0 0
51 50 50 51 53 56 60 65 66 61 51 40 33 28 28 38 39 33 31 33 32 29 26 24 18 15 15 17 21 23 25 29 31 23 13 11 11 12 12 11 12 12 12 12 13 14 14 14 14 16 25 32 33 32 32 32 36 40 42 44 47 47 46 46 45 44 43 43 45 45 39 29 22 19 19 20 23 25 22 25 26 26 25 26 33 42 46 50 53 53 53 53 54 53 53 54 52 48 45 41 39 38 38 43 44 45 49 54 58 55 47 39 39 39 39 39 39 40 46 51 55 59 60 58 56 56 59 62 65 66 66 65 63 58 52 50 54 54 50 46 37 30 30 30 30 30 30 31 32 34 36 40 39 38 38 39 38 39 36 30 30 29 30 30 30 29 29 30 30 30 30 30 30 30 31 32 33 32 30 29 28 29 29 27 29 31 31 31 29 24 24 23 22 22 22 22 22 21 21 21 20 18 17 17 17 17 16 16 16 16 16 16 17 17 17 18 18 18 18 19 20 19 18 18 18 18 17 17 17 19 24 25 23 25 29 28 25 27 27 20 17 17 17 19 17 17 17 16 16 16 16 16 15 15 14 14 14 14 14 16 16 17 20 22 23 23 21 21 30 36 37 37 36 36 36 37 35 34 34 33 32 28 26 26 25 25 25 26 26 26 26 31 35 38 37 37 36 36 36 36 36 37 37 35 35 35 34 22 6 0 1 5 7 17 20 20 19 20 20 23 23 21 17 15 14 14 14 19 20 21 21 20 20 20 20 22 22 20 19 19 20 25 30 32 33 33 33 30 26 23 22 22 22 22 21 21 21 18 18 17 15 14 14 13 13 13 13 13 13 14 14 14 15 16 16 16 16 17 20 22 19 18 17 17 17 17 17 17 16 15 15 15 15 14 14 14 14 14 13 13 13 13 13 12 12 12 12 12 11 10 10 10 10 10 10 9 9 9 8 8 7 7 6 5 5 6 6 6 7 7 8 10 12 15 16 16 16 15 13 10 6 6 6 8 8 11 12 14 15 15 14 14 16 18 17 17 15 14 10 3 0 0 0 0 0 0 0 0 0 0 0 0 0 0 0 0 0 0 0 0 0 0 0 0 0 0 0 0 0 0 0 0 0 0 0 0 0 0 0 0 0 0 0 0 0 0 0 0 0 0 0 0 0 0 0 0 0 0 0 0 0 0 0 0 0 0 0 0 0 0 0 0 0 0 0 0 0 0 0 0 0 0 0 2 4 1 0 0 0 0 0 0 0 0 0 0 0 0 0 0 0 0 0 0 0 0 0 0 0 0 0 0 0 0 0 0 0 0 0 0 0 0 0 0 0 0 0 0 0 0 0 0 0 0 0 0 0 0 0 0 0 0 0 0 0 0 0 0 0 0 0 0 0 0 0 0 0 0 0 0 0 0 0 0 0 0 0 0 0 0 0 0 0 0 0 0 0 0 0 0 0 0 0 0 0 0 0 0 0 0 0 0 0 0 0 0 0 0 0 0 0 0 0 0 0 0 0 0 0 0 0 0 0 0 0 0 0 0 0 0 0 0 0 0 0 0 0 0 0 0 0 0 0 0 0 0 0 0 0 0 0 0 0 0 0 0 0 0 0 0 0 0 0 0 0 0 0 0 0 0 0 0 0 0 0 0 0 0 0 0 0 0 0 0 0 0 0 0 0 0 0 0 0 0 0 0 0 0 0 0 0 0 0 0 0 0 0 0 0 0 0 0 0 0 0 0 0 0 0 0 0 0 0 0 0 0 0 0 0 0 0 0 0 0 0 0 0 0 0 0 0 0 0 0 0 0 0 0 0 0 0 0 0 0 0 0 0 0 0 0 0 0 0 0 0 0 0 0 0 0 0 0 0 0 0 0 0 0 0 0 0 0 0 0 0 0 0 0 0 0 0 0 0 0 0 0 0 0 0 0 0 0 0 0 0 0 0 0 0 0 0 0 0 0 0 0 0 0 0 0 0 0 0 0 0 0 0 0 0 0 0 0 0 0 0 0 0 0 0 0 0 0 0 0 0 0 0 0 0 0 0 0 0 0 0 0 0 0 0 0 0 0 0 0 0 0 0 0 0 0 0 0 0 0 0 0 0 0 0 0 0 0 0 0 0 0 0 0 0 0 0 0
53 51 52 52 55 59 63 65 67 65 55 43 33 28 26 32 36 33 30 30 31 29 26 22 16 15 14 16 22 24 23 29 30 20 12 11 11 12 12 12 12 13 13 13 13 14 14 14 14 16 25 33 35 34 32 32 32 35 39 43 47 49 49 51 49 47 45 43 39 38 33 26 19 19 19 20 21 23 20 24 26 26 22 25 32 43 48 51 52 52 53 53 54 54 53 54 53 50 48 43 39 38 38 39 42 44 49 56 61 57 48 39 39 39 39 39 39 39 42 46 53 58 59 58 56 56 60 63 65 66 66 65 64 59 53 50 50 51 50 46 39 33 30 30 30 30 30 32 33 34 35 37 37 37 38 38 36 35 34 30 30 30 30 30 30 29 29 30 30 30 30 29 30 30 30 32 33 33 33 33 31 30 30 30 32 36 37 38 36 29 24 23 22 22 22 22 22 21 20 20 20 20 18 17 17 17 16 16 16 16 16 16 16 16 17 17 17 17 17 18 19 18 18 17 17 17 16 16 16 18 28 30 23 23 29 28 24 21 18 17 17 17 17 17 17 17 17 17 16 16 16 16 16 15 14 14 14 14 14 15 16 18 21 23 23 22 22 20 29 35 37 37 36 35 33 31 31 33 34 34 32 28 26 26 25 25 25 26 27 26 26 30 33 36 35 36 36 35 35 35 35 36 35 35 34 33 32 22 6 0 1 7 9 17 17 15 13 17 19 24 26 27 21 16 14 14 14 20 21 22 21 21 21 20 19 20 19 19 19 19 20 24 30 31 33 32 31 27 23 20 20 21 21 22 22 23 23 24 24 22 18 14 14 13 14 14 14 14 14 15 15 15 15 16 16 16 16 17 19 22 19 18 17 17 17 17 17 16 16 15 15 15 14 13 14 14 14 13 12 12 12 12 12 11 11 11 11 11 10 10 9 9 9 9 9 9 9 9 9 8 8 7 6 6 6 6 6 6 6 8 9 11 13 16 16 16 15 13 10 7 5 5 5 8 8 10 13 15 16 15 14 14 16 18 17 16 14 10 5 0 0 0 0 0 0 0 0 0 0 0 0 0 0 0 0 0 0 0 0 0 0 0 0 0 0 0 0 0 0 0 0 0 0 0 0 0 0 0 0 0 0 0 0 0 0 0 0 0 0 0 0 0 0 0 0 0 0 0 0 0 0 0 0 0 0 0 0 0 0 0 0 0 0 0 0 0 0 0 0 0 0 0 0 2 5 3 0 0 0 0 0 0 0 0 0 0 0 0 0 0 0 0 0 0 0 0 0 0 0 0 0 0 0 0 0 0 0 0 0 0 0 0 0 0 0 0 0 0 0 0 0 0 0 0 0 0 0 0 0 0 0 0 0 0 0 0 0 0 0 0 0 0 0 0 0 0 0 0 0 0 0 0 0 0 0 0 0 0 0 0 0 0 0 0 0 0 0 0 0 0 0 0 0 0 0 0 0 0 0 0 0 0 0 0 0 0 0 0 0 0 0 0 0 0 0 0 0 0 0 0 0 0 0 0 0 0 0 0 0 0 0 0 0 0 0 0 0 0 0 0 0 0 0 0 0 0 0 0 0 0 0 0 0 0 0 0 0 0 0 0 0 0 0 0 0 0 0 0 0 0 0 0 0 0 0 0 0 0 0 0 0 0 0 0 0 0 0 0 0 0 0 0 0 0 0 0 0 0 0 0 0 0 0 0 0 0 0 0 0 0 0 0 0 0 0 0 0 0 0 0 0 0 0 0 0 0 0 0 0 0 0 0 0 0 0 0 0 0 0 0 0 0 0 0 0 0 0 0 0 0 0 0 0 0 0 0 0 0 0 0 0 0 0 0 0 0 0 0 0 0 0 0 0 0 0 0 0 0 0 0 0 0 0 0 0 0 0 0 0 0 0 0 0 0 0 0 0 0 0 0 0 0 0 0 0 0 0 0 0 0 0 0 0 0 0 0 0 0 0 0 0 0 0 0 0 0 0 0 0 0 0 0 0 0 0 0 0 0 0 0 0 0 0 0 0 0 0 0 0 0 0 0 0 0 0 0 0 0 0 0 0 0 0 0 0 0 0 0 0 0 0 0 0 0 0 0 0 0 0 0 0 0 0 0 0 0 0 0 0 0 0 0
55 54 52 52 53 60 66 67 68 66 56 42 31 27 23 26 30 31 29 27 28 27 25 20 15 15 14 16 23 24 22 28 25 16 11 11 11 12 12 12 12 13 14 14 14 14 14 14 14 16 25 32 35 36 36 33 29 30 35 41 46 49 49 52 52 52 50 45 37 33 28 21 19 19 19 19 19 19 19 24 25 24 20 22 30 39 47 50 50 51 53 56 56 55 54 55 56 53 48 43 40 38 38 38 38 42 49 55 61 56 48 38 38 39 39 39 39 39 39 40 47 56 58 57 56 56 59 64 66 67 67 64 64 60 54 50 48 48 47 45 40 35 30 30 30 30 31 33 34 35 36 36 35 35 37 37 34 31 30 30 30 29 30 30 30 30 30 30 30 30 30 29 30 30 30 30 31 33 34 34 32 31 32 34 37 37 38 38 38 31 24 23 23 22 22 22 22 21 20 20 20 20 18 18 18 18 17 16 16 16 16 16 16 16 16 16 16 16 17 17 18 18 18 17 17 16 16 16 16 16 23 27 23 19 24 26 21 18 17 17 17 17 17 17 17 17 17 17 17 17 17 16 16 15 14 14 14 13 14 14 16 18 20 24 24 22 21 18 27 33 35 35 35 33 30 25 28 33 34 34 31 28 25 25 25 24 24 27 29 27 26 28 30 31 34 35 35 34 34 35 36 36 34 32 29 23 20 14 3 0 0 1 5 7 7 5 11 17 17 20 26 28 27 19 14 14 16 20 23 24 24 26 25 21 19 19 19 18 18 18 18 21 27 30 31 30 25 21 17 16 18 19 21 23 26 27 29 29 29 28 24 16 14 13 14 14 14 14 14 15 15 15 15 16 16 16 16 16 17 17 17 17 17 20 20 17 16 16 16 15 15 15 14 13 14 13 13 13 12 11 11 10 10 10 10 10 10 10 9 9 9 9 9 9 9 9 9 9 9 9 8 8 6 6 6 6 6 6 6 8 10 11 14 16 16 14 13 10 6 5 5 5 6 8 9 10 14 17 17 16 15 15 16 17 17 16 12 4 0 0 0 0 0 0 0 0 0 0 0 0 0 0 0 0 0 0 0 0 0 0 0 0 0 0 0 0 0 0 0 0 0 0 0 0 0 0 0 0 0 0 0 0 0 0 0 0 0 0 0 0 0 0 0 0 0 0 0 0 0 0 0 0 0 0 0 0 0 0 0 0 0 0 0 0 0 0 0 0 0 0 0 0 0 2 5 4 3 0 0 0 0 0 0 0 0 0 0 0 0 0 0 0 0 0 0 0 0 0 0 0 0 0 0 0 0 0 0 0 0 0 0 0 0 0 0 0 0 0 0 0 0 0 0 0 0 0 0 0 0 0 0 0 0 0 0 0 0 0 0 0 0 0 0 0 0 0 0 0 0 0 0 0 0 0 0 0 0 0 0 0 0 0 0 0 0 0 0 0 0 0 0 0 0 0 0 0 0 0 0 0 0 0 0 0 0 0 0 0 0 0 0 0 0 0 0 0 0 0 0 0 0 0 0 0 0 0 0 0 0 0 0 0 0 0 0 0 0 0 0 0 0 0 0 0 0 0 0 0 0 0 0 0 0 0 0 0 0 0 0 0 0 0 0 0 0 0 0 0 0 0 0 0 0 0 0 0 0 0 0 0 0 0 0 0 0 0 0 0 0 0 0 0 0 0 0 0 0 0 0 0 0 0 0 0 0 0 0 0 0 0 0 0 0 0 0 0 0 0 0 0 0 0 0 0 0 0 0 0 0 0 0 0 0 0 0 0 0 0 0 0 0 0 0 0 0 0 0 0 0 0 0 0 0 0 0 0 0 0 0 0 0 0 0 0 0 0 0 0 0 0 0 0 0 0 0 0 0 0 0 0 0 0 0 0 0 0 0 0 0 0 0 0 0 0 0 0 0 0 0 0 0 0 0 0 0 0 0 0 0 0 0 0 0 0 0 0 0 0 0 0 0 0 0 0 0 0 0 0 0 0 0 0 0 0 0 0 0 0 0 0 0 0 0 0 0 0 0 0 0 0 0 0 0 0 0 0 0 0 0 0 0 0 0 0 0 0 0 0 0 0 0 0 0 0 0 0 0 0 0 0 0 0 0 0 0 0 0 0 0 0 0 0
