ncols         747
nrows         31
xllcorner     -72.0656366667
yllcorner     42.25992
cellsize      1.0E-5
NODATA_value  -9999
268 268 266 264 262 260 258 256 254 252 250 248 246 245 244 244 244 243 243 243 243 244 246 252 256 257 257 257 257 257 258 258 258 258 258 258 258 256 252 249 249 251 253 255 256 257 257 258 259 258 257 254 253 252 253 254 254 254 254 255 255 255 256 256 257 259 261 261 261 259 257 256 256 258 258 258 257 257 256 256 256 256 256 257 256 254 254 254 255 255 255 255 255 256 256 256 257 258 260 266 271 271 271 269 264 260 259 260 265 271 274 275 274 272 268 266 266 266 266 268 272 278 284 288 294 300 305 308 310 309 307 306 309 311 313 314 314 313 312 312 312 311 311 311 311 311 311 311 311 311 311 311 311 311 311 312 314 316 319 320 319 317 317 317 318 318 319 319 319 320 323 323 321 316 314 314 314 314 318 322 324 325 326 326 329 330 330 330 331 332 334 335 336 337 338 338 339 340 341 342 342 344 345 346 347 346 343 341 338 336 334 335 338 340 341 342 343 343 343 343 342 342 342 341 341 339 338 338 338 337 334 332 331 330 327 324 322 321 320 320 319 319 319 319 320 321 321 321 321 322 323 323 323 322 319 318 318 317 315 312 308 306 305 304 304 302 302 302 302 302 302 302 302 302 302 302 302 302 302 302 302 304 306 305 303 301 300 300 299 298 298 300 301 302 303 303 303 303 303 302 300 300 302 303 303 301 300 300 300 297 292 290 288 287 286 283 280 278 277 278 278 279 279 278 278 279 279 279 280 281 282 282 281 281 280 279 277 276 274 272 269 266 261 260 259 258 257 255 255 254 253 253 253 252 251 251 251 251 251 251 250 250 250 249 246 246 246 245 243 242 240 239 238 238 237 236 235 235 235 234 234 234 234 236 237 236 234 234 237 241 243 245 247 248 249 249 247 244 242 241 238 235 232 230 227 224 223 223 223 224 230 238 244 247 249 250 250 249 248 245 242 238 235 233 230 227 225 222 221 221 221 222 223 224 224 224 225 226 226 226 225 223 220 217 216 216 217 221 224 225 224 225 229 230 231 229 227 225 223 216 207 204 202 202 202 201 200 200 200 200 203 206 207 208 208 207 208 207 205 203 199 195 191 189 188 186 185 184 184 185 183 180 175 173 173 173 173 173 173 173 173 173 173 173 173 173 173 173 173 176 181 190 199 204 206 208 209 207 205 205 205 205 204 204 203 201 199 196 193 190 188 186 183 179 176 173 170 168 167 167 167 167 169 173 175 176 177 178 179 184 190 192 194 198 201 199 198 198 201 199 191 187 184 184 188 189 189 190 190 192 195 198 201 203 203 204 205 203 203 203 205 208 211 213 217 221 225 229 232 233 235 238 245 250 251 252 252 248 247 245 241 236 231 228 225 222 219 215 213 210 208 205 201 197 193 190 188 186 185 182 178 174 169 164 157 152 152 154 157 160 162 164 167 169 172 173 173 175 175 176 176 177 178 179 180 183 185 184 181 177 174 172 171 169 166 164 159 156 154 153 152 152 151 150 149 147 146 144 144 142 138 134 133 133 130 128 128 127 125 122 121 119 117 117 117 117 117 117 117 117 117 117 117 117 117 117 117 117 116 117 117 116 116 117 117 117 117 117 117 116 116 116 117 117 117 117 117 117 117 117 117 117 117 117 117 117 117 117 117 117 117 117 117 117 117 117 117 117 117 120 124 125 124 123 125 125 123
267 267 267 264 262 261 260 258 255 253 251 251 248 245 244 244 244 243 244 244 245 245 249 255 258 257 257 257 257 257 258 258 258 258 258 257 256 254 252 249 249 250 253 255 257 257 257 258 259 258 256 254 252 252 252 252 253 253 254 254 255 255 255 257 258 260 261 262 261 259 257 257 258 260 261 260 259 257 256 256 256 256 256 257 256 255 255 255 255 255 255 255 255 255 255 255 256 257 258 262 267 270 272 272 269 265 261 261 265 270 273 274 274 271 267 266 266 266 266 268 273 279 285 288 295 301 305 307 307 305 305 306 309 311 312 312 311 311 311 311 311 311 311 311 311 311 311 311 311 311 311 311 311 311 311 314 316 318 319 320 320 319 318 318 318 318 318 318 318 319 322 322 321 317 313 313 314 314 318 321 323 324 325 326 328 329 330 330 331 332 334 335 336 337 338 338 339 340 340 341 341 343 345 346 348 346 345 342 340 337 335 335 336 339 341 341 342 342 342 342 342 341 341 341 340 339 338 338 338 337 334 332 331 330 327 325 323 321 320 319 319 319 319 319 319 320 320 320 320 321 322 322 323 322 321 320 318 317 314 311 308 306 306 309 310 306 302 302 302 302 302 302 302 302 302 302 302 302 302 302 302 305 307 306 303 301 300 300 299 298 298 299 301 302 303 304 303 303 303 302 301 302 303 303 303 301 301 301 301 300 296 293 292 290 286 282 280 279 277 276 276 277 277 276 276 276 278 278 279 279 279 279 278 277 277 276 275 273 272 271 269 266 262 260 260 259 257 256 255 254 254 254 254 253 251 251 251 251 251 251 251 251 251 250 248 247 246 246 245 244 242 241 239 238 237 235 235 235 235 235 234 234 236 237 238 238 236 235 238 242 243 246 248 248 249 248 245 243 243 241 238 236 233 231 227 224 224 224 224 224 230 239 246 250 252 253 252 251 250 247 243 239 236 234 229 226 223 221 221 221 223 226 226 226 226 226 226 227 227 227 226 225 224 224 223 223 223 225 228 228 226 229 231 232 232 232 231 230 229 223 212 206 203 202 202 202 201 200 200 200 203 205 206 208 208 208 208 207 206 204 201 195 192 189 188 186 185 184 183 183 182 181 178 174 173 173 173 173 173 173 173 173 173 173 173 173 173 173 173 174 179 188 196 202 205 207 207 205 201 200 201 201 201 201 199 197 195 192 190 187 185 183 179 177 174 171 168 167 167 167 167 168 170 173 175 176 177 179 182 186 190 191 192 194 196 197 197 198 200 199 194 189 184 184 186 189 190 190 191 192 195 197 200 203 203 204 205 204 203 203 205 208 211 213 217 222 226 230 232 234 235 238 244 249 251 252 251 248 248 246 243 237 233 229 226 223 220 215 213 210 208 205 201 197 193 190 189 187 186 183 178 174 168 163 156 154 154 155 158 160 162 163 167 170 173 173 174 175 176 176 176 177 178 178 179 182 185 183 180 176 173 171 170 168 166 164 159 156 154 152 152 152 152 151 150 148 147 145 144 142 140 137 134 133 133 131 129 127 125 122 121 119 117 117 117 117 117 117 117 117 117 117 117 117 117 117 117 117 116 117 117 116 116 117 117 117 117 117 117 116 116 116 117 117 117 117 117 117 117 117 117 117 117 117 117 117 117 117 117 117 117 117 117 117 117 117 117 117 117 117 120 121 122 122 123 123 120
265 266 266 264 262 262 260 259 256 254 252 252 249 246 244 244 244 244 244 245 246 249 253 256 258 257 257 257 257 257 257 258 258 258 258 257 256 254 251 249 249 249 252 255 256 257 257 258 258 258 256 254 252 252 251 251 252 253 253 253 254 254 255 257 257 259 261 261 261 260 258 257 258 262 263 262 260 258 256 256 256 256 256 257 256 255 255 255 255 255 255 255 255 255 254 255 255 255 256 259 263 268 272 274 273 270 264 262 265 270 272 273 273 270 266 265 265 265 265 269 273 279 285 288 294 300 303 305 305 305 305 307 309 311 311 310 310 310 310 310 310 310 310 310 311 311 311 311 311 311 311 311 311 311 312 317 320 320 320 321 321 320 319 319 318 317 317 316 316 318 321 322 320 316 313 313 314 315 318 321 322 324 325 326 328 329 330 330 331 332 334 335 336 336 338 338 338 339 339 340 340 342 344 346 347 346 345 344 342 340 337 335 335 336 338 340 341 341 341 342 341 340 340 340 339 338 338 338 338 337 334 332 331 330 328 325 323 322 320 319 318 318 318 318 318 319 319 319 319 320 320 320 322 321 321 321 317 316 313 310 307 306 310 315 316 311 306 303 302 302 302 302 302 302 302 302 302 302 302 302 302 306 308 307 304 302 301 301 299 297 297 299 301 301 304 304 304 304 304 303 302 302 302 302 302 301 301 301 301 301 299 297 295 292 287 283 281 280 278 275 275 275 275 274 273 274 275 277 277 277 276 277 276 276 275 274 273 272 271 269 268 265 263 262 262 260 258 258 256 254 254 255 255 254 251 251 251 251 251 251 251 252 252 251 250 248 247 246 246 245 244 241 240 238 237 235 236 235 235 235 236 236 236 238 240 240 238 237 240 242 244 246 248 248 248 248 245 244 243 241 239 236 233 230 227 224 224 224 224 224 230 239 248 254 256 256 255 253 252 248 244 239 236 234 228 225 222 221 221 221 224 227 228 228 228 228 228 228 228 228 228 227 227 229 229 229 228 227 228 228 229 230 232 233 233 234 233 230 229 225 217 209 205 203 203 203 202 201 200 200 202 205 206 207 207 207 207 207 206 204 201 195 192 190 188 187 185 184 183 183 182 182 181 178 174 173 173 173 173 173 173 173 172 172 172 172 173 173 173 173 179 185 193 200 203 205 205 202 198 196 197 198 198 198 196 194 191 189 187 184 182 178 176 174 171 168 167 167 167 167 168 169 171 173 175 177 178 181 186 190 191 192 193 194 195 195 196 198 200 198 194 188 184 184 187 191 191 191 191 192 194 197 199 202 203 204 205 204 204 204 205 208 211 213 218 224 228 230 233 234 235 237 242 248 250 251 249 249 249 248 245 240 234 229 226 223 220 215 213 211 208 206 202 198 194 191 190 188 187 184 179 174 168 162 156 154 155 158 160 160 161 163 167 171 173 173 174 175 176 176 176 176 177 177 178 181 183 182 179 176 172 170 170 169 167 165 160 157 155 153 152 152 154 153 151 149 147 145 143 141 140 139 136 134 134 132 130 127 125 123 121 118 116 117 117 117 117 117 117 117 117 117 117 117 117 117 117 117 117 117 117 117 117 117 117 117 117 117 117 117 117 117 117 117 117 117 117 117 117 117 117 117 117 117 117 117 117 117 117 117 117 117 117 117 117 117 117 117 117 117 117 118 119 120 121 120 118
265 265 266 264 263 262 261 260 258 255 253 252 250 247 245 244 244 245 246 247 250 253 256 257 257 257 257 257 257 257 257 257 258 257 257 257 255 254 251 249 249 249 251 254 256 256 257 257 257 257 256 255 253 252 251 251 251 252 253 252 253 253 254 255 256 257 258 259 260 260 258 258 258 262 264 263 262 259 257 256 256 256 256 256 255 255 256 256 255 255 255 255 255 255 254 255 255 255 255 257 260 267 272 274 274 271 266 263 265 269 271 272 272 268 265 264 264 265 266 269 273 277 283 288 294 300 302 303 304 305 307 307 308 309 310 310 310 310 310 310 310 310 310 310 311 311 311 311 311 311 311 311 311 311 315 319 322 322 322 322 321 321 320 319 316 316 315 314 314 318 321 321 319 316 313 313 314 315 317 321 322 323 324 326 327 329 330 330 331 333 334 335 335 335 337 338 338 338 338 338 338 341 344 345 346 346 346 345 344 342 340 336 335 335 337 338 339 340 340 341 341 340 339 339 338 338 338 338 337 337 334 333 332 330 328 326 324 323 321 319 318 317 317 317 317 318 318 318 319 319 317 318 318 318 318 317 315 314 312 309 308 308 312 317 317 314 311 308 304 302 302 302 302 302 302 302 302 302 302 302 303 306 308 308 305 303 301 301 300 297 297 298 300 301 304 306 305 305 305 304 303 302 302 302 302 302 302 302 302 302 301 300 296 292 288 284 284 284 281 277 275 274 273 272 272 273 274 275 276 274 273 273 273 273 272 271 270 270 269 268 267 266 265 265 264 263 260 259 258 256 256 257 257 256 253 251 251 251 251 252 253 253 252 252 250 248 247 247 247 246 244 240 238 238 238 237 237 237 236 236 238 239 239 241 242 243 240 239 241 243 245 247 248 248 248 248 245 244 243 242 240 237 233 230 227 225 224 224 224 224 230 238 248 254 257 257 256 253 252 248 244 239 236 233 227 224 221 221 222 224 225 228 229 230 230 230 230 229 229 230 230 229 229 229 231 231 229 229 229 229 229 231 232 233 233 233 233 231 230 226 219 212 208 206 205 205 204 202 201 201 203 206 207 206 206 206 206 207 207 205 200 195 192 190 188 188 186 185 184 184 183 183 183 181 178 175 175 174 173 173 173 173 172 172 172 172 172 173 173 173 177 183 190 197 201 202 201 200 196 192 193 195 194 194 192 190 188 185 182 179 177 176 173 171 168 167 167 168 168 168 169 169 171 173 175 177 179 184 192 195 196 197 199 200 197 196 198 201 201 197 192 187 184 185 190 194 192 191 191 191 194 196 198 201 203 204 205 205 204 204 205 209 211 213 218 226 229 232 233 234 235 236 241 246 249 248 247 249 251 249 247 242 235 230 226 224 220 215 213 211 209 207 202 199 196 193 190 188 188 185 180 175 168 161 156 155 157 162 167 166 164 164 168 172 174 174 174 176 176 176 176 176 176 176 178 180 181 179 177 174 171 169 171 171 169 167 163 159 156 154 153 153 155 154 152 149 147 145 143 142 141 139 137 135 135 134 131 128 125 123 119 117 116 117 117 117 117 117 117 117 117 117 117 117 117 117 117 117 117 117 117 117 117 117 117 117 117 117 117 117 117 117 117 117 117 117 117 117 117 117 117 117 117 117 117 117 117 117 117 117 117 117 117 117 117 117 117 117 117 117 117 117 117 118 118 118 117
265 265 266 264 264 263 262 261 259 257 254 252 250 248 246 244 244 246 249 252 255 256 257 257 257 257 257 257 257 257 257 257 257 257 256 255 254 253 251 249 249 249 250 253 255 255 256 256 256 257 256 254 252 251 251 251 251 252 252 252 252 252 253 254 254 256 258 259 259 259 258 257 258 263 264 263 262 259 257 256 256 256 256 256 256 256 257 257 258 258 258 259 259 257 255 255 255 255 255 257 259 265 270 273 273 271 268 265 265 268 270 271 270 266 263 263 264 264 267 270 274 278 283 289 295 300 303 303 304 305 307 307 308 309 310 310 310 310 310 310 310 310 310 310 311 311 311 311 311 311 311 311 311 311 315 321 322 322 322 322 322 322 321 319 316 315 314 313 313 318 320 320 318 315 313 313 314 315 317 321 322 323 324 325 327 329 330 330 331 333 334 334 334 335 336 337 337 337 337 338 338 340 343 344 346 347 348 348 347 345 343 339 335 334 335 336 338 338 339 340 340 339 338 338 338 338 338 338 337 337 335 334 333 331 329 327 325 324 321 319 317 317 317 317 317 317 318 319 319 319 316 316 316 315 315 315 313 313 311 309 308 308 312 316 317 315 313 312 309 305 302 302 302 302 302 302 302 302 302 302 303 307 309 309 307 303 301 301 300 297 297 297 299 301 303 305 306 306 305 305 305 303 303 302 302 302 302 302 302 302 303 302 297 292 288 288 288 288 286 281 277 275 274 272 271 271 273 274 274 272 270 270 270 269 269 269 269 268 268 268 268 267 267 266 266 264 263 261 260 258 258 258 258 258 255 252 251 251 252 253 253 253 252 251 249 248 247 246 246 246 244 241 239 239 240 241 241 240 240 239 239 242 242 242 244 244 241 240 242 244 246 247 247 247 247 247 245 244 244 242 241 237 233 230 227 225 224 224 224 224 229 236 247 254 257 258 256 253 251 247 243 239 235 231 227 223 222 222 223 225 226 228 230 230 231 231 230 230 230 231 231 230 229 230 232 231 230 230 230 230 230 231 232 233 233 233 233 231 230 227 222 216 213 211 209 207 206 204 201 201 203 206 206 206 205 205 206 206 207 205 200 195 192 191 189 188 188 186 185 185 184 184 183 183 182 181 180 178 176 173 173 173 173 172 172 172 172 172 173 173 174 180 187 194 198 199 199 197 194 190 189 190 190 188 186 184 182 180 179 177 175 173 170 168 167 167 167 168 168 168 169 169 171 173 175 177 181 189 196 198 200 200 200 201 201 199 198 200 199 196 192 187 186 186 190 194 194 192 191 192 193 195 197 200 202 204 204 205 205 204 205 209 212 213 218 226 230 232 234 235 236 237 240 243 245 245 246 250 252 250 247 243 237 231 226 224 220 216 213 211 209 207 203 200 196 194 191 189 188 186 181 176 168 161 156 155 157 163 171 173 168 165 169 172 174 174 175 176 177 176 176 176 175 175 177 179 179 176 175 173 170 168 171 172 172 170 166 161 158 155 153 152 153 154 152 150 148 145 143 142 141 140 138 137 136 135 132 129 125 123 119 118 117 118 118 118 117 117 117 117 117 117 117 117 117 117 117 117 117 117 117 117 117 117 117 117 117 117 117 117 117 117 117 117 117 117 117 117 117 117 117 117 117 117 117 117 117 117 117 117 117 117 117 117 117 117 117 117 117 117 117 117 117 117 117 117 117
265 265 266 265 264 264 264 263 262 260 257 255 252 248 247 246 246 248 252 256 257 257 257 257 257 257 257 256 256 257 258 258 257 256 255 254 254 253 251 250 249 249 249 252 253 253 253 254 255 255 254 253 252 251 251 251 251 251 252 251 251 251 252 252 253 255 256 257 257 257 256 256 258 263 264 263 262 259 257 256 256 256 257 257 257 258 258 258 258 259 260 262 263 259 255 255 255 255 255 256 258 262 268 270 271 270 269 265 265 267 269 269 267 264 263 263 263 264 267 272 276 280 285 292 297 302 305 304 304 305 306 307 308 309 312 312 311 311 312 312 312 312 311 311 311 311 311 311 311 311 311 311 311 311 316 320 321 320 321 322 323 323 322 319 316 315 313 313 313 317 320 319 317 314 312 312 314 315 317 320 321 322 323 325 327 329 330 330 331 333 334 334 334 335 336 337 337 337 337 338 338 339 342 344 347 349 349 350 349 348 345 342 338 334 334 336 336 337 337 338 338 337 337 337 338 338 338 338 337 337 336 334 333 331 330 327 325 324 321 319 317 317 317 317 317 317 318 320 321 320 316 315 314 314 313 313 312 312 310 309 309 309 310 313 315 314 313 311 308 306 303 302 302 302 302 302 302 302 302 302 303 307 309 310 307 304 302 301 299 297 297 297 298 300 303 304 306 307 307 307 306 305 305 304 304 303 304 303 302 302 302 302 298 293 292 294 294 294 290 285 280 278 275 273 271 270 270 272 272 270 269 269 269 269 269 269 268 268 268 268 269 270 269 268 267 265 264 263 262 260 260 259 259 258 256 254 251 252 253 254 254 253 252 250 249 247 247 246 245 245 244 242 241 242 245 247 248 246 245 244 244 245 245 245 245 246 242 241 242 244 246 247 247 247 247 247 245 244 244 242 241 237 233 230 227 225 224 224 224 224 227 235 245 253 257 257 255 252 250 246 242 238 234 230 226 223 222 223 223 225 227 229 231 231 231 231 230 231 231 231 233 231 231 231 232 232 230 230 230 230 230 231 231 232 232 233 233 232 231 228 224 220 217 215 212 210 209 206 203 202 202 205 205 205 205 205 205 205 205 205 200 195 193 192 191 190 189 188 186 186 186 185 184 184 184 184 182 181 179 176 173 173 173 173 173 172 172 172 172 172 173 177 183 188 192 194 194 192 189 186 185 185 185 184 182 180 178 177 175 173 171 169 167 167 167 167 168 169 169 169 169 170 171 173 175 178 184 195 199 199 201 201 200 201 201 200 198 198 199 197 195 194 192 190 190 193 194 193 193 193 193 194 197 199 201 202 203 205 206 206 206 209 214 213 217 226 231 233 235 236 237 237 239 241 241 242 247 251 253 251 248 245 239 232 227 223 220 216 213 212 210 207 204 200 197 195 192 189 189 186 183 177 169 162 157 156 157 162 169 173 172 169 170 173 174 174 175 176 177 177 177 177 176 175 175 178 178 176 174 172 169 168 171 173 173 170 167 164 161 157 155 152 152 152 152 151 148 145 144 143 142 140 139 138 137 136 134 130 126 125 124 123 121 122 121 119 118 117 117 117 117 117 117 117 117 117 117 117 117 117 117 117 117 117 117 117 117 117 117 117 117 117 117 117 117 117 117 117 117 117 117 117 117 117 117 117 117 117 117 117 117 117 117 117 117 117 117 117 117 117 117 117 117 117 117 117 117
265 265 265 265 265 265 264 264 263 262 260 258 253 249 248 246 247 251 255 257 257 257 257 257 257 257 257 256 256 257 257 257 257 256 255 254 254 253 252 251 249 249 249 251 252 251 251 252 253 253 253 252 252 252 252 251 251 251 252 251 251 251 252 252 252 254 255 255 256 256 256 255 258 262 264 263 262 259 257 257 257 257 257 257 257 258 258 259 259 259 260 262 262 258 255 255 255 255 255 256 258 261 265 269 270 270 268 264 263 264 267 267 263 262 263 263 263 265 268 272 277 282 287 294 299 304 307 305 304 305 306 307 308 309 313 313 312 312 313 314 315 315 314 312 311 311 311 311 311 311 311 311 311 311 315 318 317 317 319 322 323 323 321 318 315 314 312 312 312 315 318 317 316 313 311 311 313 315 317 319 320 322 324 326 327 329 330 330 330 332 333 334 334 335 336 336 336 336 336 337 337 339 341 344 347 349 350 351 351 350 347 344 340 336 335 335 335 336 336 337 336 337 337 337 338 338 338 338 338 338 336 335 334 333 330 328 326 325 322 320 318 317 317 317 316 317 320 320 321 319 316 315 314 314 313 312 312 312 311 311 310 311 311 313 313 311 311 309 308 306 304 302 302 302 302 302 302 302 302 302 303 307 310 311 309 305 303 301 298 297 296 297 298 299 301 303 305 306 306 306 307 306 306 305 306 306 307 306 304 303 302 301 298 295 296 298 299 298 296 290 285 284 282 279 275 271 269 269 269 269 269 269 269 269 269 269 268 268 268 271 274 272 271 269 268 267 265 264 263 261 259 259 262 262 259 256 253 253 254 255 255 253 252 250 249 247 246 245 245 245 244 243 243 245 247 250 251 250 249 249 248 247 246 246 245 245 242 241 243 244 245 246 246 246 246 246 245 244 243 241 240 236 232 229 227 225 224 224 224 224 227 234 243 251 255 256 253 250 248 244 239 236 232 228 225 223 222 222 223 224 226 228 230 231 230 230 229 230 231 232 233 232 232 232 232 232 230 230 230 231 231 231 230 231 232 233 234 233 232 230 226 221 218 217 214 213 212 208 204 203 203 203 204 204 204 204 205 205 205 205 201 196 194 194 193 192 189 188 187 187 187 186 185 184 184 184 182 181 180 178 174 173 173 173 173 173 172 172 172 172 172 175 178 183 186 187 187 186 184 184 183 182 181 179 177 176 174 173 171 169 167 167 167 167 167 168 168 169 169 169 170 170 171 174 176 179 189 197 200 200 201 202 201 201 201 200 199 198 200 199 197 198 198 197 193 191 191 192 192 193 193 195 197 198 199 201 203 205 206 206 206 209 215 215 216 225 231 233 236 236 237 238 238 239 238 242 250 254 253 252 249 246 241 235 228 222 220 216 213 212 210 208 204 201 198 196 192 190 189 187 184 178 170 163 158 156 156 160 166 171 173 172 172 174 175 175 176 176 177 178 178 178 177 175 174 175 176 175 173 171 168 168 171 173 173 172 169 167 164 162 158 155 153 152 151 151 149 146 144 144 144 144 142 140 137 136 136 132 130 129 127 125 123 123 122 121 120 117 117 117 117 117 117 117 117 117 117 117 117 117 117 117 117 117 117 117 117 117 117 117 117 117 117 117 117 117 117 117 117 117 117 117 117 117 117 117 117 117 117 117 117 117 117 117 117 117 117 117 117 117 117 117 117 117 117 117 117
265 265 265 265 266 266 266 265 265 264 262 260 255 250 248 248 249 254 256 257 257 257 257 257 257 257 257 257 257 257 257 257 257 256 255 254 254 253 252 251 249 249 249 249 250 251 251 251 251 252 252 252 252 252 252 252 252 252 252 251 251 251 252 252 252 252 253 253 254 255 255 255 258 262 263 263 262 259 257 257 257 258 258 258 258 258 258 259 260 260 261 262 261 256 254 255 255 254 254 256 258 262 264 267 268 268 266 262 260 261 262 263 261 261 262 263 264 266 268 273 278 283 288 295 301 307 310 306 304 305 306 306 307 309 313 313 313 314 316 318 320 320 318 317 314 312 311 311 311 311 311 311 311 311 313 315 314 315 318 321 322 322 320 316 314 312 311 311 312 314 315 314 314 313 311 311 313 314 316 318 320 322 324 326 327 328 329 329 330 332 333 333 333 334 336 335 335 335 335 336 337 339 340 344 347 350 352 352 353 351 348 346 341 338 334 333 333 333 334 335 335 336 336 337 337 338 338 338 338 338 337 337 336 333 331 329 328 326 323 320 318 317 317 317 316 316 319 320 319 317 316 315 314 314 314 312 312 312 312 312 312 313 314 314 313 312 310 309 308 307 305 303 302 302 302 302 302 302 302 302 303 308 311 312 310 306 303 300 298 297 296 296 298 298 300 302 304 304 304 305 306 307 307 307 308 309 310 309 307 304 303 302 299 297 298 301 302 302 301 296 290 287 287 285 280 275 271 269 269 269 269 269 269 269 269 269 268 268 269 272 274 272 272 272 271 269 267 265 263 262 259 259 261 262 260 257 256 256 256 256 255 254 252 250 249 247 246 246 245 245 245 244 244 246 247 250 252 253 253 253 251 249 248 246 245 244 243 242 243 244 245 246 246 246 246 245 244 243 242 240 238 235 231 229 227 224 224 224 224 224 226 233 240 249 253 253 251 248 246 242 237 233 230 227 225 223 222 222 222 223 225 226 228 229 229 228 228 229 230 232 234 234 234 234 233 232 231 231 232 233 233 230 230 231 232 233 234 233 232 229 225 221 219 218 217 216 213 209 205 203 203 203 203 204 204 204 205 205 205 205 202 198 196 195 194 192 190 189 189 188 187 186 186 185 185 184 182 181 181 179 176 175 174 174 173 173 173 172 172 172 172 174 176 178 180 182 183 182 182 181 179 177 177 175 173 172 170 169 168 167 167 167 167 167 168 168 169 170 170 170 170 170 171 174 176 181 193 199 201 201 202 203 203 203 203 203 202 202 202 201 200 201 201 201 199 194 191 191 191 192 193 195 197 198 199 200 202 205 206 207 207 209 214 215 215 222 230 234 236 236 237 238 237 237 237 243 251 254 253 251 249 246 243 237 229 222 219 215 213 211 211 208 205 201 198 196 193 190 189 187 184 179 171 164 159 157 157 159 164 170 173 172 172 174 175 176 176 177 177 178 178 179 177 175 173 172 172 172 171 169 166 169 172 172 172 172 171 169 167 166 162 158 155 152 151 151 149 146 145 143 143 144 147 143 137 137 136 135 134 135 132 128 125 124 123 122 120 118 117 117 117 117 117 117 117 117 117 117 117 117 117 117 117 117 117 117 117 117 117 117 117 117 117 117 117 117 117 117 117 117 117 117 117 117 117 117 117 117 117 117 117 117 117 117 117 117 117 117 117 117 117 117 117 117 117 117 117
264 264 264 265 266 266 267 267 267 267 264 262 256 251 249 249 251 255 257 257 257 257 257 257 257 257 257 257 257 257 257 257 257 256 255 254 254 254 252 251 250 249 249 249 249 250 251 251 251 252 251 251 251 252 251 252 252 252 252 252 251 251 251 252 252 252 253 254 254 255 255 255 258 262 263 263 261 260 259 259 259 258 258 258 258 258 259 259 260 260 262 262 260 256 254 255 255 254 254 256 258 262 264 267 266 264 262 258 255 256 259 259 261 261 262 263 265 267 269 274 279 283 289 296 303 310 312 308 304 304 305 306 308 309 311 313 314 315 319 322 325 326 325 322 318 314 312 311 311 310 311 311 311 312 313 313 314 315 318 321 322 321 318 314 313 311 310 311 310 310 309 309 311 312 311 310 312 314 316 317 319 321 324 325 326 327 328 329 329 331 332 333 333 334 336 335 335 335 335 335 337 339 340 343 347 350 351 351 353 352 350 348 343 339 333 330 331 331 333 334 334 335 336 336 337 337 338 338 338 339 338 338 337 335 333 331 329 327 324 321 318 317 317 317 316 316 317 317 316 315 315 315 314 314 314 313 314 314 314 313 314 314 315 316 315 313 311 310 309 309 306 304 302 302 302 302 302 302 302 302 303 309 311 312 311 307 303 300 297 296 296 296 297 297 298 300 301 302 302 304 305 306 307 308 309 311 311 311 309 307 305 303 301 299 299 301 304 306 305 300 294 290 290 290 286 281 276 273 270 269 269 269 269 269 269 269 269 269 270 272 271 272 278 279 275 272 270 268 264 262 259 259 259 261 261 259 257 258 258 258 256 255 254 251 249 247 247 246 246 245 245 245 246 246 247 249 250 254 254 255 254 252 250 247 245 244 243 242 242 243 245 245 245 245 245 244 243 242 241 239 236 234 231 229 226 224 224 224 224 224 225 231 238 246 250 251 249 246 244 240 235 231 228 226 225 223 222 222 222 223 223 224 225 226 226 226 227 229 230 232 234 234 234 234 234 233 233 232 233 234 233 231 230 231 231 233 234 231 230 227 224 222 221 222 222 219 215 211 206 204 203 203 203 203 204 205 206 206 205 205 202 198 196 195 194 192 191 191 190 189 188 187 186 185 185 184 183 182 182 181 180 179 179 178 176 175 174 172 172 172 172 172 174 176 178 180 180 179 178 177 176 175 174 173 171 170 169 168 167 167 167 167 167 168 169 169 170 171 171 171 171 171 171 174 177 183 194 200 201 201 202 203 204 203 203 203 203 205 205 204 202 201 200 200 199 198 195 192 191 191 193 196 199 202 201 201 203 205 206 207 208 209 214 215 214 220 230 234 235 236 237 237 237 236 236 244 251 253 252 251 250 248 244 239 232 223 219 215 213 211 211 209 205 201 198 196 193 190 189 187 185 180 173 166 161 158 158 159 162 168 170 171 173 174 175 176 177 178 178 178 179 179 178 176 174 170 167 167 166 165 165 169 172 172 171 172 172 171 170 169 165 162 158 154 152 151 150 147 145 144 143 142 143 142 137 137 138 138 137 138 138 132 127 125 124 122 120 118 117 117 117 117 117 118 118 117 117 117 117 117 117 117 117 117 117 117 117 117 117 117 117 117 117 117 117 117 117 117 117 117 117 117 117 117 117 117 117 117 117 117 117 117 117 117 117 117 117 117 117 116 116 116 117 117 117 117 117
262 262 263 264 266 267 269 272 273 271 266 263 257 251 250 250 252 255 257 257 257 257 257 257 257 257 257 256 257 257 257 257 257 256 255 254 254 254 252 251 251 249 249 249 249 250 251 252 252 252 251 251 251 251 251 252 252 252 252 252 251 251 251 252 252 252 254 255 256 256 255 256 259 262 263 262 261 260 260 260 260 258 259 261 261 260 259 259 262 263 262 262 260 258 257 256 255 255 255 255 256 258 263 266 264 261 258 255 255 255 256 258 261 262 262 263 266 269 271 275 279 284 290 297 304 311 312 307 303 304 305 306 308 309 311 314 316 318 321 325 328 329 330 328 324 319 315 312 311 310 311 312 314 314 314 314 314 317 319 322 322 319 316 313 312 310 309 310 308 308 308 308 309 311 310 309 310 311 314 315 316 320 322 324 326 327 328 328 328 330 332 333 333 334 336 335 334 334 334 335 337 338 340 343 348 350 351 351 352 352 351 349 343 338 332 329 329 329 331 331 332 334 335 335 336 337 338 338 338 339 339 339 339 337 334 332 330 328 325 322 319 317 317 316 315 315 315 315 315 314 314 315 315 315 315 315 316 316 316 315 315 316 318 318 318 316 314 312 311 310 306 304 304 305 304 302 302 302 302 302 304 309 311 312 311 308 303 299 296 296 296 296 296 296 297 298 299 300 300 302 304 306 307 308 309 312 313 313 312 310 309 307 304 302 301 301 303 306 305 302 297 292 290 291 289 283 279 276 273 269 269 269 269 269 269 269 269 270 270 271 271 273 279 279 276 273 271 269 265 262 259 259 259 260 261 260 260 261 261 261 259 257 254 253 250 248 247 246 246 246 247 248 246 245 245 245 248 253 255 258 257 255 252 248 245 245 243 242 242 243 244 244 244 243 243 243 242 241 240 238 235 233 231 228 226 224 224 224 224 224 225 229 235 242 247 249 248 245 243 239 234 230 227 226 225 223 223 223 223 223 223 224 224 224 224 224 227 228 229 230 232 233 234 235 236 235 236 236 235 235 233 232 231 231 231 232 231 229 228 225 224 224 225 225 223 219 215 211 207 204 203 203 203 203 205 207 207 207 206 205 202 199 197 196 194 193 193 192 191 191 189 188 187 186 185 184 184 184 183 183 182 181 180 179 179 177 174 173 173 173 172 172 173 176 178 178 178 177 176 176 175 175 174 173 172 170 169 168 167 167 167 167 167 169 170 170 171 171 171 171 171 171 171 175 178 185 194 200 202 202 202 203 204 204 203 203 203 204 205 204 203 200 200 198 197 198 198 194 192 192 193 196 200 203 203 202 203 206 207 207 208 209 214 215 214 218 229 233 235 235 236 237 236 236 237 244 250 253 253 252 251 249 246 241 234 225 220 215 212 211 211 209 205 202 198 196 194 190 189 187 184 180 175 168 162 159 159 160 162 165 168 171 173 175 176 176 177 178 179 179 180 181 179 178 176 171 166 164 164 163 164 168 172 171 171 171 171 171 170 169 168 165 161 157 153 151 150 148 146 144 143 142 141 139 137 137 139 139 138 138 139 137 132 128 125 123 121 119 117 117 117 117 117 117 118 118 118 119 119 118 118 117 117 117 117 117 117 117 117 117 117 117 117 117 117 117 117 117 117 117 117 117 117 117 117 117 117 117 117 117 117 117 117 117 117 117 117 117 117 116 116 116 117 117 117 117 117
261 262 262 264 266 268 272 276 278 273 267 265 257 252 250 250 252 255 257 257 257 257 257 257 257 257 257 256 257 257 257 257 257 256 255 255 254 254 253 252 251 250 249 249 249 251 251 252 252 252 252 252 252 252 252 252 252 252 252 252 252 252 252 253 253 254 255 256 257 257 257 257 259 261 262 261 261 260 260 260 259 258 258 259 258 257 257 259 262 262 262 262 261 261 259 256 255 255 255 255 255 256 262 265 261 256 255 255 255 255 255 257 261 262 261 264 267 270 272 276 281 286 291 297 305 311 312 305 302 303 304 306 308 310 311 314 318 320 323 327 331 333 333 332 330 327 321 316 313 311 313 315 316 315 314 314 315 318 320 323 322 319 315 312 311 310 308 308 307 307 307 307 309 309 308 308 309 310 311 313 315 317 321 324 325 326 327 327 328 329 331 332 333 334 335 335 334 334 334 335 336 338 340 344 348 349 350 351 352 351 351 348 344 338 332 329 329 329 329 329 332 334 336 336 336 337 337 337 338 339 339 340 339 337 335 333 331 329 326 322 319 317 317 316 315 314 314 314 314 314 314 314 314 315 315 315 316 316 316 316 316 317 319 320 318 319 317 314 311 308 306 305 306 307 308 304 302 302 302 302 305 309 311 313 312 308 303 299 296 295 296 295 295 295 296 297 298 299 299 301 303 305 306 307 309 313 314 314 315 314 312 310 307 305 303 301 302 304 304 303 300 295 292 290 288 284 280 277 275 271 269 270 270 270 270 271 271 272 272 271 271 272 275 277 275 273 271 270 267 263 259 259 259 260 261 261 261 262 262 262 259 258 255 253 252 250 248 247 246 245 245 245 244 244 244 245 247 252 255 259 259 257 254 251 247 245 243 242 241 241 243 243 243 242 242 242 241 240 239 237 235 232 230 228 226 224 224 224 224 224 226 229 233 239 244 247 246 243 243 239 234 229 227 226 225 224 223 223 223 223 223 224 224 224 224 225 227 228 228 229 229 231 233 236 237 238 240 240 239 237 235 233 233 232 232 232 231 230 229 229 228 226 225 223 221 218 214 210 208 206 206 205 204 205 207 209 210 209 208 208 205 201 199 197 196 194 194 194 193 192 192 190 188 187 186 185 184 184 183 183 182 181 180 179 177 175 175 175 175 175 173 172 173 175 177 177 177 176 175 175 174 174 173 172 171 170 169 168 167 167 167 167 169 170 170 171 171 171 171 171 172 171 172 176 179 185 194 199 201 201 202 203 203 203 203 203 203 204 203 203 203 203 201 199 197 195 194 194 194 193 193 195 200 202 202 203 203 205 206 207 208 209 213 215 214 217 228 233 235 235 236 237 236 236 238 245 250 253 253 253 252 252 249 243 236 227 221 215 211 211 211 209 206 202 199 196 194 190 189 186 184 180 175 168 162 160 160 162 163 165 168 172 175 176 177 177 177 178 179 180 181 182 180 178 177 175 171 167 165 164 164 166 171 171 170 170 170 171 170 169 169 167 163 159 155 152 150 148 147 145 145 145 142 137 137 139 140 140 139 137 137 139 138 133 128 125 123 121 119 118 117 117 117 117 117 118 120 120 120 119 119 118 117 117 117 117 117 117 117 117 117 117 117 117 117 117 117 117 117 117 117 117 117 117 117 117 117 117 117 117 117 117 117 117 117 117 117 117 117 117 117 117 117 117 117 117 117
260 260 262 264 266 270 275 279 278 273 267 264 258 253 251 252 253 254 256 257 257 257 257 257 257 257 257 257 257 257 257 257 257 256 255 255 255 255 254 253 251 251 250 250 251 252 252 252 253 253 254 254 253 254 254 254 253 253 252 252 252 252 253 255 255 255 256 258 258 259 259 259 260 261 262 262 261 261 261 261 260 261 258 257 257 257 257 257 257 258 258 258 259 258 256 255 255 255 255 255 255 255 259 263 259 255 255 255 255 255 255 256 260 261 261 264 267 270 273 277 282 287 292 297 304 308 309 303 301 302 304 306 308 310 313 315 319 321 324 328 332 336 337 336 334 331 328 323 318 315 316 317 318 318 317 316 318 319 321 323 321 318 314 311 309 308 307 306 305 305 305 305 307 307 307 307 307 308 309 312 314 317 320 322 325 325 326 326 327 329 330 332 332 333 334 335 334 334 334 335 336 338 340 344 347 348 349 350 350 350 349 347 343 337 331 328 328 328 329 329 332 335 337 337 337 337 337 337 338 338 339 341 341 339 337 335 333 330 327 323 320 317 317 316 315 314 314 314 314 314 314 314 314 314 314 314 315 315 316 316 316 316 319 320 313 320 319 316 312 309 307 306 306 307 307 306 304 303 303 303 305 309 311 313 313 309 304 299 295 295 296 296 295 295 295 295 295 297 297 299 301 304 306 307 309 313 316 317 317 317 315 313 310 308 305 303 302 303 303 304 302 299 296 292 288 285 282 278 276 274 273 274 276 275 276 275 273 273 273 272 271 271 273 275 274 273 271 270 268 264 260 259 259 259 260 261 262 263 263 262 259 258 256 254 254 254 251 248 246 245 245 245 244 244 244 244 246 252 254 259 261 258 255 252 249 246 243 241 241 241 242 242 241 240 240 240 240 239 238 236 234 232 230 228 226 224 224 224 224 225 227 229 232 237 241 244 244 243 242 239 234 229 227 226 225 224 223 223 223 224 224 224 224 224 225 226 227 228 228 228 229 230 233 236 238 238 239 240 242 241 238 236 235 235 235 233 232 232 232 232 231 227 224 221 219 217 214 211 211 210 209 207 206 207 209 211 213 211 209 209 207 204 202 201 199 196 195 195 194 194 193 191 189 188 186 185 184 184 183 183 183 182 181 180 178 176 176 177 176 175 174 172 172 172 174 175 175 174 174 174 173 172 172 171 170 169 168 168 167 167 167 168 170 171 171 171 172 172 172 172 172 172 173 176 180 185 192 198 200 201 202 203 203 203 203 203 203 203 203 203 203 202 201 200 197 194 194 194 196 195 194 195 199 201 202 202 203 205 206 207 208 209 212 215 216 216 226 232 235 235 237 237 235 235 238 245 251 253 254 255 255 254 251 245 238 229 221 215 211 212 212 209 206 202 199 196 194 190 189 186 184 180 175 167 161 160 161 163 165 167 170 173 175 177 177 177 178 179 179 180 182 183 181 179 178 177 175 172 169 165 164 163 167 170 169 169 169 170 170 169 169 167 163 160 156 152 150 148 147 146 146 146 142 138 137 140 142 142 140 138 137 139 141 137 132 128 125 122 121 120 118 117 117 117 117 118 120 121 120 120 120 118 117 117 117 117 117 117 117 117 117 117 117 117 117 117 117 117 117 117 117 117 117 117 117 117 117 117 117 117 117 117 117 117 117 117 117 117 117 117 117 117 117 117 117 117 117
260 260 261 264 266 271 277 279 278 273 267 263 257 253 253 253 254 255 256 257 257 257 257 257 257 257 257 257 257 257 257 257 257 256 255 255 255 254 254 253 252 252 252 252 252 252 252 253 253 254 254 254 254 254 254 254 254 253 252 252 252 253 255 256 257 257 258 259 260 260 260 260 261 261 263 263 262 262 262 262 261 263 261 258 256 256 256 256 256 256 257 258 258 257 255 255 255 254 254 255 255 255 256 259 256 255 255 255 255 255 255 255 256 258 260 263 266 270 273 278 283 289 293 297 301 303 303 301 300 301 303 305 308 310 313 317 320 322 325 330 334 337 340 340 338 336 333 329 324 320 319 319 319 320 319 319 319 320 322 323 321 316 312 311 308 307 307 306 305 305 305 305 305 307 308 306 307 308 309 312 314 317 319 321 324 324 325 326 326 328 329 331 332 332 333 333 333 333 333 334 336 338 340 344 347 348 348 349 349 347 347 345 341 335 329 328 328 328 328 329 333 336 338 338 337 337 337 337 338 338 339 341 341 339 338 336 334 331 327 325 322 318 317 316 315 313 313 313 313 313 313 313 313 313 313 313 314 315 315 315 315 315 316 318 318 320 318 317 314 310 308 307 307 307 307 306 304 304 304 304 306 310 311 313 313 310 305 300 295 295 297 296 295 295 295 294 294 296 296 297 300 302 305 307 309 313 316 319 319 319 318 316 314 311 307 305 304 303 304 304 305 302 299 295 291 288 284 281 278 275 274 275 278 278 278 275 270 272 272 272 271 271 272 272 273 272 271 269 268 265 261 259 259 259 260 260 262 264 264 262 260 259 257 255 255 254 253 250 248 246 245 246 245 244 243 243 245 251 253 258 261 260 257 254 251 248 244 242 241 240 242 240 239 238 239 239 238 237 236 235 234 231 229 228 226 224 224 224 225 227 228 229 230 234 237 241 243 243 242 239 234 228 226 226 225 224 224 224 224 224 224 224 224 224 226 226 226 227 227 228 228 229 232 235 236 236 237 238 240 241 240 237 237 237 236 234 234 234 234 234 232 229 226 225 223 220 217 216 215 212 210 208 208 210 212 214 214 211 209 209 208 207 206 205 202 198 197 197 197 196 195 193 190 189 188 186 184 184 183 183 183 182 182 181 180 179 178 178 176 176 174 172 171 170 172 173 173 173 173 173 172 171 170 169 169 169 168 168 168 167 167 168 170 171 171 172 172 172 172 172 172 172 173 177 181 188 192 197 200 201 202 202 203 204 204 203 203 203 203 203 202 202 201 200 199 198 197 195 196 196 195 195 198 200 201 202 203 205 206 207 208 209 210 216 217 217 221 230 234 235 237 236 234 235 239 246 251 254 255 256 256 255 253 248 239 229 222 215 210 211 212 209 205 202 199 197 194 190 189 187 184 179 174 167 161 161 162 165 167 170 171 174 175 177 177 177 177 178 178 180 182 183 181 179 178 178 177 175 172 169 166 163 164 167 168 168 168 169 169 169 168 167 163 160 156 153 150 148 148 147 147 146 142 139 138 141 144 144 141 138 137 139 143 142 136 131 128 125 122 121 120 117 117 117 117 118 120 120 121 120 120 118 117 117 117 117 117 117 117 117 117 117 117 117 117 117 117 117 117 117 117 117 117 117 117 117 117 117 117 117 117 117 117 117 117 117 117 117 117 117 117 117 117 117 117 117 117
260 260 261 264 267 272 277 279 277 272 265 263 257 254 254 254 255 255 256 257 257 257 257 257 257 257 257 257 257 256 256 256 256 255 254 254 254 254 253 252 252 252 252 252 252 253 253 253 254 255 255 255 255 255 255 255 255 254 253 252 252 254 256 258 259 259 259 261 262 262 262 261 262 262 263 264 265 266 266 266 264 265 262 260 257 256 256 256 256 256 256 256 256 256 255 255 255 254 254 255 255 255 255 256 255 254 254 254 255 255 255 255 255 255 257 260 264 268 273 279 284 290 293 296 298 300 298 298 299 299 301 303 307 310 314 318 322 323 326 331 335 338 341 342 342 340 337 333 329 325 322 321 321 322 321 320 320 320 322 322 319 314 312 311 308 307 306 306 305 305 305 305 305 307 308 306 307 308 310 313 315 318 319 321 323 324 325 325 326 326 327 330 330 331 331 332 332 332 332 334 335 337 340 344 346 347 346 346 346 345 345 344 340 335 329 327 327 327 327 330 333 337 338 339 338 338 338 338 338 338 339 341 342 342 340 338 335 332 329 326 322 320 319 317 315 313 312 312 312 313 313 313 313 312 311 312 312 313 313 313 314 314 314 315 316 317 317 317 315 312 310 309 308 308 308 307 305 304 304 304 306 310 311 313 314 310 306 300 296 295 296 296 295 295 294 293 294 294 295 296 298 301 304 306 309 313 317 320 322 322 321 319 316 313 310 308 306 306 305 305 306 304 301 298 294 290 286 283 279 276 273 273 274 273 273 268 261 263 267 271 271 271 272 272 272 272 270 269 267 266 261 259 260 260 260 260 262 264 265 265 261 260 258 256 254 253 252 250 250 247 247 248 246 244 243 243 244 249 252 257 260 261 259 256 253 250 248 244 241 239 239 239 238 237 237 237 237 237 236 234 233 231 229 228 226 225 225 226 228 228 229 230 230 231 234 239 241 241 241 238 233 228 225 225 225 225 224 224 224 224 224 224 224 224 225 225 226 226 226 227 227 227 229 231 232 233 235 238 240 242 241 240 240 239 238 236 236 235 235 235 233 231 229 227 224 221 218 216 215 212 210 211 212 214 215 216 215 212 209 209 208 207 206 205 204 202 201 200 200 198 196 194 191 191 190 187 185 184 184 184 184 183 182 182 181 180 180 178 177 176 174 172 171 170 170 170 171 171 171 170 170 170 170 169 169 169 168 168 169 169 169 169 170 171 171 172 172 172 172 172 173 173 174 178 185 193 198 200 201 201 202 202 204 204 204 203 203 203 203 203 202 202 201 201 201 200 198 197 196 196 196 196 197 199 200 201 202 204 205 206 208 208 210 214 217 217 219 228 232 235 237 235 233 235 241 246 251 254 257 259 259 258 256 250 242 230 221 214 209 209 210 208 204 201 199 197 194 190 189 187 184 179 173 166 161 161 162 165 168 170 172 174 176 177 177 177 177 177 177 180 182 182 180 178 177 177 176 175 174 172 170 166 163 164 166 167 168 169 169 168 168 167 163 160 156 153 151 149 148 148 148 146 144 140 139 143 145 145 143 139 138 139 142 143 141 136 131 128 125 122 121 119 117 117 117 117 119 121 121 121 121 120 119 118 117 117 117 117 117 117 117 117 117 117 117 117 117 117 117 117 117 117 117 117 117 117 117 117 117 117 117 117 117 117 117 117 117 117 117 117 117 117 117 117 117 117 117
260 260 261 264 266 272 277 278 276 271 265 262 257 255 255 256 256 256 256 257 257 257 257 257 257 257 257 257 257 256 256 256 255 255 254 254 254 254 252 252 252 252 252 252 253 253 253 253 254 255 255 255 256 257 257 257 257 256 254 253 254 257 259 261 261 261 262 263 264 265 265 264 263 264 266 268 270 271 271 271 271 269 264 260 258 256 256 256 256 255 255 255 255 256 256 255 255 255 255 255 255 255 255 255 255 254 254 254 255 254 255 255 255 254 255 258 262 268 273 279 285 290 293 295 296 296 297 299 299 299 300 302 306 309 315 319 322 324 327 332 336 339 342 344 345 344 341 338 334 330 326 323 323 323 322 321 321 321 321 320 317 313 312 311 309 307 306 306 305 305 305 305 305 305 305 305 307 308 311 314 317 318 319 321 323 324 325 325 325 326 327 328 329 329 330 331 331 331 331 333 334 336 340 344 345 346 345 344 344 344 343 342 339 334 329 327 327 327 327 330 334 337 338 340 339 338 338 338 338 338 339 341 343 343 341 339 337 334 330 326 323 321 320 317 315 313 312 312 312 312 312 312 312 311 311 311 312 312 313 313 313 314 314 314 315 317 317 317 316 313 311 310 309 309 309 308 306 305 304 304 306 309 311 313 314 311 306 302 296 293 295 295 295 295 293 293 293 294 294 295 297 299 302 305 309 313 317 321 323 323 322 320 318 315 312 309 307 307 306 306 305 304 301 299 297 292 288 284 280 276 272 270 265 264 267 260 253 254 258 267 271 271 272 273 273 272 270 268 267 265 261 259 260 260 260 260 263 266 266 265 262 261 259 256 253 252 251 250 249 248 248 248 246 245 243 242 243 247 249 254 258 260 259 257 255 252 250 245 241 237 236 237 237 236 235 235 237 237 236 234 232 230 229 228 226 226 228 229 231 231 231 230 230 230 231 235 239 239 239 236 232 227 225 225 225 225 224 224 224 224 224 224 224 224 224 225 226 227 227 227 227 227 227 228 231 235 239 241 243 243 242 242 241 241 241 240 239 238 237 236 234 232 229 225 222 220 218 216 215 213 214 215 216 218 218 217 216 214 210 209 208 206 206 206 205 204 204 203 201 199 197 195 193 193 193 190 186 185 184 184 184 183 183 183 182 181 180 179 178 176 175 172 171 170 170 170 170 170 170 170 170 170 170 169 169 169 169 169 169 169 169 169 170 170 171 171 172 173 173 173 173 173 175 178 185 193 198 201 201 201 202 202 203 203 203 203 203 203 203 203 202 202 201 201 201 200 198 197 197 197 197 197 197 198 200 201 202 204 205 206 207 208 210 214 217 217 218 226 231 233 234 233 232 236 241 246 252 257 259 260 261 262 259 253 243 231 221 213 209 209 209 208 205 202 199 197 194 190 189 187 183 179 174 167 161 161 162 166 168 170 173 174 176 176 176 176 176 175 176 178 179 178 176 175 174 174 175 175 175 175 172 169 165 163 164 166 168 168 168 168 167 166 164 161 157 154 152 150 149 148 148 147 146 143 141 144 146 146 145 141 139 139 140 142 142 140 136 131 127 124 122 120 117 117 117 118 120 121 122 121 121 121 120 119 119 118 117 117 117 117 117 117 117 117 117 117 117 117 117 117 117 117 117 117 117 117 117 117 117 117 117 117 117 117 117 117 117 117 117 117 117 117 117 117 117 117 117
260 260 261 263 265 271 276 278 274 268 263 261 258 257 256 256 256 256 256 257 257 257 257 257 257 257 257 257 257 256 256 256 255 255 255 255 255 254 253 252 252 252 252 252 253 253 253 253 254 255 255 256 257 257 258 258 257 257 255 254 256 259 262 264 264 264 264 266 267 268 268 267 266 266 269 272 274 275 275 275 275 273 267 262 258 256 256 256 256 255 255 255 255 256 259 258 257 256 255 255 255 255 255 255 255 254 254 254 254 254 255 255 255 255 256 259 263 268 274 280 286 291 294 294 293 294 297 300 300 298 300 302 305 309 315 320 322 324 328 332 336 340 342 345 346 346 345 342 338 334 330 327 325 324 322 322 322 322 320 317 314 313 313 312 309 307 306 306 306 305 305 305 305 305 304 304 307 309 312 315 317 319 319 320 323 324 325 325 325 326 326 326 326 327 329 330 330 330 330 332 334 335 338 342 343 343 342 341 342 342 341 340 338 333 329 326 326 326 327 330 334 337 338 340 340 338 338 338 338 338 339 341 343 344 342 340 337 334 330 327 324 322 320 318 315 312 311 311 311 311 312 311 311 311 311 311 311 312 312 313 313 314 314 314 314 317 317 317 316 315 313 311 311 310 310 308 307 306 305 304 305 309 311 313 314 312 307 302 296 292 293 294 294 294 293 293 293 293 293 294 295 297 301 305 309 313 317 322 324 325 324 322 320 318 314 311 309 308 307 306 303 302 300 299 297 293 289 285 281 275 268 260 256 258 264 258 253 253 254 266 271 272 272 273 274 272 270 268 266 264 261 260 260 260 260 260 263 267 267 265 265 265 263 257 253 251 250 249 249 248 248 247 246 245 243 242 242 244 246 251 256 259 260 258 256 253 250 245 241 237 234 235 235 234 234 235 236 237 235 233 232 230 229 227 227 228 230 232 233 234 232 231 230 230 230 232 236 237 236 235 231 227 225 225 225 225 224 224 224 224 224 224 224 224 225 227 229 231 229 227 227 227 227 227 231 236 239 241 242 242 242 242 241 240 240 240 239 238 238 237 235 232 228 223 221 220 218 217 217 217 218 219 220 222 221 220 218 216 212 210 209 207 207 207 207 206 205 203 201 199 197 196 196 196 196 194 189 185 185 185 185 184 184 184 183 182 181 180 179 177 175 172 171 170 170 170 170 170 170 170 170 170 170 170 170 169 169 170 170 170 170 170 170 170 170 171 172 173 173 173 173 173 176 179 185 192 198 201 201 201 202 202 202 202 202 203 203 203 203 203 203 203 202 201 201 200 197 197 197 197 197 197 197 199 200 201 202 203 204 206 207 208 210 213 217 217 217 225 230 232 232 231 232 236 242 247 252 257 259 260 261 262 259 253 244 232 220 213 209 209 209 208 205 202 199 196 193 190 189 186 183 179 174 168 163 162 163 166 168 172 173 174 176 176 176 176 176 175 175 175 175 173 171 170 169 170 172 173 175 175 173 171 167 163 161 164 166 168 167 167 167 166 164 161 157 154 152 151 150 149 149 148 147 145 143 145 147 147 146 143 140 139 139 140 142 142 139 135 130 126 124 121 117 117 117 120 122 122 122 122 122 121 121 120 120 120 119 117 117 117 117 117 117 117 117 117 117 117 117 117 117 117 117 117 117 117 117 117 117 117 117 117 117 117 117 117 117 117 117 117 117 117 117 117 117 117 117
261 261 261 263 265 268 274 276 272 268 264 263 260 257 257 257 257 257 257 257 257 257 257 257 257 257 257 257 257 257 257 257 257 257 256 254 254 253 253 253 252 252 252 253 253 253 253 253 254 255 256 257 258 259 260 260 259 258 256 255 259 263 265 268 269 268 268 270 271 272 272 271 269 269 272 275 279 281 281 281 280 278 270 264 259 257 257 256 256 255 255 255 255 255 259 260 259 258 256 256 256 256 255 255 254 254 254 254 254 255 255 255 256 257 259 261 264 268 274 280 286 291 295 294 292 294 297 300 299 298 299 302 305 309 315 320 323 325 328 332 336 339 342 345 347 348 348 346 342 339 335 330 326 324 322 322 321 321 319 315 314 313 313 312 309 306 305 305 305 305 305 305 305 305 305 305 309 311 313 315 317 319 319 320 323 325 325 325 325 325 325 325 326 326 328 329 329 329 329 331 333 334 336 338 340 340 339 338 338 339 338 338 336 333 329 326 324 324 327 330 333 336 338 340 340 338 338 338 338 338 340 341 343 343 341 338 336 333 330 327 325 323 321 319 315 312 311 311 311 311 311 311 311 311 311 311 311 311 312 312 313 314 314 314 314 316 318 318 317 316 314 312 311 311 310 309 307 306 305 304 305 308 311 313 314 312 308 303 297 292 292 293 294 294 293 292 292 292 293 294 295 296 299 304 308 313 317 323 325 326 326 323 321 320 317 314 311 310 308 306 304 302 300 299 298 294 291 286 282 273 262 253 253 257 262 256 253 253 254 267 273 272 272 274 274 272 270 267 266 264 261 260 260 260 260 260 264 268 268 266 267 269 267 261 255 251 250 249 249 248 247 246 246 245 244 242 241 242 243 248 253 258 260 260 257 254 250 245 241 236 233 233 233 233 235 235 236 235 234 232 231 230 228 227 228 230 233 234 235 236 235 233 230 230 230 230 231 233 233 231 229 226 225 225 224 224 224 224 224 224 224 224 224 224 226 230 233 234 233 229 227 227 227 227 230 232 234 237 239 241 241 241 240 239 239 239 239 238 237 236 234 230 227 222 221 220 219 218 218 219 221 222 223 223 224 222 221 219 217 215 213 211 209 209 209 208 206 203 201 199 198 198 198 198 196 193 189 185 185 185 185 185 185 185 184 182 181 179 179 177 174 173 171 170 170 170 170 170 170 170 170 170 170 170 170 169 169 170 170 170 171 171 170 170 170 171 172 173 173 173 173 174 175 179 185 192 198 200 201 201 201 201 201 201 202 203 203 203 203 203 203 203 202 201 201 199 197 197 197 197 197 197 197 198 200 201 201 203 203 205 207 208 210 212 215 216 217 224 228 229 229 229 232 236 242 248 253 256 258 260 260 259 257 253 243 231 220 214 209 209 209 209 205 202 198 195 192 189 188 185 182 178 174 170 165 163 164 166 168 172 173 174 175 176 176 176 177 176 175 175 175 173 171 168 167 167 169 170 173 174 174 172 170 165 161 162 165 167 167 166 166 165 163 160 156 153 151 151 151 150 149 148 147 147 145 145 147 147 147 145 142 140 139 139 141 141 139 138 133 129 126 123 119 118 121 124 123 123 123 123 122 121 121 121 121 120 120 119 117 117 117 117 117 117 117 117 117 117 117 117 117 117 117 117 117 117 117 117 117 117 117 117 117 117 117 117 117 117 117 117 117 117 117 117 117 117 117
262 262 262 263 265 268 272 275 273 269 266 264 261 257 257 257 257 257 257 257 257 257 257 257 257 257 257 257 257 257 258 258 258 258 256 255 254 253 253 253 253 253 253 253 253 253 253 253 255 255 257 258 259 260 261 261 261 260 257 258 262 266 269 271 272 271 271 272 274 275 275 275 273 273 276 280 284 286 286 286 285 282 275 267 261 257 257 256 256 255 255 255 255 255 255 259 260 258 257 257 258 255 255 255 254 255 255 255 255 255 255 256 258 259 260 263 265 269 274 280 286 290 294 293 291 294 297 300 299 298 299 301 304 308 315 320 323 325 328 332 336 339 341 345 347 349 348 348 346 342 338 333 328 325 323 322 321 320 319 315 314 314 314 313 309 306 305 305 305 305 305 305 305 305 305 308 312 313 314 317 318 319 319 320 324 325 326 326 326 325 325 325 325 326 328 329 328 327 327 329 331 333 334 335 337 338 337 336 336 336 336 336 335 333 328 325 323 323 324 328 333 336 338 339 340 338 338 338 338 338 340 341 343 342 339 337 335 333 331 328 325 323 322 319 315 311 311 311 311 311 311 311 311 311 311 311 311 311 311 312 313 314 314 314 314 316 318 318 317 316 314 312 312 311 311 309 307 307 306 305 305 307 309 312 314 312 308 304 297 292 290 293 294 294 293 292 292 292 292 293 294 296 299 304 308 313 318 323 326 327 326 324 322 321 319 316 313 311 309 307 304 302 300 299 298 294 291 287 283 272 257 254 254 254 256 254 253 253 255 270 274 272 272 274 275 272 270 267 266 263 260 260 260 260 260 261 266 269 269 268 268 269 268 264 258 254 250 249 249 248 247 246 245 245 244 242 241 242 243 248 252 257 260 260 258 254 249 245 241 236 233 232 233 233 235 236 235 235 234 232 231 229 229 230 231 232 234 236 237 238 238 236 233 231 230 230 230 230 230 228 227 225 225 225 224 224 224 224 224 224 224 224 224 224 226 230 234 235 233 232 230 228 228 228 229 230 233 236 238 239 240 240 240 238 237 238 239 238 237 235 233 229 224 222 222 222 222 220 219 221 223 225 225 226 226 226 224 224 221 218 217 215 213 211 211 209 206 203 202 201 201 200 199 198 195 193 189 186 186 186 186 186 186 185 184 182 180 179 177 177 176 175 172 170 170 170 170 170 170 170 170 170 170 170 170 170 170 170 170 170 171 172 171 171 171 171 172 173 174 174 174 174 175 179 183 190 196 200 201 201 200 200 200 201 202 203 202 202 203 203 203 203 202 202 202 199 197 197 197 197 197 197 197 198 199 200 200 202 203 205 207 207 210 212 214 215 217 222 226 227 227 228 232 237 242 249 253 256 258 259 260 259 257 252 242 231 220 214 209 209 209 209 205 202 198 195 192 189 188 185 182 178 174 171 167 166 165 166 169 172 173 174 175 176 176 177 178 177 177 176 176 175 172 168 167 167 167 168 170 173 174 174 171 167 162 161 162 165 165 165 165 164 162 159 155 153 151 151 152 150 150 149 148 147 146 146 147 148 147 145 143 140 139 138 140 138 138 139 137 131 126 123 120 123 129 128 125 124 124 123 123 122 122 122 122 122 121 120 117 117 117 117 117 117 117 117 117 117 117 117 117 117 117 117 117 117 117 117 117 117 117 117 117 117 117 117 117 117 117 117 117 117 117 117 117 117 117
263 263 263 264 266 269 273 277 275 272 267 265 261 257 257 257 257 257 258 258 258 258 258 258 257 257 257 257 257 257 257 257 258 258 256 255 254 253 253 253 253 253 253 253 253 253 253 254 255 257 258 260 261 262 264 264 263 262 260 260 264 268 271 273 274 274 274 275 276 278 279 279 278 276 278 283 287 289 290 290 290 283 277 268 262 258 257 256 256 254 254 254 255 255 255 258 258 257 256 256 258 255 255 255 254 254 254 255 255 255 255 257 259 260 261 264 266 270 274 279 285 290 293 292 290 294 298 300 299 297 298 300 304 308 315 320 323 325 328 331 335 338 341 345 346 348 348 348 346 343 339 334 329 325 323 323 321 320 318 315 314 314 315 313 310 307 305 305 304 304 305 305 305 305 305 309 313 314 315 317 318 319 319 321 324 325 325 325 325 325 324 324 325 326 328 329 328 326 326 328 330 332 333 335 336 337 336 335 335 334 335 335 334 332 328 325 323 323 324 328 332 335 338 339 339 338 338 338 338 338 339 340 343 342 339 336 334 333 331 328 325 324 322 319 315 311 311 311 311 311 311 311 311 311 311 311 311 311 311 312 313 313 313 314 314 315 318 318 317 316 314 313 312 311 311 310 308 307 306 304 304 306 309 312 314 312 308 304 298 292 290 292 293 293 292 291 291 291 291 293 293 295 299 304 308 313 318 323 326 327 327 325 323 321 319 317 314 312 309 307 305 302 300 299 298 295 292 288 284 273 258 254 254 254 254 253 253 253 258 271 275 272 272 274 275 272 270 268 266 263 260 260 260 260 260 261 266 270 269 268 268 269 268 265 259 255 251 250 249 247 246 245 246 245 244 242 242 242 243 248 252 255 259 260 257 253 248 244 240 236 233 233 233 233 236 236 235 234 234 232 231 230 230 231 232 233 236 238 239 239 239 237 234 231 230 230 229 229 228 227 226 225 225 225 224 224 224 225 224 224 224 224 224 224 225 230 233 234 232 231 230 228 229 229 230 232 235 238 239 239 240 239 239 237 236 238 239 238 236 234 232 229 224 222 223 223 223 221 220 222 224 225 226 226 227 226 225 225 222 219 217 216 214 212 211 209 206 204 203 202 202 201 199 197 194 193 190 187 187 186 186 185 185 185 183 181 179 178 178 177 178 177 174 171 170 170 170 170 170 170 170 170 170 170 170 170 170 170 170 170 171 172 171 171 171 172 172 173 173 173 174 174 175 179 184 190 196 200 200 200 198 198 199 201 202 203 202 202 202 202 202 202 202 202 202 200 197 197 197 197 197 197 197 197 197 199 200 202 203 205 206 207 209 211 214 215 216 220 225 226 226 228 232 237 243 249 254 257 259 260 260 258 257 252 242 230 220 214 209 208 208 209 206 202 199 195 192 189 188 185 181 178 174 171 168 166 165 166 169 171 173 174 174 176 177 178 179 178 177 177 176 175 174 170 167 167 167 167 169 172 173 174 172 168 164 162 161 163 163 163 163 163 162 159 155 152 151 151 152 151 150 149 148 147 147 146 148 148 147 146 143 141 139 138 139 138 137 139 138 132 127 122 121 128 134 131 127 125 125 124 123 122 122 122 122 122 121 120 117 117 117 117 117 117 117 117 117 117 117 117 117 117 117 116 116 116 117 117 117 117 117 117 117 117 117 117 117 117 117 117 117 117 117 117 117 117 117
263 263 263 264 266 270 275 278 277 273 267 266 261 258 257 257 257 257 258 258 258 258 258 258 258 257 257 257 256 256 256 257 257 257 256 254 254 253 253 253 253 253 253 253 253 253 253 254 256 258 259 261 262 264 265 265 264 264 261 262 267 270 272 274 275 275 275 276 279 280 281 281 280 278 280 285 289 292 293 292 291 287 280 272 265 259 257 256 256 255 254 254 255 255 255 255 255 255 255 255 256 255 255 255 254 254 254 255 255 255 255 259 261 263 265 267 269 270 274 278 282 287 289 289 288 294 298 300 299 296 296 299 302 308 314 319 323 324 327 330 334 337 339 342 345 346 347 347 347 346 342 338 333 328 325 324 321 320 318 315 313 314 315 314 311 308 305 305 304 304 305 305 305 305 309 312 314 316 317 319 319 319 319 321 323 325 325 325 325 324 324 324 325 325 327 327 327 325 324 325 327 330 331 332 334 334 333 333 333 332 332 332 331 329 328 325 322 322 322 326 330 334 336 337 338 338 338 338 338 338 338 340 342 342 340 337 334 333 331 329 326 324 322 319 315 312 312 311 311 311 311 311 311 311 311 311 311 311 311 312 313 313 313 313 314 315 317 318 318 316 314 313 313 312 312 311 309 308 306 304 303 305 309 312 314 312 308 304 298 293 290 290 292 292 292 290 290 290 290 291 293 295 299 304 309 314 318 323 326 327 327 326 324 323 321 318 316 313 311 309 306 302 301 300 299 297 293 290 285 274 259 254 254 254 254 253 254 260 267 276 278 272 272 273 275 272 270 268 265 262 260 260 260 260 260 263 269 272 271 269 269 268 268 266 261 257 254 251 249 247 245 245 246 246 245 243 242 242 243 248 251 253 255 257 255 251 248 243 239 236 233 233 233 233 236 235 234 234 234 232 231 231 231 232 233 236 239 241 243 243 242 240 237 234 231 230 228 227 226 225 225 225 225 225 224 225 226 228 226 224 224 224 224 224 224 227 228 228 229 230 230 230 230 230 231 236 239 241 239 239 240 238 236 235 235 237 238 238 236 232 231 227 224 224 225 226 226 224 222 223 225 227 228 229 230 229 228 227 225 223 221 218 216 214 212 209 207 207 206 204 204 201 197 195 194 193 192 191 190 188 187 185 184 183 182 181 179 179 179 180 181 182 180 176 171 170 170 170 171 171 171 170 170 170 170 170 170 170 170 171 171 172 173 173 173 173 173 173 173 173 174 174 176 181 185 189 196 199 199 195 193 194 197 200 201 201 201 202 202 202 202 202 202 202 202 200 198 198 199 199 198 198 197 197 197 197 199 201 202 204 206 207 209 210 213 214 215 217 223 225 224 227 231 236 243 249 255 258 260 261 258 257 255 251 240 229 221 214 208 208 208 208 206 202 199 196 192 189 187 184 181 178 174 172 169 167 167 168 169 170 172 172 173 176 178 178 179 179 179 179 179 178 177 174 170 168 167 166 167 170 172 174 173 171 168 164 161 161 160 160 161 161 161 157 154 152 152 151 152 151 150 149 148 148 148 148 148 148 147 146 144 141 140 138 138 137 137 138 138 134 128 122 126 137 142 138 132 129 128 126 125 124 123 123 123 122 121 119 117 117 117 117 117 117 117 117 117 117 117 117 117 117 117 116 116 116 117 117 117 117 117 117 117 117 117 117 117 117 117 117 117 117 117 117 117 117 117
266 265 264 265 269 273 278 279 278 273 267 266 261 258 258 258 258 258 258 258 258 258 258 259 259 259 258 257 255 254 254 255 255 255 254 254 254 254 253 253 253 253 253 253 253 253 254 256 258 260 261 263 265 267 268 269 268 267 264 264 268 272 275 277 278 278 278 280 282 284 285 285 284 283 282 286 291 295 297 297 296 292 284 276 268 261 257 257 257 256 255 255 255 255 255 255 255 255 255 254 255 255 255 255 255 255 255 255 255 255 255 261 265 266 267 269 270 271 273 276 279 283 286 287 287 293 298 300 299 296 296 297 300 305 312 318 322 323 326 329 332 335 338 341 343 345 346 346 347 347 345 341 336 331 326 324 321 319 317 315 313 314 316 315 311 308 305 304 304 304 305 305 305 309 312 315 317 318 320 320 319 320 320 321 323 325 325 325 325 323 323 323 324 325 327 327 326 324 323 323 324 326 328 329 331 332 331 331 331 331 330 330 328 327 327 325 322 322 322 324 328 332 334 336 338 338 338 338 338 338 338 340 340 341 340 338 335 333 331 329 326 324 321 318 315 313 313 313 312 311 311 311 311 311 311 311 311 311 312 312 313 313 313 313 313 315 316 317 318 316 314 313 313 313 313 311 310 308 306 304 302 304 308 311 314 312 309 305 299 294 289 289 290 291 291 290 289 290 290 290 294 297 300 305 309 314 318 323 325 327 327 326 324 323 321 319 317 314 312 310 306 303 302 301 300 298 294 291 287 277 261 253 253 253 253 253 260 270 274 279 281 274 272 273 275 272 270 268 265 261 260 260 260 260 260 264 271 273 271 269 268 268 267 266 263 259 256 252 249 247 245 245 245 245 245 242 242 242 243 247 251 252 253 253 251 249 245 242 238 235 233 233 233 233 233 234 234 233 233 232 231 231 232 233 235 237 240 243 244 244 244 242 240 237 234 231 229 227 226 225 225 225 225 225 225 228 231 231 228 225 224 224 224 224 224 224 225 227 229 231 231 231 232 233 236 239 239 241 239 238 239 236 235 235 235 236 236 236 235 232 229 226 225 226 227 227 227 225 224 224 226 229 229 231 231 231 230 229 227 225 225 223 219 215 212 209 208 208 207 206 205 201 197 197 195 193 192 191 190 188 187 184 182 182 182 184 186 186 185 185 185 184 182 180 175 171 171 173 174 174 173 171 170 170 170 170 170 170 171 172 172 172 173 173 173 173 173 173 173 173 173 174 176 181 184 187 193 195 193 190 188 189 195 199 199 200 201 202 202 202 202 202 202 202 202 201 200 201 200 200 198 198 197 197 198 197 198 201 202 203 206 207 208 209 211 214 214 216 222 222 223 227 231 236 243 249 256 261 261 261 258 256 254 248 237 229 223 214 208 208 208 207 206 203 200 196 192 189 187 184 181 178 175 173 171 170 168 170 170 170 170 171 173 176 177 178 179 179 180 181 181 181 180 178 175 171 168 166 166 168 172 174 173 172 170 168 166 162 161 160 159 159 158 156 154 152 152 152 151 151 150 149 148 148 148 149 149 148 147 146 144 141 140 138 137 137 137 136 138 135 128 126 134 140 142 141 138 136 134 131 127 125 124 123 123 121 118 117 117 117 117 117 117 117 117 117 117 117 117 117 117 117 117 117 117 117 117 117 117 117 117 117 117 117 117 117 117 117 117 117 117 117 117 117 117 117 117
269 267 264 266 271 275 279 279 278 273 267 266 261 259 258 258 258 258 258 258 258 258 259 260 260 260 259 258 256 254 254 254 254 254 254 254 254 254 253 253 253 253 253 253 253 253 255 257 259 261 263 266 268 271 272 272 270 269 266 267 271 275 278 279 280 280 281 283 286 287 288 288 287 286 285 287 291 295 299 300 300 295 288 280 271 265 259 257 257 257 256 255 255 255 255 255 255 255 255 254 255 255 255 255 255 255 255 255 255 254 254 259 267 267 266 268 270 271 272 274 277 280 283 284 285 292 298 300 300 297 295 295 297 303 311 317 320 322 324 326 330 333 335 337 340 342 343 344 345 346 347 343 339 334 329 323 320 318 316 314 312 313 316 315 311 308 305 304 304 304 305 305 308 312 315 318 320 321 322 321 320 320 320 320 323 325 325 325 325 324 323 323 324 325 326 325 324 323 322 321 321 322 324 325 327 329 330 330 330 330 330 328 327 326 326 323 321 321 321 323 326 329 332 334 336 338 338 338 338 338 338 339 340 341 341 339 337 334 331 328 326 323 320 318 316 316 316 315 314 313 311 311 311 311 311 311 311 312 313 313 313 313 313 313 313 314 315 317 317 317 315 314 314 313 313 312 311 310 307 304 302 302 306 310 312 312 309 305 299 294 288 287 288 289 290 289 288 289 289 291 294 297 301 305 309 314 318 322 325 326 326 326 324 323 322 319 318 315 313 310 306 304 302 302 301 298 297 293 289 281 265 254 253 254 253 257 269 277 279 284 284 275 271 272 274 272 270 268 265 261 260 260 260 260 260 264 270 273 270 269 268 267 266 265 263 261 258 254 250 247 245 244 244 244 244 241 240 241 242 246 249 251 252 252 250 247 243 240 237 235 233 233 233 233 233 233 233 233 232 232 231 231 233 234 236 239 241 244 245 245 244 243 242 239 236 232 230 228 227 226 225 225 225 225 229 233 233 232 229 226 224 224 224 224 224 224 224 226 229 231 231 232 234 236 239 239 238 237 234 233 234 234 234 235 236 236 235 234 233 231 228 226 226 228 229 229 229 227 226 225 226 229 230 231 232 233 233 232 229 227 227 226 221 216 213 212 211 210 209 207 204 201 198 198 195 193 191 190 189 188 186 184 183 187 189 191 191 190 188 187 187 186 184 181 177 175 175 179 180 180 178 173 170 170 170 170 174 175 175 173 173 173 173 173 173 173 173 173 173 173 173 174 176 177 178 182 186 187 187 185 185 188 193 195 197 200 201 201 201 201 202 202 202 202 202 201 201 200 200 199 198 197 197 197 198 198 199 201 202 202 204 206 208 209 210 213 215 215 219 219 223 227 230 235 242 249 256 261 262 261 258 256 252 245 237 231 224 214 208 208 208 207 206 204 201 197 192 189 188 185 182 178 176 174 173 172 171 171 171 170 170 171 173 176 177 178 179 180 182 183 183 183 182 181 178 174 168 166 166 166 170 172 172 172 171 170 169 166 163 162 159 158 157 155 153 152 152 151 151 150 150 149 149 149 149 149 149 148 147 145 144 142 140 137 136 136 136 135 135 135 129 128 135 141 142 141 141 141 139 137 131 127 125 123 121 117 117 117 117 117 117 117 117 117 117 117 117 117 117 117 117 117 117 117 117 117 117 117 117 117 117 117 117 117 117 117 117 117 117 117 117 117 117 117 117 117 117
270 268 266 267 272 277 279 280 277 273 267 266 261 259 259 259 259 259 259 259 259 259 259 261 262 261 260 259 256 254 254 254 254 254 254 254 254 253 253 253 253 253 253 253 253 254 256 259 261 264 267 269 272 273 274 274 272 271 268 270 274 278 280 282 283 283 283 285 288 289 290 290 290 289 287 288 292 296 300 303 303 298 291 284 274 267 262 259 260 260 259 258 258 256 255 255 255 255 255 255 254 254 254 255 255 255 255 254 254 254 254 258 266 267 265 266 269 270 271 273 277 280 282 282 285 291 297 300 300 298 295 294 294 299 308 315 319 320 322 324 326 329 332 334 336 339 340 341 342 344 345 343 340 336 330 323 319 318 315 312 311 312 312 311 309 306 304 304 304 305 305 307 311 315 319 322 324 324 324 322 320 320 320 320 323 325 326 327 326 325 323 323 324 324 323 323 322 322 321 320 320 320 321 322 324 327 328 328 328 328 327 326 326 325 324 321 321 321 321 323 326 328 331 333 335 337 338 338 338 338 338 339 340 341 342 339 338 335 331 328 325 323 320 318 318 319 318 317 316 315 314 313 311 311 311 311 312 312 313 315 314 313 313 313 313 314 315 316 317 318 315 314 314 313 313 312 311 310 308 305 302 302 305 309 311 312 309 305 299 294 288 287 287 288 288 287 288 289 290 292 295 298 303 306 310 314 318 321 324 324 325 324 324 324 322 319 318 316 313 310 307 304 302 302 301 299 298 295 292 285 270 256 256 257 256 262 273 280 281 286 284 274 270 271 272 270 269 267 265 262 260 260 260 260 260 263 268 270 269 269 267 265 263 263 263 261 258 254 251 249 246 244 242 242 242 241 240 240 241 243 246 248 250 250 248 246 242 238 237 235 233 233 233 233 233 233 233 232 232 232 232 232 234 236 237 239 243 245 246 247 246 245 243 241 238 235 231 229 228 226 225 225 225 227 231 233 233 231 228 225 224 224 224 224 224 224 223 224 226 229 230 232 233 236 237 235 232 231 230 230 230 231 234 235 237 237 235 233 232 231 228 227 228 229 230 231 231 229 227 227 227 229 231 232 232 233 234 233 231 229 229 226 224 219 216 215 214 212 210 207 203 200 197 195 195 193 191 189 188 188 186 187 189 192 192 193 191 190 189 189 188 186 185 182 179 177 178 180 181 181 180 175 170 170 170 170 177 179 179 177 176 174 174 174 174 174 174 173 173 173 173 174 175 176 176 177 179 181 181 181 182 185 188 191 196 199 200 200 201 201 201 202 201 201 201 201 201 200 199 199 198 197 197 197 198 199 200 201 201 202 204 206 207 209 210 212 215 215 216 217 222 226 230 234 241 249 256 260 263 262 259 255 251 244 238 232 223 213 209 208 208 207 207 205 201 197 192 189 188 185 181 179 178 178 176 175 174 174 172 171 171 173 175 176 178 178 180 181 184 185 186 185 185 183 180 175 170 167 166 166 166 167 168 169 170 169 169 167 166 164 161 158 155 154 152 152 152 151 151 151 151 150 150 150 150 150 149 149 148 146 144 142 141 137 135 135 135 132 130 130 129 128 131 137 141 141 141 142 142 140 135 129 126 122 119 117 117 117 117 117 118 118 117 117 117 117 117 117 117 117 117 117 117 117 117 117 117 117 117 117 117 117 117 117 117 117 117 117 117 117 117 117 117 117 117 117 117
270 269 266 267 273 277 280 280 277 272 267 265 261 259 259 259 259 259 259 259 259 259 260 262 264 262 260 259 257 255 254 254 254 254 254 254 254 253 253 253 253 253 253 253 253 254 257 260 264 267 270 272 273 275 276 275 273 271 269 273 277 281 283 284 286 287 286 288 290 291 291 291 291 290 289 289 292 298 302 304 304 300 294 287 279 270 265 262 263 263 262 261 261 259 258 257 256 255 255 255 254 254 254 255 254 255 255 254 254 255 255 258 262 263 262 263 265 267 269 273 277 280 281 282 285 289 296 299 299 298 295 293 292 296 303 311 316 318 320 322 324 327 329 332 334 336 338 339 340 341 342 342 339 336 330 323 319 317 314 311 310 310 309 307 304 303 303 303 304 305 305 307 312 318 323 325 326 326 326 323 321 320 320 320 324 325 326 327 327 325 322 322 323 323 323 323 322 322 321 320 320 320 320 320 322 325 326 327 326 326 324 323 323 323 322 321 321 321 321 323 325 327 329 331 334 336 338 338 338 338 338 338 340 341 342 340 339 337 334 329 326 324 321 319 321 321 320 319 318 316 315 315 313 311 310 311 312 312 313 315 314 312 312 312 312 313 314 315 317 317 316 314 314 313 313 312 311 311 309 307 304 302 302 306 310 312 309 305 299 293 287 287 287 287 287 287 288 290 290 293 296 301 304 307 310 314 317 321 323 324 324 324 323 323 322 319 318 316 314 311 308 304 302 302 301 300 300 298 295 290 281 271 269 270 271 273 278 281 282 286 283 272 268 269 270 270 269 266 265 263 261 260 260 260 261 263 265 267 268 268 267 265 262 262 262 260 257 255 253 251 247 244 242 242 241 240 239 240 241 242 243 245 247 248 247 245 241 238 237 235 233 233 233 233 233 233 233 233 232 232 232 232 235 237 238 240 243 246 247 248 248 247 245 243 240 238 234 230 229 227 226 226 226 228 232 233 233 231 227 224 224 224 225 226 226 225 223 224 224 227 230 231 232 234 231 228 228 229 229 230 230 231 234 237 238 238 235 233 232 231 228 228 229 230 231 233 233 231 229 228 228 229 231 232 232 233 233 233 232 230 229 226 225 222 220 217 215 214 211 207 203 200 198 196 196 194 191 189 188 188 188 192 195 194 193 193 192 191 190 189 188 186 185 182 180 179 180 181 181 181 180 176 171 170 170 170 175 179 180 180 179 178 177 175 175 174 174 174 174 174 174 175 175 176 176 176 176 176 176 177 179 181 184 190 195 198 199 200 201 201 201 201 201 201 201 201 200 199 199 198 197 197 196 196 197 199 199 200 201 201 203 205 207 208 209 211 215 215 215 216 220 226 230 233 240 249 255 260 263 262 259 255 250 245 239 233 223 211 208 208 207 207 207 206 201 197 192 189 188 184 181 180 181 180 178 176 176 175 173 172 174 175 176 177 178 179 181 184 186 188 188 188 187 184 182 179 174 170 168 166 165 164 165 166 168 168 168 167 167 164 160 158 155 153 152 152 152 151 151 151 151 151 150 150 150 150 150 149 149 147 144 141 140 138 134 134 132 131 130 129 130 133 132 132 137 140 141 142 142 142 139 133 126 121 117 117 117 117 118 120 122 121 120 120 119 118 117 117 117 117 117 117 117 117 117 117 117 117 117 117 117 117 117 117 117 117 117 117 117 117 117 117 117 117 117 117 117
270 269 267 269 274 279 280 280 277 272 266 265 261 259 259 259 259 259 259 260 260 260 261 264 265 263 261 260 257 256 255 255 255 255 255 255 255 254 253 253 253 253 252 253 253 254 258 263 267 270 272 274 275 276 277 276 274 273 271 275 280 283 286 287 289 289 288 290 292 293 293 294 294 293 291 291 293 298 303 305 305 301 295 289 282 274 269 265 267 267 265 264 263 261 260 259 257 256 255 255 255 255 255 255 254 255 255 255 255 255 256 258 260 260 262 263 265 266 269 274 278 280 281 281 285 288 294 298 298 297 294 292 290 293 300 307 312 314 316 318 320 322 325 327 330 332 334 335 336 338 339 339 338 334 329 322 317 315 312 309 308 308 306 303 303 303 303 304 304 305 305 308 313 319 325 327 328 328 327 325 322 320 320 320 323 326 327 327 327 325 322 322 322 324 323 323 322 322 321 321 320 320 320 320 321 324 325 325 324 323 322 322 322 321 321 321 321 321 321 322 325 326 328 330 332 335 338 338 338 338 338 338 340 341 342 341 341 340 337 332 328 325 322 323 324 323 322 320 318 317 316 315 314 312 310 310 311 312 313 315 314 312 311 311 311 312 314 315 316 317 316 314 314 314 313 312 311 311 310 308 306 302 302 304 309 311 309 304 298 292 287 287 287 287 287 287 289 290 290 293 297 301 305 308 310 314 316 320 322 323 324 324 323 323 322 319 318 316 314 311 308 304 302 302 301 301 302 302 299 295 290 286 282 280 279 278 278 280 282 284 279 271 267 267 268 269 268 266 265 263 261 261 261 261 261 263 265 267 268 267 265 264 261 260 260 258 257 255 254 251 247 244 243 242 240 240 239 239 240 238 238 241 244 246 245 244 241 238 237 235 234 233 232 232 232 233 234 233 233 233 233 233 236 238 240 241 243 246 247 249 249 248 246 244 242 240 236 231 230 229 227 227 227 228 232 234 233 230 226 224 224 224 225 226 228 227 225 224 224 224 227 229 230 229 227 227 227 229 231 232 234 234 236 238 239 239 236 233 232 231 229 229 231 233 234 234 234 233 231 231 231 231 232 233 233 233 233 232 230 230 229 227 224 222 220 219 217 215 211 207 203 201 199 197 196 194 191 188 188 189 193 196 197 196 194 194 196 196 192 189 187 186 184 181 181 180 181 182 181 181 181 178 173 170 170 170 170 175 180 181 182 182 179 176 175 175 175 175 175 175 175 175 176 176 176 176 176 176 176 176 176 179 182 187 192 196 198 199 200 200 200 201 200 200 200 200 200 198 198 198 197 197 196 196 197 198 198 200 200 201 202 204 206 207 208 210 213 214 214 215 219 225 230 233 239 247 254 259 260 261 260 256 251 246 240 233 223 212 209 208 207 206 207 206 201 197 192 188 187 185 184 184 184 181 179 178 177 176 175 174 176 177 178 179 179 181 184 186 188 190 190 190 188 186 183 181 178 174 170 168 166 164 164 164 164 165 165 164 163 161 159 157 155 153 152 152 152 152 152 152 152 152 151 151 151 151 151 150 149 148 144 140 140 138 133 131 130 131 132 133 133 135 135 132 133 138 139 141 142 141 140 134 126 120 117 117 117 119 122 125 125 125 123 122 119 117 117 117 117 117 117 117 117 117 117 117 117 117 117 117 117 117 117 117 117 117 117 117 117 117 117 117 117 117 117 117 117
270 269 268 271 276 280 280 279 277 272 266 264 261 259 259 259 259 259 259 260 260 260 262 265 265 264 262 260 257 256 256 256 256 255 255 255 255 254 253 253 252 252 252 253 253 254 259 265 269 272 273 275 276 277 277 277 275 274 274 278 283 287 289 291 291 291 290 292 294 295 295 295 295 294 292 292 294 299 303 306 306 303 297 291 284 277 271 269 270 270 268 267 265 263 261 260 259 258 256 255 255 255 254 254 254 254 254 255 255 255 256 257 258 261 263 265 266 267 270 274 277 279 279 281 285 288 292 296 298 296 294 291 289 291 297 304 309 310 311 313 314 317 319 323 325 328 330 331 332 333 335 336 335 333 328 321 314 311 310 308 307 307 303 301 303 304 305 305 305 306 307 309 314 321 327 329 330 329 328 327 324 322 320 320 322 325 326 326 326 325 322 322 323 324 324 323 322 322 321 320 320 320 320 320 321 323 324 324 323 322 321 321 321 321 321 321 321 321 321 322 325 326 327 329 331 334 337 338 338 338 338 338 338 341 342 343 342 342 340 336 329 326 324 324 326 325 323 321 319 318 316 316 315 314 312 310 310 311 313 314 313 311 311 311 311 312 313 314 315 316 316 314 314 314 313 312 312 311 310 309 308 305 302 302 307 310 308 304 297 292 287 287 287 287 287 287 289 291 291 294 298 303 306 309 311 314 316 318 321 323 323 323 323 322 321 319 318 316 314 311 308 304 302 302 301 301 302 303 301 299 295 293 289 286 284 282 280 278 278 279 275 270 267 266 266 268 268 266 265 263 262 262 262 262 262 263 266 268 269 266 265 263 261 260 260 259 258 256 254 251 247 244 244 243 241 240 238 237 236 236 236 236 240 243 244 243 240 238 238 236 234 233 232 232 232 233 233 233 233 233 233 234 237 239 240 241 243 246 247 249 249 248 247 245 244 242 238 234 232 230 228 227 227 229 232 234 232 228 225 224 224 224 225 226 228 230 228 224 224 223 224 226 226 226 226 227 228 229 231 233 235 237 238 239 240 239 237 234 233 231 231 231 232 234 235 235 235 235 234 233 234 234 235 235 235 235 234 233 231 230 229 227 224 223 223 223 219 216 211 207 204 202 201 197 195 193 190 189 191 195 198 198 198 198 197 198 199 197 192 189 186 185 183 181 181 181 181 182 182 183 183 179 173 170 170 170 170 172 176 181 183 183 181 177 176 175 175 175 175 175 175 176 176 176 176 176 176 176 176 176 176 178 181 184 188 191 194 198 200 199 200 200 200 199 199 199 199 198 197 197 197 197 196 196 196 197 198 199 199 200 202 203 205 206 207 208 210 212 213 213 218 224 229 232 237 245 254 256 258 259 259 256 251 247 241 233 223 215 212 209 207 205 205 204 200 196 192 189 188 187 187 187 186 183 181 179 178 178 176 177 178 179 180 179 180 183 186 188 190 192 192 191 189 187 185 184 181 178 173 170 168 166 164 163 162 162 163 161 161 159 157 156 154 153 153 153 152 152 152 152 152 152 152 151 151 151 151 150 149 148 145 140 140 139 134 131 130 131 135 135 134 135 135 132 132 135 137 139 140 141 140 133 126 120 117 117 119 124 127 128 128 127 125 123 119 117 117 117 117 117 117 117 117 117 117 117 117 117 117 117 117 117 117 117 117 117 117 117 117 117 117 117 117 117 117 117 117
270 270 269 272 277 280 280 278 276 271 266 264 261 259 259 259 259 259 259 260 260 261 264 266 266 265 263 261 257 256 256 256 256 255 255 255 255 254 253 253 252 252 252 253 255 258 262 267 271 274 275 277 278 279 279 278 277 276 276 281 286 289 292 294 295 294 293 295 297 297 298 298 297 296 295 293 295 300 304 307 307 304 298 292 285 279 274 271 272 273 271 269 267 265 263 261 260 259 256 255 255 255 254 254 254 254 254 254 254 255 255 255 259 263 267 269 270 268 270 275 276 276 276 281 284 287 291 294 296 294 292 289 289 291 294 300 305 306 307 308 308 309 311 315 317 321 323 325 326 328 329 331 331 330 326 320 313 309 308 307 307 305 301 300 304 309 309 307 305 306 308 311 317 324 330 332 333 333 331 328 326 323 321 320 322 323 323 323 324 323 323 323 323 323 324 324 322 322 321 320 320 321 321 320 320 322 322 322 322 321 321 321 321 321 321 321 321 321 321 322 326 327 327 328 330 333 336 338 338 338 338 338 338 341 342 344 344 344 341 336 330 327 326 327 327 326 324 322 320 318 317 317 317 315 312 310 310 310 311 312 312 310 310 310 311 311 313 314 315 316 316 314 314 314 313 313 313 312 311 310 308 306 302 300 305 307 306 303 296 291 287 287 287 287 287 287 289 291 291 294 299 303 307 309 311 314 315 317 320 321 321 321 321 321 321 319 318 316 315 311 308 305 301 301 300 301 302 301 301 300 299 296 294 290 288 286 284 280 279 276 273 270 268 266 266 266 267 266 265 263 263 263 262 262 262 264 267 269 269 266 263 262 261 260 260 259 258 257 254 252 248 245 244 244 242 241 237 236 236 236 236 236 238 242 242 242 241 239 238 237 234 233 233 233 232 232 233 233 233 233 233 234 237 239 241 241 244 246 248 248 249 248 248 246 245 243 239 235 233 231 230 229 229 229 232 233 231 228 225 224 224 224 225 226 229 232 232 230 229 228 228 227 226 227 227 228 229 230 232 234 235 238 240 240 240 239 238 236 235 234 233 233 235 237 237 237 237 236 236 236 237 237 238 239 238 238 237 236 234 231 230 228 225 224 224 223 220 218 213 208 205 202 200 197 194 192 191 194 196 198 198 199 199 199 199 198 197 194 192 189 186 183 181 182 185 184 183 183 185 187 185 179 173 170 170 170 170 172 176 180 182 183 181 178 176 176 176 176 176 176 176 176 177 177 177 177 177 178 178 180 179 178 180 181 183 185 190 194 196 196 197 198 197 197 197 198 198 198 197 197 197 197 196 196 196 197 197 199 199 199 201 203 203 204 206 207 209 211 213 213 217 222 227 231 236 242 251 254 257 258 257 255 252 248 241 232 223 217 214 210 208 205 204 202 199 196 192 191 191 191 191 190 187 184 182 180 180 179 178 179 180 180 181 181 181 185 187 189 191 193 194 193 190 189 186 184 183 180 176 172 169 166 164 163 162 162 161 160 159 158 157 156 154 154 153 153 153 152 152 152 153 155 155 152 151 151 151 150 149 148 147 144 143 142 136 132 131 132 135 136 135 135 134 133 133 135 136 138 140 140 139 131 125 120 117 119 125 129 130 131 130 128 127 125 120 117 117 117 117 117 117 117 117 117 117 117 117 117 117 117 117 117 117 117 117 117 117 117 117 117 117 117 117 117 117 117 117
271 271 270 274 278 281 280 277 273 270 265 263 261 260 260 260 260 260 260 261 261 263 267 268 268 266 263 261 257 255 255 255 255 255 255 255 255 254 253 253 253 253 253 253 258 263 266 269 272 275 277 279 280 280 280 279 277 277 279 284 289 292 295 297 297 296 295 297 299 300 301 300 299 298 297 295 296 300 305 308 308 305 301 294 287 281 276 273 274 275 273 271 269 266 264 261 260 259 256 255 255 255 255 255 255 255 255 254 254 255 255 255 261 267 270 272 272 269 271 274 273 272 274 279 282 285 288 289 290 290 288 287 288 290 292 297 301 301 302 302 302 302 304 306 309 312 315 319 322 323 325 326 328 327 324 318 312 308 307 308 305 303 300 299 303 309 308 305 304 304 307 313 319 327 332 335 336 336 334 331 328 325 322 321 322 323 323 323 323 322 322 322 322 323 325 325 323 322 321 320 320 321 321 320 320 320 321 321 321 321 321 321 321 321 321 321 321 321 321 323 326 327 327 329 330 332 335 337 338 338 338 338 339 340 341 344 345 345 342 336 331 328 328 328 328 327 325 323 321 319 317 317 317 316 313 311 310 310 310 311 311 310 310 310 310 311 312 313 314 316 315 315 315 314 313 313 314 313 311 309 308 306 303 298 303 306 304 300 294 289 287 287 287 287 287 287 289 290 291 293 299 304 308 309 311 314 315 317 318 320 320 320 320 320 320 319 318 316 315 311 307 305 301 300 299 300 301 301 301 301 300 299 296 294 291 290 288 285 282 278 274 272 270 267 266 266 265 265 265 263 263 264 264 263 263 265 267 269 269 267 263 262 262 261 261 260 259 258 255 252 249 246 245 244 243 240 236 236 236 236 236 236 236 236 240 242 242 241 239 238 236 234 233 233 232 233 233 233 233 233 233 235 238 240 241 242 244 247 248 249 250 249 249 247 247 245 242 237 235 232 231 229 229 230 232 233 230 227 226 224 224 224 226 226 229 232 236 237 237 236 235 234 232 231 230 230 231 232 233 235 236 239 241 241 241 241 241 239 238 237 236 235 236 238 238 238 238 237 238 239 239 239 240 240 240 240 240 239 237 234 231 229 227 225 224 224 223 219 215 209 205 202 198 194 194 192 194 197 198 199 199 199 199 199 199 197 196 195 194 193 189 183 180 182 188 188 183 182 185 188 185 178 172 170 170 170 170 173 177 181 183 183 181 179 177 176 176 176 176 176 176 177 177 178 178 179 179 180 182 183 183 181 180 180 181 183 186 188 189 191 195 196 194 194 196 198 197 198 197 197 196 196 196 196 196 196 197 198 198 199 200 202 202 203 205 207 208 210 212 212 216 221 226 230 235 240 248 252 255 256 255 254 254 249 240 231 224 219 215 212 210 207 204 202 200 197 194 193 194 196 194 190 186 184 183 182 181 180 179 181 182 181 181 181 183 186 188 191 192 194 195 194 193 191 189 186 184 181 177 174 171 169 167 164 163 163 161 160 159 158 157 156 155 155 155 155 154 153 153 153 155 157 156 154 152 151 151 150 149 148 148 148 147 145 139 134 133 133 135 137 136 134 134 133 134 136 137 139 140 140 137 130 125 121 120 125 131 133 134 134 133 130 129 127 122 118 117 117 117 117 117 117 117 117 117 117 117 117 117 117 117 117 117 117 117 117 117 117 117 117 117 117 117 117 117 117 117
273 273 274 277 280 283 280 275 270 267 264 262 261 260 260 260 260 260 261 262 263 266 270 272 270 267 264 261 257 255 254 254 254 254 255 255 255 255 253 253 253 253 253 253 260 267 271 273 274 276 279 281 282 282 282 281 279 279 281 286 291 294 297 298 299 298 298 299 301 303 303 303 302 301 299 297 297 301 305 308 308 306 301 295 288 282 277 275 275 276 275 273 271 268 265 261 261 260 256 255 255 255 255 255 254 255 255 255 255 254 255 256 263 269 272 273 273 271 271 272 271 271 273 277 280 284 285 283 284 284 284 284 287 287 289 292 295 296 296 296 295 295 297 298 301 305 307 311 315 318 320 322 324 324 321 317 312 306 306 308 305 302 299 299 301 304 303 301 301 303 307 314 321 327 333 337 339 339 338 335 331 327 325 323 323 323 322 322 322 321 321 321 321 322 324 325 325 324 323 323 322 321 321 320 320 320 320 320 320 321 320 320 320 320 321 321 321 321 321 323 326 327 327 329 330 332 333 336 338 339 338 339 340 340 341 344 345 344 341 336 332 330 330 329 329 329 326 324 322 320 319 318 317 316 313 311 310 310 310 309 310 309 309 310 310 310 312 313 314 315 316 315 315 313 313 314 314 313 311 308 307 306 303 298 300 304 302 298 293 288 287 287 287 287 287 287 288 290 290 293 298 304 308 309 311 314 315 316 317 319 320 320 319 319 319 319 318 316 314 311 307 305 301 299 299 300 300 301 301 301 301 300 299 297 295 293 292 288 286 281 276 274 272 270 267 266 265 265 265 264 265 266 265 264 265 267 268 269 270 268 264 263 263 263 263 262 260 259 256 252 250 248 247 245 241 239 236 236 236 236 236 235 235 235 238 240 242 242 241 240 239 237 233 233 233 234 233 233 233 233 233 235 238 240 242 243 245 247 248 250 250 250 250 249 249 247 244 239 237 233 231 230 230 230 232 232 230 228 226 224 224 224 225 226 229 231 235 238 239 240 240 239 238 236 235 235 237 238 238 238 238 239 241 242 242 242 242 242 240 239 238 238 239 240 240 240 240 240 241 241 241 242 242 242 242 242 241 240 239 236 234 231 228 227 227 226 223 219 216 211 206 204 200 195 194 196 198 199 199 199 200 199 199 198 198 197 196 195 195 194 189 182 179 180 183 186 183 181 183 186 183 176 171 170 170 170 172 176 181 184 184 184 181 180 178 177 177 177 178 178 178 179 179 180 181 181 182 183 185 186 186 185 183 181 182 183 183 185 185 187 190 192 192 192 196 196 196 198 197 197 196 196 195 195 195 196 197 197 197 198 200 201 201 201 204 206 207 209 210 211 213 219 224 228 233 239 246 250 252 252 252 254 255 250 240 231 226 221 217 214 211 208 205 203 200 198 196 198 199 200 195 189 186 184 183 183 182 181 181 183 183 182 182 182 185 187 189 191 193 195 195 195 195 193 192 189 186 183 180 178 174 170 168 167 166 166 164 161 160 159 158 157 157 157 156 156 156 155 155 155 155 157 156 154 152 151 151 150 148 147 147 147 148 146 142 138 134 133 134 138 139 137 136 135 136 138 139 140 141 140 137 130 125 121 121 129 136 138 137 137 136 134 132 129 123 119 117 117 117 117 117 117 117 117 117 117 117 117 117 117 117 117 117 117 117 117 117 117 117 117 117 117 117 117 117 117 117
274 275 277 279 282 283 282 276 271 267 263 262 261 260 260 260 260 260 262 263 264 267 271 273 272 268 264 260 256 254 254 254 255 254 255 255 255 257 255 253 253 253 253 255 263 270 274 276 277 278 281 283 284 285 284 282 281 280 282 288 293 297 300 302 302 301 301 302 304 305 305 305 304 303 301 299 299 302 306 308 308 306 302 296 291 285 279 276 276 276 275 274 272 269 265 262 261 260 258 256 255 255 255 255 254 255 255 255 255 254 255 258 264 269 273 273 272 271 271 272 272 272 272 275 278 282 280 278 278 280 281 282 283 284 285 286 288 289 289 289 289 289 290 292 295 298 300 304 308 311 314 318 320 320 320 316 310 305 305 308 304 300 299 298 299 300 299 300 301 304 308 315 321 328 334 339 342 342 340 338 334 330 327 325 324 322 322 321 321 321 320 320 321 322 324 326 326 327 327 327 326 325 323 321 320 320 320 320 320 320 320 320 320 320 320 321 321 321 321 324 326 327 327 329 330 332 332 334 336 338 339 340 341 341 342 344 344 343 341 337 334 332 331 330 331 331 329 327 324 322 320 319 317 316 314 311 310 310 310 309 308 309 309 309 309 310 311 312 313 315 316 315 315 313 313 315 315 314 311 308 307 306 304 298 298 302 300 296 292 287 287 287 287 287 287 287 288 290 290 293 298 304 308 309 311 313 314 316 317 318 319 319 319 318 318 318 318 316 314 311 307 304 301 299 298 299 299 300 300 301 302 302 301 299 297 296 295 292 289 284 280 277 275 272 268 266 265 265 265 265 265 267 266 265 266 267 267 269 270 269 265 263 262 262 263 262 261 261 257 254 252 250 249 247 241 236 236 236 236 236 236 235 235 235 236 239 243 244 244 242 241 240 237 235 234 234 233 233 233 233 233 235 238 241 243 244 246 248 249 251 251 251 251 251 250 249 247 242 239 235 233 231 230 230 232 231 230 228 225 224 224 224 225 226 227 230 233 236 239 240 240 241 241 240 240 240 239 239 238 237 237 239 241 241 241 242 243 242 242 240 239 239 240 241 241 242 242 243 243 243 243 244 244 244 243 243 242 242 241 239 237 234 231 229 228 227 222 219 216 213 210 207 203 199 198 198 199 200 200 200 199 199 199 198 198 197 196 195 194 192 187 182 178 178 178 179 180 180 181 181 180 175 170 170 170 170 173 179 183 184 184 183 181 181 179 179 179 180 180 180 180 180 181 182 182 183 184 186 187 188 188 187 185 184 184 184 184 185 185 185 185 187 189 191 194 194 196 198 197 197 196 196 195 195 195 196 197 196 196 197 199 200 200 200 203 206 207 208 209 210 212 217 222 226 230 236 241 246 249 249 250 255 256 250 240 233 228 223 219 215 212 208 205 203 200 199 199 200 200 200 194 189 186 184 184 183 183 182 183 183 182 182 182 184 187 190 192 194 195 195 196 196 195 194 193 192 189 186 183 181 178 174 171 171 171 169 167 164 162 160 160 159 158 157 157 157 156 155 155 155 155 157 157 154 152 151 150 149 147 147 147 147 147 146 144 141 137 133 134 137 141 141 140 138 139 141 141 141 142 140 137 130 126 122 122 129 136 139 139 138 138 137 136 131 125 120 117 117 117 117 117 117 117 117 117 117 117 117 117 117 117 117 117 117 117 117 117 117 117 117 117 117 117 117 117 117 117
275 277 279 282 283 283 282 279 274 269 264 262 261 260 260 260 260 261 263 265 267 269 273 274 273 269 265 260 256 254 254 254 255 255 255 255 255 255 256 254 253 253 253 256 264 272 277 279 280 281 283 285 286 286 286 285 283 281 283 289 295 300 302 304 304 304 303 304 305 306 307 306 306 305 303 301 300 302 306 308 308 305 302 297 291 286 281 279 278 277 275 274 273 269 265 262 261 260 260 258 257 256 255 255 255 255 255 255 255 255 255 259 263 268 272 273 271 271 272 272 272 272 272 273 275 277 277 277 278 280 281 282 283 283 284 284 285 286 286 287 288 288 288 289 291 292 295 298 302 306 309 312 315 317 317 313 308 304 303 304 303 300 298 298 299 299 299 302 305 306 308 315 321 328 335 341 345 345 343 340 337 333 329 327 325 322 320 320 320 319 319 319 319 322 325 327 328 329 330 330 329 328 326 323 320 320 320 320 320 320 320 320 320 320 320 321 321 321 322 324 326 328 328 329 330 332 332 332 335 338 340 341 341 342 342 344 343 343 341 338 336 334 333 331 333 333 331 329 327 324 321 320 318 316 314 312 311 311 310 309 308 308 308 308 308 310 311 312 313 314 316 315 315 314 314 315 315 314 311 309 307 305 303 298 296 299 298 295 290 287 287 287 287 287 287 287 289 290 290 292 297 303 307 309 311 313 314 315 315 317 317 316 316 317 317 317 317 316 314 311 307 304 301 298 297 297 298 300 300 301 303 304 303 302 300 299 298 295 293 288 284 281 279 276 272 268 266 266 266 265 266 269 268 267 266 266 267 268 270 269 266 263 262 262 262 262 262 262 258 255 254 252 250 247 242 236 236 236 236 236 236 235 236 236 236 239 242 243 243 244 244 242 240 238 236 234 233 233 233 233 233 235 238 242 243 245 247 248 250 251 252 252 252 252 252 251 249 245 242 237 233 231 230 230 230 230 229 227 224 224 224 224 224 225 226 229 232 235 238 239 240 242 242 242 242 240 239 237 236 236 237 239 240 241 241 242 243 243 243 242 241 241 242 242 243 244 244 245 246 246 246 246 246 246 245 244 243 243 243 242 239 236 233 230 229 226 221 217 215 214 212 208 205 203 201 201 201 201 200 200 199 199 199 198 198 197 196 195 192 188 184 180 177 177 177 177 177 178 179 179 177 174 170 170 170 170 174 179 182 181 182 182 182 181 181 181 181 182 182 182 181 182 183 184 184 185 186 188 189 190 190 190 188 188 187 187 187 187 186 186 185 185 188 190 191 192 196 198 197 197 196 196 196 194 194 196 195 194 195 197 198 199 199 200 203 205 206 206 208 209 212 215 220 224 227 233 238 242 246 247 251 256 257 251 241 234 228 224 220 216 212 208 206 203 200 199 199 199 198 196 192 188 185 185 184 183 183 183 183 182 182 182 183 186 189 192 193 195 197 197 197 197 196 195 194 193 191 188 186 183 180 178 176 175 174 173 170 167 166 165 164 161 158 158 157 157 157 156 155 155 155 156 157 154 152 151 150 148 147 146 146 145 145 145 144 143 140 135 134 137 141 143 142 141 142 143 143 143 142 140 137 131 126 123 122 128 135 137 139 139 139 139 136 131 126 121 118 117 117 117 117 117 117 117 117 117 117 117 117 117 117 117 117 117 117 117 117 117 117 117 117 117 117 117 117 117 117
