ncols         946
nrows         33
xllcorner     -71.3777777778
yllcorner     42.0118
cellsize      1.0E-5
NODATA_value  -9999
64 63 60 57 57 56 54 51 50 49 46 44 44 44 45 45 45 44 44 44 44 43 42 42 42 42 42 42 42 42 42 42 42 42 42 42 42 42 42 42 42 43 46 49 52 59 62 63 63 63 62 60 58 60 61 61 61 59 54 50 46 44 44 44 45 46 47 47 47 47 47 49 49 49 48 48 48 49 51 55 58 58 57 57 55 53 51 50 50 50 50 50 53 57 62 65 65 67 69 70 70 70 70 71 71 70 70 70 70 69 68 66 66 66 66 66 66 66 67 69 70 71 71 72 72 72 72 71 71 68 67 66 65 65 66 65 64 64 64 65 66 66 66 65 62 60 60 60 62 60 58 58 58 61 63 64 64 63 58 54 52 52 52 51 50 50 52 54 54 53 53 52 51 51 52 52 52 52 52 52 51 50 50 50 49 49 48 48 48 48 48 48 50 50 50 49 49 48 48 48 47 47 47 47 47 46 46 46 46 46 45 45 45 45 45 45 45 45 45 45 45 45 45 45 45 45 44 44 45 45 47 49 51 51 50 50 49 49 49 49 49 50 50 50 50 50 50 51 51 53 55 56 60 62 65 66 66 68 69 70 69 67 65 62 61 60 60 60 60 60 60 60 60 59 61 63 64 65 65 62 58 56 56 56 56 56 57 57 57 57 57 57 57 57 57 57 60 62 64 67 68 70 72 73 74 74 74 71 68 62 60 58 57 57 57 57 57 56 56 56 56 56 56 56 56 56 56 56 56 56 56 57 57 57 57 56 56 56 57 57 58 60 61 62 63 63 62 63 65 67 69 73 73 70 68 68 69 72 72 71 69 68 68 67 66 66 66 68 68 69 71 71 71 73 72 68 65 64 62 60 58 58 58 60 60 63 64 65 66 66 70 75 76 77 77 77 78 78 77 77 77 78 78 79 80 79 78 78 79 81 81 82 83 83 84 83 83 82 82 84 87 90 94 96 99 103 105 108 109 112 113 114 115 116 117 119 121 122 123 124 125 127 127 128 128 127 125 125 123 123 122 121 119 117 114 112 110 110 110 109 109 108 108 108 108 108 108 108 108 108 109 107 104 102 100 98 98 98 97 95 92 89 83 78 79 77 74 71 69 69 71 74 79 83 87 91 95 97 98 99 97 95 92 90 86 82 77 71 67 64 64 63 63 63 63 63 65 67 71 73 73 73 73 73 74 74 76 78 80 83 85 85 86 86 87 89 89 89 89 89 88 88 88 88 88 87 87 87 85 85 83 83 83 82 82 83 83 83 83 83 83 84 84 82 82 82 80 80 78 75 72 68 66 64 63 63 64 64 65 66 68 69 71 71 73 73 73 72 72 71 70 70 70 71 71 70 70 69 69 69 68 68 68 69 69 69 69 70 72 75 78 77 75 73 73 73 72 72 71 72 76 79 78 77 77 76 75 73 72 72 72 73 72 71 72 72 71 69 69 68 68 68 67 67 68 69 68 67 67 66 65 65 63 61 60 59 59 58 57 57 55 56 60 61 62 63 63 63 62 59 55 53 53 53 53 53 51 49 46 46 47 51 54 55 56 56 55 55 55 56 57 57 57 57 57 58 58 59 59 60 60 62 64 66 67 67 66 65 66 66 64 63 62 60 59 58 58 58 57 56 56 57 57 56 56 56 56 57 58 58 58 58 58 59 60 60 60 60 61 62 62 63 63 63 63 63 63 63 63 62 62 62 62 62 63 64 65 67 67 66 66 66 65 64 64 64 64 65 65 65 65 66 69 71 71 72 72 73 73 73 74 74 74 74 75 76 77 77 77 76 76 75 75 75 75 75 75 75 75 74 74 74 73 73 72 72 72 72 72 73 73 73 74 74 74 75 75 75 75 75 75 75 76 77 77 77 77 77 77 77 78 77 77 77 77 77 77 77 77 77 77 77 77 77 77 77 77 77 76 75 75 73 72 72 70 70 71 73 75 73 72 72 72 72 73 74 75 72 66 66 64 63 62 62 62 62 62 62 62 62 62 62 62 62 62 62 65 66 67 67 67 68 68 70 70 70 71 71 71 71 70 70 66 65 65 65 65 65 65 65 65 65 65 65 65 65 65 65 65 66 65 65 66 68 69 69 67 65 65 64 63 63 63 63 65 65 65 64 61 60 56 53 52 49 47 44
63 61 58 56 54 52 49 47 45 44 44 44 44 44 44 44 44 44 44 43 43 43 42 42 42 42 42 42 42 42 42 42 42 42 42 43 43 42 42 42 42 44 46 50 53 61 64 64 64 64 62 60 57 59 61 61 61 61 57 52 47 44 44 44 45 45 47 47 47 48 48 49 49 49 48 48 48 49 51 54 56 57 58 57 56 55 54 51 50 51 50 51 57 64 68 68 68 70 71 71 71 71 71 71 71 70 70 70 69 68 68 67 66 65 65 65 66 66 67 69 70 71 71 72 73 73 73 73 71 67 67 67 66 66 67 66 65 65 65 66 66 66 66 65 61 59 59 61 63 61 58 59 62 65 66 66 66 62 57 54 52 52 51 50 50 50 50 52 52 51 51 51 51 51 51 51 50 50 50 50 49 49 49 49 49 49 49 49 49 48 48 49 50 50 50 49 49 48 48 48 47 47 47 47 47 46 46 46 46 46 45 45 45 45 45 45 45 45 45 45 45 45 45 45 45 45 44 45 45 45 45 48 49 49 49 49 49 49 49 49 49 50 50 50 50 50 50 51 51 53 55 56 59 62 65 66 66 68 69 70 68 66 62 60 60 60 60 60 60 60 60 60 60 61 63 64 65 65 65 62 58 56 56 56 56 56 57 57 57 57 57 57 57 57 57 57 60 61 63 66 68 70 73 73 75 75 75 72 68 63 61 58 57 57 57 56 56 56 56 56 56 56 56 56 56 56 56 56 56 56 56 56 56 56 56 56 56 56 57 57 59 62 63 64 64 63 63 64 66 67 69 73 73 72 69 68 69 72 73 72 71 71 70 69 69 69 68 69 69 69 70 70 70 71 71 69 68 66 63 61 58 58 58 60 60 63 65 65 66 67 71 74 75 76 76 77 78 78 77 77 77 78 78 79 80 78 78 78 79 81 82 83 84 85 85 85 83 82 82 83 86 90 94 96 99 103 104 107 108 111 112 113 114 115 116 118 119 121 123 123 125 126 127 128 128 127 125 125 124 123 123 121 120 118 116 114 112 110 110 109 109 108 107 107 107 107 107 107 107 107 106 105 102 100 98 97 97 96 95 94 92 89 83 77 77 75 73 71 69 69 72 78 83 86 89 94 99 100 101 100 96 92 89 86 84 79 73 68 64 63 63 63 63 63 64 64 65 67 72 74 74 74 74 74 74 74 75 77 80 83 85 85 86 86 87 89 89 88 88 88 88 88 87 87 87 87 87 87 85 84 83 82 82 82 82 82 82 82 83 83 83 83 83 82 81 81 80 79 77 75 72 68 65 64 63 63 64 65 67 69 70 70 71 72 73 73 73 72 72 71 71 71 72 72 72 71 71 69 69 69 68 68 68 69 69 69 70 71 73 75 79 78 76 74 74 74 72 72 71 74 77 80 80 78 78 77 75 74 73 73 73 72 71 71 71 71 70 69 69 68 67 67 67 67 67 67 67 66 66 66 65 64 63 62 60 59 59 58 56 55 54 55 57 59 61 62 62 63 62 59 55 53 53 53 53 53 52 49 46 46 47 51 54 55 56 56 55 55 55 57 58 60 60 59 59 59 59 59 59 60 61 63 65 66 67 68 67 65 66 66 64 63 62 61 60 59 59 59 58 56 56 57 57 57 57 57 57 58 58 58 58 59 59 60 61 61 62 62 62 62 62 63 63 63 63 63 63 62 62 62 62 62 62 62 62 63 65 67 66 65 65 65 64 64 64 64 65 65 66 65 64 65 67 69 70 71 72 72 73 73 73 74 74 74 75 76 77 77 76 76 75 75 75 75 75 75 74 74 74 74 73 73 72 72 72 72 72 72 72 72 73 73 73 73 74 74 74 75 75 75 75 75 76 77 77 77 77 77 77 77 77 77 77 76 76 76 76 76 76 76 77 77 77 77 77 77 77 77 76 75 75 73 72 72 71 71 71 71 72 71 71 71 71 71 72 73 74 72 67 66 64 63 62 62 62 62 62 62 62 62 62 62 62 62 62 62 63 65 66 66 67 67 67 67 67 68 70 71 70 69 68 67 65 65 65 65 65 65 65 65 65 65 65 65 65 65 65 65 65 65 65 65 67 68 69 69 67 65 65 64 64 64 63 64 65 65 65 64 61 60 56 52 52 50 48 46
62 58 54 52 51 50 46 44 44 45 45 44 44 44 44 44 44 44 44 43 42 42 42 42 42 42 42 42 42 42 42 42 42 42 42 43 43 42 42 42 43 44 46 51 54 62 66 66 65 64 61 58 57 58 59 60 60 60 57 53 48 45 44 44 45 46 47 48 48 48 48 49 49 49 48 48 48 48 51 53 55 57 58 58 58 56 55 53 51 53 51 54 62 69 69 68 68 69 70 70 70 70 70 70 70 70 69 69 68 67 66 67 66 64 64 64 66 67 68 69 69 71 72 73 75 75 73 69 68 67 68 68 68 68 68 68 68 67 67 67 67 66 64 64 61 60 59 62 63 63 60 62 66 67 67 67 65 61 56 54 53 52 51 50 50 49 49 49 50 50 50 51 51 50 50 50 50 50 50 49 49 48 48 48 49 49 49 49 49 49 49 50 51 51 50 49 49 48 48 48 47 47 47 47 47 46 46 46 46 46 45 45 45 45 45 45 45 45 45 45 45 45 45 45 45 45 45 46 46 45 45 47 48 49 49 49 49 49 49 49 49 50 50 50 50 50 50 51 51 53 54 56 59 62 65 66 67 69 68 68 67 65 61 60 61 60 60 60 60 60 60 60 61 63 64 65 65 65 64 61 58 56 56 56 57 57 57 57 57 57 57 58 58 58 58 58 59 61 62 66 68 71 73 74 75 75 75 72 69 64 61 58 57 57 57 56 56 56 56 56 56 56 56 56 56 56 56 56 56 56 56 56 56 56 56 56 56 56 57 58 60 62 63 65 64 64 65 67 68 69 70 73 73 73 69 69 70 72 74 74 74 74 74 73 71 71 71 71 71 70 69 69 69 70 70 69 68 66 63 61 58 58 58 60 61 63 65 65 66 67 71 73 74 75 76 77 78 78 78 78 78 78 78 77 77 77 77 78 78 81 83 84 86 87 88 88 86 83 83 83 86 89 95 96 99 102 104 106 107 109 111 112 114 115 115 117 119 120 123 123 125 126 127 129 129 127 126 125 124 124 123 121 120 119 117 115 113 112 111 109 109 108 107 107 107 107 107 107 107 106 106 105 103 100 96 95 95 95 93 91 90 87 82 77 75 73 71 70 70 70 73 80 87 89 90 95 100 101 101 98 93 89 86 84 81 75 70 65 63 63 63 63 63 63 64 64 66 68 73 75 75 75 74 74 74 74 74 76 79 83 85 85 86 86 87 88 88 88 88 88 88 88 87 87 87 87 87 86 84 84 83 82 82 81 81 81 82 82 82 82 83 83 83 82 81 81 79 78 76 74 70 66 65 64 63 63 64 66 69 71 72 72 73 73 74 74 74 72 71 71 71 73 73 73 72 71 71 69 69 69 69 69 69 70 70 70 71 71 73 76 79 80 78 76 76 75 73 73 73 75 77 79 80 80 78 77 75 75 74 73 73 71 71 71 70 70 69 69 69 67 67 67 67 67 66 66 65 64 64 65 64 63 63 62 61 59 59 58 56 55 54 54 55 56 59 60 60 61 61 59 58 57 55 54 54 54 52 48 47 47 47 51 53 55 56 56 56 56 56 57 58 60 62 62 61 61 59 59 60 61 62 63 65 66 67 67 67 66 66 66 64 63 63 63 62 61 60 60 59 57 56 57 58 60 60 59 59 59 58 58 58 59 59 59 60 62 63 63 63 63 63 63 63 63 63 63 63 62 62 62 62 62 62 62 62 62 64 64 64 64 64 64 65 65 65 65 65 66 67 66 64 64 64 67 69 71 72 72 73 73 73 74 74 74 74 75 77 77 75 75 75 75 75 74 74 74 74 73 73 73 73 72 72 72 72 72 72 72 72 72 73 73 73 73 74 74 74 75 75 75 75 75 76 77 77 77 77 77 76 76 77 76 76 76 76 75 75 75 76 76 76 77 77 77 77 77 76 76 76 75 75 73 73 72 71 71 71 71 71 71 71 71 71 71 71 72 73 72 69 66 65 64 63 62 62 62 62 62 62 62 62 62 62 62 62 62 62 63 65 66 66 67 67 66 66 67 68 69 68 67 66 65 65 65 65 65 65 65 65 65 65 65 65 65 65 65 65 65 65 65 65 65 68 69 69 69 67 65 65 64 64 64 64 64 64 65 65 64 61 60 56 53 52 51 49 47
62 56 53 51 51 50 47 45 45 45 45 44 44 44 44 44 44 43 43 43 42 42 42 42 42 42 42 42 42 42 42 42 42 42 42 42 42 42 42 42 44 45 47 52 55 64 67 68 67 64 61 59 57 57 58 59 59 59 57 52 48 45 44 45 46 48 49 49 48 48 48 49 49 49 49 49 48 48 50 53 56 57 58 59 59 57 55 54 51 55 55 59 66 69 69 67 67 68 69 69 67 66 65 65 67 68 68 67 66 65 65 65 65 64 63 64 67 68 69 69 69 71 72 74 74 71 68 68 70 72 71 70 69 70 71 72 72 70 69 69 69 68 65 63 61 61 61 62 63 63 62 64 67 68 68 68 65 60 57 55 54 52 51 50 50 49 49 49 50 50 50 50 50 50 50 50 50 50 49 48 48 48 48 48 49 49 49 49 49 50 50 51 51 51 50 49 49 48 48 48 47 47 47 47 46 46 46 46 46 46 45 45 45 45 45 45 45 45 45 45 45 45 45 45 45 45 46 47 47 46 45 47 47 48 49 49 49 49 49 50 50 50 50 50 50 50 50 51 51 53 54 56 59 62 65 67 68 69 68 68 67 64 61 61 61 60 60 60 60 60 60 60 61 65 65 66 65 64 61 59 57 57 57 57 57 57 57 57 57 57 57 58 58 58 58 58 59 61 63 66 69 72 73 74 75 75 75 72 70 64 61 58 57 57 57 56 56 56 56 56 56 56 56 56 56 56 56 56 56 56 56 56 56 56 56 56 57 57 58 59 61 63 63 64 64 65 66 67 69 71 74 74 74 73 70 71 73 74 76 76 76 76 76 76 74 74 74 73 72 72 71 70 68 68 69 68 67 65 62 60 58 58 58 60 61 63 64 65 66 67 70 72 74 75 75 76 78 78 78 78 78 78 78 77 77 77 77 77 78 82 84 86 88 89 90 90 89 86 83 84 86 89 94 96 98 101 103 104 105 107 109 111 113 114 115 117 118 120 122 123 124 126 127 129 129 128 127 125 125 125 123 122 121 120 118 117 114 113 111 109 109 108 107 107 107 107 107 108 107 107 107 107 104 100 96 93 92 92 90 89 89 86 81 78 74 71 71 70 70 71 75 81 88 91 91 94 99 100 99 94 89 86 84 81 77 72 66 64 63 63 63 63 63 64 65 65 68 70 74 75 75 76 75 74 73 73 73 76 79 83 85 85 86 86 86 86 87 87 87 87 87 87 87 87 87 86 86 86 84 84 82 82 81 81 81 81 81 81 81 82 82 82 82 81 80 80 79 77 75 72 68 64 64 64 64 64 65 68 70 72 73 74 74 74 75 74 74 71 71 72 74 74 74 73 72 71 71 69 69 69 69 69 69 70 70 71 71 72 75 76 78 80 79 78 78 75 74 73 74 74 75 77 79 79 78 77 75 75 74 74 73 72 71 71 70 70 69 69 69 67 66 66 66 66 65 65 64 62 61 63 63 61 61 61 60 59 59 58 56 55 53 53 54 54 56 57 58 59 61 61 60 60 60 59 57 54 50 48 47 47 47 50 53 55 56 55 56 57 57 58 59 60 62 63 63 63 62 61 61 62 63 64 65 67 68 68 67 67 66 66 65 64 64 63 63 61 61 60 59 57 56 57 58 59 59 59 59 59 58 58 58 58 58 58 60 60 62 63 64 64 64 63 63 63 63 63 63 62 62 62 62 62 62 62 62 62 63 65 64 64 64 64 64 64 64 65 66 67 67 67 65 64 64 66 68 71 72 72 73 73 73 74 74 74 74 75 77 77 75 75 75 74 74 74 73 73 74 73 73 72 72 72 72 72 72 72 72 72 72 72 73 73 73 73 74 74 74 75 75 75 75 75 76 77 77 77 77 76 76 76 76 76 75 75 75 75 75 75 75 75 76 76 76 76 77 77 76 76 76 75 75 74 74 73 71 71 71 71 71 70 70 70 71 71 71 71 71 71 69 66 66 66 63 62 62 62 62 62 62 62 62 62 62 62 62 62 62 62 63 65 66 67 66 65 66 66 67 68 67 66 66 65 65 65 65 65 65 64 64 64 64 64 64 64 64 64 65 65 65 65 65 66 69 70 70 69 68 65 65 65 64 64 63 63 64 64 64 63 61 60 57 54 53 51 51 50
61 56 53 52 53 53 50 48 46 45 45 44 44 44 44 44 43 43 43 42 42 42 42 42 42 42 42 42 42 42 42 42 42 42 42 42 42 42 42 42 44 45 48 52 55 63 67 67 68 64 61 59 57 57 57 59 58 57 54 51 48 46 46 46 47 49 51 51 49 49 49 49 49 49 49 49 48 48 50 53 54 54 56 59 59 59 57 55 52 57 59 62 66 69 69 67 67 68 68 67 63 61 61 61 62 63 63 64 64 63 63 63 63 63 63 64 67 68 70 70 70 70 71 71 69 67 69 72 73 73 72 71 72 72 74 76 75 72 70 70 71 69 66 64 61 60 61 63 63 63 64 66 68 69 70 70 67 63 59 57 55 52 52 50 50 50 50 50 50 50 50 50 50 49 49 49 49 49 49 48 48 48 48 48 49 49 50 50 50 51 51 51 51 51 50 49 49 48 48 48 47 47 47 47 46 46 46 46 45 45 45 45 45 45 45 45 45 45 45 45 45 45 45 45 45 45 47 48 49 48 46 47 47 48 48 48 49 49 49 50 50 50 50 50 50 50 50 51 51 52 54 56 60 62 64 67 68 69 69 68 66 63 61 61 61 61 61 60 60 60 59 59 60 64 65 66 65 62 57 57 57 57 57 57 57 57 57 57 58 58 58 58 58 58 58 58 59 62 63 67 70 72 74 74 75 75 74 72 69 64 61 58 57 57 57 57 57 56 56 56 56 56 56 56 56 56 56 56 56 56 56 56 56 56 56 56 57 59 61 62 62 62 63 63 64 65 67 67 69 73 74 74 74 73 71 71 73 76 77 78 78 78 79 78 77 77 76 75 74 74 71 70 67 66 66 66 64 63 62 60 58 58 58 60 61 64 64 64 66 67 69 71 73 74 75 76 78 78 78 78 78 78 78 78 77 77 77 77 78 82 85 87 89 90 91 91 90 88 85 84 86 89 93 95 97 99 101 103 105 106 109 110 113 114 114 116 118 120 122 123 124 126 127 130 130 129 128 127 126 125 124 122 122 120 119 117 115 114 112 110 110 109 108 108 108 108 109 109 109 108 108 108 104 101 96 94 90 88 86 87 88 85 82 79 74 71 71 71 71 71 75 81 88 91 91 93 97 97 95 90 86 84 81 78 73 68 64 64 63 63 63 63 63 64 66 68 72 73 74 75 75 77 76 75 73 73 73 75 78 82 85 85 86 86 86 86 86 87 87 87 87 87 87 86 86 86 86 85 84 83 82 81 81 81 81 81 81 81 81 81 81 82 82 80 80 79 78 77 75 72 68 64 64 64 64 65 66 69 71 73 74 75 76 76 75 74 74 72 72 73 75 75 74 74 72 71 71 69 69 69 69 69 69 71 71 71 72 73 75 77 78 79 79 78 78 76 75 74 74 74 74 75 76 77 77 77 75 75 75 74 74 73 72 72 71 70 69 69 69 67 66 66 65 65 65 64 63 61 61 61 61 60 60 60 60 59 59 58 57 56 54 53 53 53 54 55 57 58 61 61 62 62 62 60 57 52 48 48 48 48 48 50 53 53 53 53 55 57 59 60 60 61 63 63 64 65 65 65 64 64 64 64 66 68 68 69 69 68 67 67 66 66 64 62 62 61 61 61 60 58 58 58 58 58 58 59 60 60 58 58 58 58 58 58 59 59 61 62 64 66 66 65 64 63 63 63 63 63 63 63 63 62 62 62 62 62 63 65 64 64 64 64 64 64 65 66 67 68 68 68 66 66 67 68 69 71 72 72 72 72 74 76 76 75 75 76 77 77 75 75 75 74 74 73 73 73 73 73 73 72 72 72 72 72 72 72 72 72 72 73 73 73 74 74 74 75 75 75 75 75 74 74 76 77 77 77 77 76 76 76 75 75 75 74 74 74 74 74 75 75 75 76 76 76 76 76 76 76 76 75 75 74 74 73 71 71 71 71 71 70 70 70 71 71 71 70 70 70 69 67 66 66 64 63 63 62 62 62 62 62 62 62 62 62 62 62 62 62 62 64 65 65 65 65 65 65 66 66 67 67 67 66 66 66 66 66 65 64 64 64 64 64 64 64 64 64 64 64 64 65 66 68 70 70 70 68 67 65 65 65 64 64 63 63 63 63 63 63 61 61 58 55 53 51 51 50
59 57 56 58 59 57 54 52 50 47 46 44 44 44 44 44 43 42 42 42 42 42 42 42 42 42 42 42 42 42 42 42 42 42 42 42 42 42 42 42 44 45 47 51 54 62 64 64 64 62 60 58 57 56 56 57 56 55 53 51 50 48 46 47 49 52 55 54 52 49 49 49 49 50 50 49 49 49 50 51 52 52 53 56 58 60 60 57 57 59 61 63 66 69 69 68 68 68 67 63 59 59 59 59 60 60 60 61 62 61 61 62 62 62 62 64 67 68 70 70 69 69 68 68 70 73 75 75 74 73 72 72 73 75 78 80 78 75 72 71 72 72 68 64 61 59 60 63 65 64 65 66 69 72 72 70 66 62 59 58 56 53 52 51 51 52 52 53 52 50 50 50 50 49 49 49 49 49 49 48 48 48 48 48 49 50 50 50 50 51 51 51 51 51 51 50 50 49 48 48 47 47 46 46 46 46 46 46 45 45 45 45 45 45 45 45 45 45 45 45 45 45 45 45 45 45 47 48 50 48 47 47 47 48 48 48 49 49 49 50 51 51 50 50 50 50 50 50 50 52 54 56 60 61 64 66 68 69 68 67 64 62 61 61 61 60 60 60 60 60 59 58 60 63 65 64 61 58 57 57 57 57 57 57 57 57 57 57 58 58 58 57 57 57 58 58 60 62 63 66 70 72 73 74 75 74 73 70 69 64 61 58 57 57 57 57 57 56 56 56 56 56 56 56 56 56 56 56 56 56 56 56 56 56 56 57 58 60 63 63 63 61 61 62 64 65 67 67 69 74 74 73 73 73 72 71 72 75 76 77 78 78 79 79 79 79 78 76 75 74 71 69 66 64 64 65 64 64 63 61 59 59 59 61 62 63 64 64 66 67 69 71 71 74 74 76 77 77 79 79 78 78 78 78 78 78 77 77 78 83 86 89 90 91 91 91 91 90 86 84 86 88 91 94 95 97 100 102 104 106 110 110 112 113 114 116 116 119 121 122 123 125 127 130 130 130 129 129 128 127 125 123 122 121 120 119 117 114 113 112 111 110 108 107 107 109 109 109 109 108 107 107 104 100 96 95 92 87 84 85 85 84 81 78 73 71 71 71 71 72 74 80 87 91 90 90 94 94 91 87 84 81 77 73 69 65 64 64 63 63 63 64 64 65 67 71 74 74 74 75 76 77 76 74 73 73 73 74 77 81 84 85 86 86 86 86 86 86 86 86 87 87 86 86 86 85 85 85 83 83 81 81 81 80 80 80 80 80 80 80 81 81 81 80 79 78 77 76 75 72 68 64 64 64 64 66 69 72 73 73 74 76 76 77 76 75 74 73 74 75 76 76 75 74 73 71 71 69 69 69 69 69 70 71 73 74 75 77 77 77 78 78 78 78 78 77 76 76 75 74 75 75 76 76 77 77 76 76 76 75 75 74 74 74 72 71 70 70 69 68 66 66 65 65 64 63 62 61 61 61 62 60 60 60 61 61 61 60 59 57 55 53 53 52 53 54 56 58 61 61 62 62 62 59 55 49 49 49 49 49 48 50 50 51 51 51 53 55 58 61 61 61 62 63 63 64 66 66 65 64 65 65 67 68 68 68 68 67 67 67 65 65 64 62 62 61 61 61 60 59 58 58 58 58 58 59 59 59 58 58 58 58 58 58 59 59 61 62 64 65 65 66 65 65 64 63 63 63 63 63 63 63 62 62 62 62 62 64 64 64 64 64 64 65 67 68 68 68 69 68 68 69 69 70 70 71 71 71 72 72 73 75 76 77 78 77 78 77 76 75 75 73 73 72 72 72 73 74 74 73 73 72 72 72 72 72 72 72 72 73 74 74 74 74 74 75 75 75 74 74 74 74 76 77 77 76 76 76 75 75 75 75 75 74 74 74 74 74 74 74 75 75 75 76 76 76 76 76 76 75 75 74 73 72 71 71 71 70 70 70 70 70 70 70 70 70 69 69 68 68 66 66 65 63 63 62 62 62 62 62 62 62 62 62 62 62 62 62 62 62 64 65 65 64 65 65 65 65 66 66 66 66 66 66 66 66 65 64 64 64 64 64 64 64 64 64 64 64 64 65 67 69 70 70 69 68 67 65 65 65 64 64 63 63 63 62 62 62 61 61 58 55 53 51 50 49
59 57 58 60 60 58 55 53 51 48 46 44 44 44 44 44 43 42 42 42 42 42 42 42 42 42 42 42 42 42 42 42 42 42 42 42 42 42 42 42 43 44 46 49 52 59 61 61 60 60 59 58 56 55 55 55 54 54 54 53 52 48 47 48 51 55 59 59 53 50 50 50 50 50 51 51 51 51 51 51 51 52 53 53 55 59 60 59 61 61 62 66 69 69 68 68 67 65 63 59 59 59 59 59 59 59 59 59 59 59 60 60 60 62 63 65 68 68 69 68 67 68 69 73 76 75 74 75 75 74 74 74 75 78 81 81 80 77 74 73 73 73 68 63 60 58 59 63 65 64 64 66 68 72 72 68 65 62 59 59 57 54 53 53 53 54 56 56 54 52 51 50 50 49 49 49 48 48 49 48 48 48 48 48 50 51 51 51 51 51 51 51 51 51 51 51 50 49 49 48 47 47 46 46 46 46 46 46 45 45 46 46 45 45 45 45 45 45 45 45 45 45 45 45 45 45 47 48 48 47 47 47 47 48 48 48 49 49 50 51 51 51 51 51 50 50 50 50 50 52 54 57 60 62 64 65 66 67 66 66 62 62 61 62 62 60 60 60 59 59 58 58 59 62 63 60 58 57 57 57 57 57 57 57 57 57 58 58 58 57 57 57 57 57 58 58 59 61 62 65 69 72 72 73 75 74 72 70 68 64 60 58 57 57 57 57 57 56 56 56 56 56 56 56 56 56 56 56 56 56 56 56 56 56 56 57 59 62 64 64 62 60 60 61 63 65 67 68 70 74 74 72 73 73 72 71 71 73 75 76 76 76 77 79 79 79 78 76 75 74 70 67 65 64 66 68 68 66 64 62 59 59 60 62 62 63 64 64 66 68 70 72 72 74 74 75 77 77 79 79 79 78 78 78 78 78 77 77 79 84 87 90 91 91 92 92 92 91 88 86 87 89 91 92 93 95 97 101 102 106 109 110 112 113 113 116 116 118 120 121 123 124 127 130 131 131 130 130 130 128 126 124 123 122 121 120 118 116 115 114 113 111 108 105 106 108 109 109 108 106 106 106 104 100 95 94 92 87 83 82 83 82 80 76 72 71 71 71 72 72 73 78 85 89 89 88 91 90 87 84 81 76 72 68 66 65 64 64 64 64 64 64 64 65 68 71 74 74 74 76 77 76 74 73 73 73 73 74 75 79 83 85 86 86 86 86 86 86 86 86 86 86 86 86 86 85 85 84 83 83 81 81 81 80 80 80 80 80 80 80 81 81 81 80 78 78 76 76 74 71 68 64 64 64 65 69 71 75 75 75 75 76 78 78 77 75 74 74 75 76 76 76 75 75 74 71 71 70 69 69 69 69 70 72 74 77 77 77 77 76 76 78 78 78 78 78 79 78 76 76 77 78 77 77 77 77 76 76 76 76 76 76 75 75 74 73 72 70 70 68 67 66 65 65 64 63 62 61 61 63 62 62 62 63 63 62 62 61 61 59 56 55 53 51 51 52 55 58 61 61 62 62 61 58 53 49 49 49 49 49 49 51 50 50 50 50 51 54 56 60 61 62 62 62 62 63 65 65 65 65 66 66 68 68 68 68 68 67 67 67 65 65 64 62 62 62 62 62 60 59 58 58 58 58 58 59 59 58 58 58 58 58 58 58 59 59 60 62 63 65 65 66 66 66 64 64 64 63 63 63 63 63 62 62 62 62 62 64 64 64 64 64 65 66 68 69 70 70 70 70 70 70 70 71 71 71 71 71 72 72 72 73 75 76 78 80 79 78 77 76 75 73 73 72 72 72 73 74 74 74 74 74 73 73 72 72 72 72 72 73 74 74 74 74 74 74 74 75 74 74 74 75 76 78 78 76 76 75 75 75 75 74 74 74 74 74 74 74 74 74 75 75 75 75 75 75 76 76 76 75 75 74 73 71 71 71 71 70 70 70 70 70 70 70 69 69 69 68 68 68 67 67 65 63 63 62 62 62 62 62 62 62 62 62 62 62 62 62 62 62 63 64 65 63 63 64 65 65 65 66 66 66 66 65 66 66 65 65 65 64 64 64 64 64 63 63 63 63 63 64 66 69 70 70 69 67 66 65 65 65 64 64 63 63 63 62 62 62 60 60 58 54 52 50 49 48
59 57 56 57 56 54 52 50 49 46 45 44 44 43 43 43 42 42 42 42 42 42 42 42 42 42 42 42 42 42 42 42 42 42 42 42 42 42 42 42 43 44 45 47 49 54 57 58 59 59 58 57 55 54 54 55 55 54 55 55 53 48 47 48 52 56 59 59 54 51 51 50 50 50 51 51 52 52 51 51 52 52 53 53 53 57 60 60 61 60 62 66 68 66 65 64 62 60 58 58 59 60 60 60 60 59 59 59 59 59 59 59 60 63 65 67 68 67 66 66 67 71 73 75 74 72 73 74 74 75 75 76 78 82 83 82 81 80 77 74 73 73 68 62 59 57 57 60 61 62 63 64 66 69 70 67 65 62 59 59 58 56 56 56 56 57 59 59 58 54 52 50 50 49 49 49 48 48 48 48 48 48 48 49 51 51 51 51 51 51 51 51 51 51 52 51 51 49 48 48 47 46 46 46 46 45 45 45 45 45 46 46 45 45 45 45 45 45 45 45 45 45 45 44 44 45 46 47 46 46 46 47 47 47 48 48 49 49 50 52 52 52 51 51 51 51 50 50 50 52 55 58 61 62 64 65 65 65 65 64 63 62 62 62 63 60 60 59 58 58 57 57 57 59 59 57 57 57 57 57 57 57 57 57 58 58 58 58 57 57 57 57 57 57 57 57 59 60 61 63 67 70 71 73 74 73 70 69 67 62 60 58 58 58 57 57 57 56 56 56 56 56 56 56 56 55 55 55 56 56 56 56 56 56 56 57 62 64 64 63 61 60 60 61 63 64 67 68 72 72 71 72 72 73 72 71 71 72 73 74 75 75 75 77 78 78 77 76 75 74 70 67 66 68 72 74 72 68 64 62 59 59 61 63 63 63 64 64 66 68 70 72 72 74 74 75 76 76 79 79 79 78 78 78 78 78 77 77 79 83 87 90 91 92 92 93 92 92 90 87 87 89 91 91 92 94 95 99 101 105 108 110 111 113 113 116 117 119 120 121 123 124 126 130 131 132 131 131 131 130 127 125 124 123 122 121 119 118 117 114 114 111 108 104 103 105 107 107 105 104 104 104 103 99 93 92 90 87 82 79 80 80 78 74 72 71 71 71 72 72 73 75 80 85 86 86 87 86 83 79 75 70 67 65 65 64 64 64 64 64 64 65 65 66 68 72 73 73 73 75 77 75 74 73 73 73 73 74 74 76 80 84 86 85 85 85 85 86 86 86 86 86 85 85 85 85 85 84 82 82 81 81 81 80 80 79 79 79 80 80 80 80 80 80 78 78 76 76 74 71 68 64 64 65 67 72 74 75 76 76 77 77 78 78 77 76 76 76 77 77 77 77 76 75 74 71 71 71 70 69 69 70 70 72 74 76 76 75 74 74 76 77 77 78 78 79 80 79 77 77 78 80 80 78 77 77 77 77 77 77 77 77 76 76 74 74 73 71 70 69 68 67 66 65 65 64 62 62 64 64 62 62 63 63 63 63 63 62 62 62 60 57 55 52 51 51 54 58 60 61 62 61 59 56 51 49 49 49 49 49 49 52 53 51 50 50 51 54 56 59 61 61 61 61 61 62 64 65 64 64 65 66 68 68 68 67 67 67 66 66 65 65 63 62 62 62 62 62 61 59 58 58 58 58 58 58 58 58 58 58 58 58 58 58 58 58 60 62 63 65 65 67 66 66 65 65 64 64 64 63 63 63 62 62 62 62 62 64 65 65 65 65 66 68 69 70 71 71 71 71 70 70 70 70 70 71 71 71 71 71 71 71 72 74 77 80 81 81 79 77 76 74 73 72 71 71 72 74 75 75 75 75 75 74 73 72 72 72 73 74 74 74 74 74 74 74 74 75 74 74 74 75 77 78 78 76 75 75 75 75 74 74 74 74 74 74 74 74 74 74 75 75 75 75 75 75 75 75 75 75 75 74 72 71 71 71 70 70 70 70 70 70 70 70 69 69 69 68 68 68 68 67 66 63 63 62 62 62 62 62 62 62 62 62 62 62 62 62 62 62 62 62 63 62 63 64 65 65 65 65 65 65 65 65 65 65 65 64 64 64 64 63 63 63 63 63 63 63 63 64 65 68 69 69 68 66 65 65 65 65 64 64 63 63 63 62 62 62 60 60 57 53 52 50 49 47
62 58 54 53 52 50 49 47 46 45 45 44 44 42 42 42 42 42 42 42 42 42 42 42 42 42 42 42 42 42 42 42 42 42 42 42 42 42 42 42 42 43 43 45 47 50 54 57 58 59 58 56 55 54 55 56 56 56 55 55 53 49 48 50 54 58 59 58 55 52 51 51 51 51 51 51 52 53 53 53 53 53 53 53 53 55 59 59 60 59 59 60 61 59 58 59 58 58 58 59 60 61 62 63 62 59 58 58 59 59 59 59 60 64 65 67 67 66 66 69 72 73 73 72 72 72 73 75 75 76 77 79 82 83 82 82 83 84 81 76 73 71 66 61 58 57 57 58 58 59 60 61 64 67 68 67 66 63 60 60 60 58 58 59 59 60 61 63 61 57 53 51 51 49 49 49 48 48 48 48 48 48 48 49 51 51 52 52 51 52 52 52 51 51 51 51 50 48 47 47 46 45 45 45 46 45 45 45 45 45 46 46 45 45 45 45 45 45 45 45 45 44 44 44 44 44 46 46 46 46 46 47 47 47 48 48 49 49 50 52 52 52 52 52 51 51 51 51 51 52 56 58 62 63 64 65 65 65 65 64 64 64 64 63 63 60 60 59 58 58 57 57 56 56 56 57 57 57 57 57 57 57 57 58 58 58 57 57 57 57 57 57 57 57 57 57 58 59 60 62 64 68 70 71 72 71 69 68 65 60 59 59 58 58 57 57 57 56 56 56 56 56 56 55 55 55 55 55 56 56 56 56 56 57 57 57 62 62 61 60 60 59 59 61 63 64 66 68 71 70 70 71 72 72 72 72 71 71 71 72 73 73 74 74 75 75 75 75 74 73 69 68 69 74 76 76 72 68 64 61 58 58 61 62 62 63 64 64 65 67 70 71 72 74 74 74 76 77 79 80 80 79 79 78 78 78 77 77 78 82 86 90 92 92 93 93 94 93 91 88 87 89 91 91 92 94 96 99 101 103 107 108 111 113 114 117 118 120 121 122 123 124 125 130 131 133 133 134 134 133 130 126 126 124 123 122 119 118 116 114 113 110 106 101 99 101 103 104 103 101 99 100 101 98 93 89 88 85 81 78 78 79 76 73 72 71 71 71 72 72 73 73 76 81 83 83 83 81 78 75 70 67 66 64 64 64 64 64 64 64 64 65 65 66 69 73 72 72 72 74 74 74 74 74 73 73 73 74 74 75 77 81 85 85 85 85 85 85 85 86 85 85 85 85 85 85 85 84 82 82 81 81 81 80 80 79 79 79 79 79 79 80 80 79 78 78 76 76 74 72 69 65 64 66 70 73 74 76 76 78 78 78 79 79 78 77 77 78 78 78 78 78 77 76 74 72 72 72 71 71 71 71 71 71 73 73 74 74 74 74 76 77 77 77 77 77 77 77 77 77 78 80 80 78 77 77 77 77 79 79 79 78 77 76 75 74 73 72 71 70 69 69 68 67 67 65 64 65 65 64 63 63 63 64 64 64 64 64 64 64 62 60 57 54 53 51 52 57 59 60 60 59 58 54 50 49 49 49 49 49 49 50 53 53 52 50 51 53 56 59 60 60 60 60 60 61 63 63 63 63 64 66 67 66 67 67 67 67 66 66 65 64 62 62 62 63 63 63 62 61 59 58 58 58 58 58 58 58 58 58 58 58 58 58 58 58 60 62 63 65 66 67 67 67 66 65 65 64 64 64 64 63 63 63 63 63 63 65 66 66 65 65 66 69 69 71 71 72 71 71 70 70 70 70 70 70 71 71 71 71 71 71 71 72 74 78 80 80 79 77 76 74 73 72 71 71 72 75 76 76 76 76 76 76 74 73 72 72 73 75 75 75 74 74 74 75 75 75 74 74 74 75 76 77 77 76 75 75 75 75 74 74 74 74 74 75 74 74 74 74 74 74 74 75 75 75 75 75 75 75 75 74 72 71 71 71 70 70 70 69 69 69 70 70 69 69 69 69 69 69 69 69 66 64 63 62 62 62 62 62 62 62 62 62 62 62 62 62 62 62 62 62 62 62 64 65 66 65 65 65 65 65 65 65 65 65 64 64 64 64 64 63 63 63 63 63 63 63 63 63 64 67 69 68 68 66 65 65 65 65 64 64 64 63 63 63 63 62 60 60 56 54 52 51 49 47
63 58 53 49 48 45 44 44 44 45 45 44 44 42 42 42 42 42 42 42 42 42 42 42 42 42 42 42 42 42 42 42 42 42 42 42 42 42 42 42 42 42 42 44 45 48 50 54 56 58 58 56 55 55 56 56 55 55 56 55 53 50 48 51 56 58 59 57 55 54 53 52 52 52 52 52 53 53 53 54 54 54 53 53 53 53 56 58 59 57 55 55 56 57 57 58 58 58 59 59 60 61 64 65 65 61 59 58 58 58 59 59 61 64 64 64 66 67 69 71 72 73 73 74 74 76 79 79 78 78 81 83 84 83 83 84 86 86 85 78 73 69 63 60 57 57 58 59 59 59 60 61 64 65 67 67 66 64 62 63 62 61 60 61 61 62 64 66 64 59 56 52 51 49 49 49 48 48 48 48 48 48 49 49 51 52 53 53 52 54 52 51 50 50 50 50 49 46 45 45 45 45 45 45 45 45 45 45 45 45 46 46 45 45 45 45 45 45 45 45 44 44 44 44 44 44 46 46 46 46 46 47 47 47 48 48 48 49 51 52 52 52 52 52 51 51 51 51 51 54 57 58 62 63 65 65 65 65 65 64 64 64 64 63 62 59 59 58 59 59 57 57 56 56 56 57 57 57 57 57 57 58 58 58 58 58 57 57 57 57 57 57 57 57 57 57 57 58 59 60 62 64 67 68 69 68 67 67 64 59 59 58 58 58 57 57 57 56 56 56 56 56 56 55 55 55 55 55 56 56 56 56 56 57 57 58 60 60 59 59 59 59 59 62 63 64 65 67 69 69 69 70 71 71 71 71 70 70 71 72 72 72 73 73 74 74 74 73 72 71 69 70 72 74 76 75 71 66 63 60 58 58 60 62 62 63 64 64 65 65 67 70 72 74 74 75 76 77 80 80 80 80 80 79 78 78 77 77 77 81 86 90 92 93 94 94 94 94 93 89 88 89 91 92 93 95 97 99 101 103 106 108 111 114 116 119 120 122 123 124 124 124 126 130 131 134 135 135 136 135 131 128 127 126 124 121 119 117 114 112 109 106 103 100 97 97 100 101 101 99 96 96 97 96 93 89 86 82 80 77 76 76 74 73 72 70 70 71 72 72 73 73 74 77 79 80 79 76 74 70 67 66 65 64 64 64 64 64 64 64 64 65 65 67 71 73 72 72 73 74 73 73 74 75 75 74 73 74 74 75 76 80 84 84 85 85 85 85 85 86 85 85 84 84 84 84 84 84 82 82 81 81 81 80 80 79 79 79 78 78 79 79 79 78 78 78 76 76 75 72 71 67 65 68 71 73 74 76 77 78 78 79 79 80 79 79 80 79 79 79 79 79 77 76 75 73 72 72 72 72 71 71 71 71 71 73 73 73 74 74 76 77 77 77 76 76 75 75 76 77 77 79 79 78 78 78 77 77 79 80 80 79 78 77 76 76 75 74 73 72 71 71 69 68 67 66 65 66 66 64 63 63 63 64 64 64 64 64 64 64 63 62 59 58 56 53 51 53 56 57 56 55 53 51 49 49 49 49 49 49 49 50 53 55 54 51 51 53 56 58 60 59 60 60 60 60 60 61 62 62 63 64 65 65 66 67 67 67 66 66 65 63 62 62 62 63 63 63 63 62 60 58 58 58 58 58 58 58 58 58 58 58 58 58 58 58 60 60 63 65 67 68 67 67 67 66 65 65 65 64 64 64 64 63 64 64 64 66 67 67 65 65 66 69 69 70 71 71 71 71 70 70 70 70 70 70 70 70 70 70 70 71 71 71 73 77 79 80 79 78 77 75 73 72 71 71 72 75 77 77 77 77 77 76 75 73 72 71 72 74 75 75 75 75 75 75 75 75 75 75 74 74 75 76 76 76 75 75 75 75 75 74 74 75 75 75 74 74 74 74 74 74 74 74 74 74 74 74 74 75 75 74 72 71 71 71 70 69 69 69 69 69 69 69 69 69 69 69 69 69 69 69 67 66 65 62 62 62 62 62 62 62 62 62 62 62 62 62 62 62 62 62 62 62 64 65 67 69 68 66 65 65 65 65 64 64 64 64 64 64 64 63 63 63 63 63 63 62 62 62 63 66 67 67 67 66 65 65 65 65 64 64 64 64 64 63 63 62 61 60 57 55 54 52 50 48
63 58 53 50 47 45 44 44 44 45 45 44 44 42 42 42 42 42 42 42 42 42 42 42 42 42 42 42 42 42 42 42 42 42 42 42 42 42 42 42 42 42 42 43 44 45 47 50 53 55 56 55 55 56 58 56 55 55 57 57 54 50 49 51 55 58 59 56 56 56 56 55 54 53 53 54 54 54 54 57 57 55 53 53 53 53 53 56 56 55 55 55 56 57 59 59 58 59 59 60 60 61 64 65 66 64 60 58 58 59 59 60 62 64 64 63 65 67 68 71 73 74 76 78 80 82 83 83 81 81 84 84 83 82 83 85 86 86 85 80 73 67 61 59 56 57 59 61 61 60 60 61 63 64 64 65 65 65 65 65 62 62 62 63 64 64 65 66 64 59 56 51 51 49 49 49 48 48 48 48 48 49 49 50 51 53 55 55 55 54 51 51 50 50 48 48 48 45 45 45 45 45 45 45 45 45 45 45 45 45 46 46 45 45 45 45 45 45 45 45 44 44 44 45 45 45 46 46 46 46 46 47 47 47 48 48 48 49 51 52 53 53 53 53 51 51 51 51 53 55 57 58 61 63 64 65 65 66 66 66 65 64 62 62 61 59 58 58 59 58 57 57 56 56 56 57 57 57 57 57 58 58 58 58 57 57 57 57 57 57 57 57 57 57 57 57 57 57 57 57 59 62 65 66 66 64 65 65 62 59 58 58 57 57 57 57 57 56 56 56 56 56 56 55 55 55 55 55 56 56 56 57 57 58 59 61 61 60 59 59 59 60 60 61 62 62 65 67 69 68 68 70 71 71 72 71 70 70 70 72 72 72 73 73 74 74 74 71 70 69 70 72 74 74 74 72 70 65 62 59 58 58 60 62 62 63 64 64 65 65 65 68 72 74 75 76 77 77 80 81 81 81 80 79 78 78 77 77 77 81 86 90 92 93 95 95 96 95 94 91 89 89 91 92 94 96 99 100 101 104 107 109 112 116 119 121 122 125 127 128 126 126 127 129 131 134 136 138 138 137 134 131 129 127 123 120 116 114 112 109 107 103 100 98 96 95 96 97 97 96 94 94 94 94 93 89 86 82 79 77 74 74 73 72 72 70 70 70 72 72 73 73 73 74 75 75 74 71 69 67 66 65 65 65 65 65 64 64 64 64 64 65 65 68 73 73 72 73 76 75 75 75 77 80 79 75 74 74 74 75 77 80 83 84 84 85 85 85 85 86 85 84 84 84 84 84 84 84 83 83 81 81 81 80 80 79 79 79 78 78 78 78 78 78 77 77 76 75 74 72 71 68 67 68 72 73 75 76 77 78 78 79 80 80 81 81 81 81 81 80 80 79 78 77 76 75 74 73 73 73 72 72 71 71 71 72 73 73 74 75 76 76 76 75 75 74 74 74 75 77 77 78 78 79 78 78 78 78 79 80 80 79 78 78 78 78 77 75 75 72 71 70 68 68 68 67 67 66 66 66 65 65 64 64 64 65 65 65 65 65 63 62 61 60 59 55 51 50 52 52 52 50 50 49 49 49 49 49 49 49 49 51 53 55 55 52 52 53 55 56 56 57 59 59 60 60 60 60 60 60 61 62 63 64 65 67 67 67 66 66 64 63 62 62 62 63 63 64 63 63 61 59 58 58 58 58 59 59 58 58 58 58 58 58 58 58 60 60 63 66 68 68 68 68 68 67 66 65 65 65 65 65 65 65 65 65 65 66 68 67 65 65 66 69 69 70 70 70 70 70 70 70 70 70 70 70 70 70 70 70 70 70 70 71 72 75 78 78 78 78 78 75 73 72 71 71 72 75 77 77 77 77 77 77 75 73 71 71 72 74 76 76 77 77 76 76 76 76 75 75 75 75 75 76 76 75 75 76 77 77 77 76 76 76 76 75 74 74 74 74 74 74 74 73 73 73 73 73 74 74 74 73 72 72 71 71 70 69 69 69 69 69 69 69 69 69 69 69 69 69 69 69 67 66 65 63 62 62 62 62 62 62 62 62 62 62 62 62 62 62 62 62 62 62 63 64 66 70 71 67 65 65 65 65 64 64 64 63 63 63 63 63 63 63 63 63 63 62 62 62 63 63 64 66 68 66 65 65 65 65 64 64 64 64 64 63 63 63 61 60 58 56 54 53 52 51
62 57 54 52 51 51 49 48 46 45 45 44 44 42 42 42 42 42 42 42 42 42 42 42 42 42 42 42 42 42 42 42 42 42 42 42 42 42 42 42 42 42 42 42 42 45 46 48 51 53 54 54 54 56 57 55 54 54 57 58 55 50 50 51 54 56 56 56 56 57 57 56 55 54 54 55 54 54 56 57 57 56 53 53 53 53 53 54 54 54 55 55 57 58 60 59 59 59 60 61 61 62 63 65 66 65 60 58 59 61 63 62 62 63 63 63 65 65 67 72 75 78 80 82 84 85 83 82 82 84 87 84 82 81 82 84 86 86 83 80 73 67 61 59 56 57 59 60 60 61 60 60 61 62 63 64 65 65 64 64 63 63 63 65 65 63 63 63 61 59 56 52 51 49 49 49 48 48 48 48 48 49 49 50 52 55 57 56 55 52 50 50 49 49 48 47 46 45 45 45 45 45 45 45 45 45 45 45 45 45 46 46 45 45 45 45 45 45 45 45 45 45 45 45 45 45 45 45 46 46 46 47 47 47 48 48 48 49 51 53 54 54 53 53 52 51 51 52 54 55 57 58 61 62 64 65 65 66 66 67 66 64 62 61 61 59 58 57 57 57 57 57 56 56 56 57 57 57 57 57 58 58 58 57 57 57 57 57 57 56 56 56 56 56 56 56 56 56 56 56 56 58 61 63 63 62 63 62 60 58 58 58 57 57 57 56 56 56 56 56 56 56 56 56 56 55 55 55 56 56 56 57 57 60 63 63 62 61 60 60 60 60 61 61 62 63 66 67 68 67 68 70 70 71 73 72 70 70 70 72 72 73 73 73 74 74 74 71 70 70 72 74 75 76 75 72 69 65 61 59 58 59 62 63 63 63 64 64 65 65 65 67 69 73 75 77 77 77 81 80 80 82 80 80 78 78 77 77 77 81 85 90 92 94 96 96 97 96 94 92 90 90 91 92 94 97 99 102 103 104 107 109 113 117 121 123 126 130 132 131 128 128 129 128 130 134 138 138 138 136 134 131 128 127 122 118 114 112 110 107 106 103 100 97 95 94 94 94 94 94 93 93 93 93 91 88 85 82 79 77 74 74 73 72 71 70 69 70 72 72 73 73 73 73 72 71 69 67 66 66 65 65 65 65 65 65 65 65 65 65 65 65 65 70 74 74 77 78 80 80 79 80 83 83 81 77 76 75 75 76 77 80 83 83 84 84 84 85 85 86 84 84 83 83 83 83 83 83 83 83 81 81 81 80 80 79 79 79 78 78 78 78 78 77 77 76 75 74 73 71 70 68 68 68 71 73 75 76 77 78 78 79 81 81 81 81 81 81 81 81 81 80 79 78 77 76 75 74 74 73 72 72 72 72 72 72 72 73 75 75 75 75 75 75 74 74 74 74 75 77 77 78 78 79 79 79 78 78 79 80 80 79 79 79 78 78 77 76 75 73 72 70 69 68 68 67 67 67 66 66 66 66 64 64 64 65 65 65 65 65 64 63 63 62 60 57 53 50 50 50 51 49 49 49 49 49 49 49 49 49 49 50 52 55 56 54 52 53 53 55 55 56 58 59 59 59 59 59 59 59 60 61 63 64 65 67 68 67 66 66 64 63 62 62 62 63 63 64 64 64 62 61 59 58 58 58 58 58 58 58 58 58 58 58 58 58 60 60 61 65 68 69 69 69 68 67 66 66 66 65 65 66 66 66 65 65 65 66 68 68 65 65 65 68 68 69 69 69 69 69 69 69 69 69 69 69 69 69 69 69 69 69 69 70 70 72 75 77 78 77 77 75 73 72 71 71 72 75 76 76 76 76 76 76 74 72 71 71 71 74 76 77 78 78 77 77 77 76 76 76 76 75 75 76 76 76 75 76 78 78 77 77 77 77 77 75 74 74 74 74 73 73 73 73 72 72 72 73 73 73 73 72 72 71 71 71 69 69 69 69 69 69 69 69 69 69 69 69 69 68 69 69 68 66 65 64 62 62 62 62 62 62 62 62 62 62 62 62 62 62 62 62 62 62 62 62 64 67 69 66 65 64 64 64 64 64 63 63 63 63 63 63 63 63 62 62 62 61 61 62 62 62 64 66 68 66 65 65 65 65 64 64 64 64 64 63 63 63 62 61 59 57 56 54 54 54
62 58 56 56 57 57 55 52 50 47 45 44 44 43 42 42 42 42 42 42 42 42 42 42 42 42 42 42 42 42 42 42 42 42 42 42 42 42 42 42 42 42 42 42 42 45 47 49 51 51 53 54 54 55 54 54 54 54 56 58 55 50 50 51 53 54 55 55 56 58 58 57 56 56 56 56 55 55 56 58 58 56 54 54 53 54 54 54 54 54 55 56 57 58 60 60 60 60 61 61 62 62 63 64 66 65 61 60 62 63 63 60 60 62 63 64 65 65 68 74 78 81 84 86 86 86 83 81 82 87 88 83 81 81 80 81 84 84 81 78 73 66 61 58 55 57 58 59 60 61 61 60 60 60 61 63 64 64 64 64 65 65 65 64 64 62 61 60 59 58 55 52 51 50 49 49 48 48 48 48 48 49 49 50 53 55 56 56 55 51 50 50 49 49 48 47 45 45 45 45 45 45 45 45 45 45 45 45 45 45 46 46 46 46 46 46 46 45 45 45 45 45 45 45 45 45 45 45 46 47 47 47 47 48 48 48 49 49 51 54 54 55 54 54 52 52 52 54 54 56 56 57 60 62 64 65 65 66 66 67 66 64 62 61 61 60 58 57 57 57 57 57 57 57 57 57 57 57 58 58 58 58 58 57 57 57 57 57 56 56 56 56 56 56 56 56 56 56 56 56 56 56 56 57 57 58 59 59 57 58 57 57 57 57 57 56 56 56 56 56 56 56 56 56 56 56 56 56 56 56 56 57 57 59 63 64 63 63 63 63 62 62 62 62 62 63 66 66 66 67 68 70 70 72 74 74 72 72 71 72 74 74 73 73 74 74 74 71 71 71 73 75 77 78 76 71 67 63 60 59 59 61 62 63 63 64 64 64 65 65 66 67 67 71 75 77 78 78 81 80 80 82 80 80 79 78 77 77 77 81 85 90 92 95 97 98 98 97 95 93 91 91 92 92 95 98 99 102 103 105 107 109 113 118 122 126 131 132 132 130 127 126 126 126 128 133 137 136 133 131 131 129 127 125 121 117 113 112 109 107 105 103 99 96 94 93 93 93 93 92 91 91 91 91 89 86 83 80 78 76 74 74 75 74 71 70 68 69 71 72 72 72 72 72 71 68 67 67 66 66 65 65 65 65 65 66 65 65 65 65 66 66 67 71 75 79 81 82 83 84 84 84 84 84 82 80 79 77 76 76 77 80 83 83 84 83 83 84 85 85 84 84 83 83 83 83 83 83 83 83 82 81 81 81 81 80 79 79 78 78 78 78 78 77 76 76 74 73 72 70 70 69 69 70 71 73 74 75 76 77 78 79 80 80 81 81 81 82 82 82 82 81 81 80 79 78 77 76 75 74 73 73 72 72 72 72 72 73 74 74 74 74 74 74 74 74 74 74 76 77 77 78 78 79 80 80 79 79 79 80 80 80 79 79 78 78 78 77 76 74 73 72 71 70 69 68 68 67 67 67 65 65 64 64 64 65 65 65 66 66 64 64 64 63 62 58 53 51 52 53 53 49 49 49 49 49 49 49 49 49 49 50 52 56 58 56 53 53 53 54 54 55 56 57 57 58 58 59 59 59 59 60 62 63 65 68 68 66 65 65 63 63 62 62 62 63 63 64 64 64 64 62 61 59 58 58 58 58 58 58 58 58 58 58 58 59 60 61 62 64 67 68 69 69 68 68 67 66 66 66 66 66 66 66 66 65 65 65 67 67 66 65 65 67 68 69 69 69 69 69 69 69 69 69 69 69 69 69 69 69 68 68 68 69 70 70 72 75 76 76 75 74 73 72 71 71 72 74 76 76 75 74 74 74 73 72 71 71 71 74 76 77 79 79 79 78 78 78 77 77 76 76 76 76 76 77 77 77 78 78 78 78 78 77 77 76 74 74 74 74 73 73 73 72 72 72 72 72 72 72 72 71 71 71 70 70 69 69 69 69 69 69 69 69 69 69 69 69 69 68 69 69 68 66 65 63 62 62 62 62 62 62 62 62 62 62 62 62 62 62 62 62 62 62 62 62 62 64 66 65 65 64 64 64 63 63 63 63 63 63 63 63 62 62 62 62 61 60 60 61 61 61 63 65 67 66 65 65 65 65 64 64 64 64 64 63 63 63 62 62 60 59 57 56 55 54
65 62 60 58 58 59 56 52 50 48 47 44 44 44 43 42 42 42 42 42 42 42 42 42 42 42 42 42 42 42 42 42 42 42 42 42 42 42 42 42 42 42 42 43 43 45 47 49 50 51 52 54 54 54 54 53 53 53 55 57 55 51 51 52 53 53 55 55 56 58 59 57 57 56 56 56 56 57 57 58 58 57 55 54 54 54 54 54 54 55 56 56 57 58 60 60 60 60 60 61 62 62 63 64 65 64 63 62 62 59 59 59 60 61 64 66 67 66 71 76 81 83 85 86 86 85 81 78 81 85 86 83 81 81 80 80 81 81 80 77 72 65 61 57 54 55 55 57 60 62 62 61 60 60 60 61 62 63 63 64 66 66 66 64 64 61 59 58 57 56 53 50 50 50 49 49 49 48 48 48 48 49 49 50 53 54 55 54 54 51 50 49 48 48 48 46 45 44 44 45 45 45 45 45 45 45 45 45 45 45 47 47 47 46 46 45 45 45 44 44 44 44 44 44 44 44 45 45 46 47 47 48 48 48 48 48 49 50 52 54 55 56 56 54 53 53 53 54 55 56 56 57 60 61 64 65 65 67 67 67 67 65 63 62 62 60 58 57 57 57 57 57 57 57 57 57 58 58 58 58 58 57 57 57 57 57 56 56 56 56 56 56 56 56 56 56 56 56 56 56 56 56 56 56 56 56 57 57 57 58 57 57 57 57 57 56 56 56 56 56 56 56 56 56 56 56 56 56 56 56 56 57 57 58 62 64 65 64 64 64 63 63 63 63 63 64 66 66 66 67 68 70 71 72 74 74 75 73 73 74 76 75 74 74 74 75 74 72 71 71 73 76 78 78 74 68 65 62 61 60 61 61 62 63 63 64 64 64 65 65 66 66 67 68 72 76 79 81 82 80 80 81 80 81 80 78 77 77 77 81 87 90 93 96 98 100 99 98 96 93 92 92 92 92 95 98 99 102 103 105 108 110 114 118 123 128 131 130 128 126 125 125 125 125 126 129 132 131 130 129 129 128 126 123 120 117 113 112 108 105 104 102 98 95 93 92 92 92 92 91 90 90 90 89 86 83 80 78 76 74 73 75 78 79 75 71 68 68 70 71 72 72 72 71 69 67 67 67 66 66 66 66 66 66 66 66 66 66 66 67 67 67 70 74 78 82 84 84 84 85 85 85 85 84 83 82 81 79 77 76 78 80 83 83 83 83 83 83 84 85 84 84 84 84 83 83 83 83 83 83 82 82 82 81 81 80 80 79 78 78 78 77 77 77 76 75 74 73 72 71 71 72 73 74 72 72 73 75 76 77 77 78 79 79 81 81 81 83 83 83 84 83 82 82 81 80 79 78 76 75 73 73 73 73 72 72 72 72 74 74 74 74 74 74 74 74 74 74 76 77 78 79 79 79 80 80 80 80 80 80 80 80 79 79 79 79 78 77 77 76 74 74 71 70 70 69 69 67 67 66 65 65 64 64 64 64 64 65 66 66 64 64 63 63 63 58 53 52 54 56 55 49 49 49 49 49 49 49 49 49 49 50 53 57 58 57 53 52 52 53 53 53 54 56 56 57 58 58 58 58 58 58 60 62 65 68 67 66 65 64 63 62 62 62 62 63 63 64 65 65 65 64 63 61 60 58 58 58 58 58 58 58 58 58 59 60 62 64 64 64 64 67 69 69 69 69 68 67 67 67 67 67 67 67 66 66 66 65 65 67 66 66 65 65 67 68 68 68 68 68 68 68 68 68 68 69 68 68 68 68 68 68 68 68 69 69 70 72 74 75 74 73 73 72 71 71 72 73 75 75 75 73 73 72 72 71 70 71 72 75 76 77 79 79 79 79 79 79 78 78 77 77 77 77 77 77 77 77 78 79 78 78 78 77 77 75 74 74 73 73 73 72 72 72 72 72 71 71 71 72 72 71 71 71 70 70 69 69 69 69 69 69 69 69 69 69 69 69 69 68 69 69 68 66 64 63 62 62 62 62 62 62 62 62 62 62 62 62 62 62 62 62 62 62 62 62 62 63 65 65 64 63 63 63 63 63 63 62 62 62 62 62 62 62 61 61 60 59 59 59 60 61 62 64 66 65 65 65 65 64 64 64 64 64 64 63 63 63 62 62 60 59 59 57 56 55
68 64 60 57 55 55 53 52 51 49 48 46 45 44 44 43 42 42 42 42 42 42 42 42 42 42 42 42 42 42 42 42 42 42 42 42 42 42 42 42 42 42 42 43 43 44 46 48 48 50 51 53 53 53 53 53 53 53 54 56 56 52 51 53 54 54 55 55 56 59 60 58 57 57 57 57 57 58 58 59 59 58 56 55 54 54 54 55 55 56 57 57 57 58 59 60 60 60 60 60 61 62 63 63 63 63 63 59 58 58 59 59 60 63 68 70 69 68 74 80 85 86 84 84 84 84 80 78 78 81 81 83 83 82 80 78 78 78 78 75 69 63 59 55 52 52 54 57 61 63 63 62 60 59 59 59 60 61 61 63 65 65 65 64 64 62 58 55 53 52 50 50 50 50 50 51 50 48 48 48 48 48 48 50 51 52 52 53 53 51 50 49 47 46 45 45 45 44 44 45 45 45 45 45 45 45 45 45 46 46 47 48 48 46 46 45 45 45 44 44 43 43 43 44 44 44 45 45 46 47 48 49 49 50 50 50 50 51 53 55 56 57 56 54 54 54 54 55 55 56 56 57 60 62 64 65 66 67 67 67 68 66 64 63 62 60 58 57 56 56 57 57 57 57 57 58 58 58 58 58 57 57 57 57 57 57 56 56 56 56 56 56 56 56 56 56 56 56 56 55 55 55 56 56 56 56 56 57 57 58 57 57 57 57 57 56 56 56 56 56 56 56 56 56 56 56 56 56 56 56 56 57 57 58 60 64 65 65 64 64 64 64 65 65 65 67 66 66 66 67 68 70 71 71 73 74 74 74 74 75 77 78 76 76 76 76 74 73 72 72 74 76 78 77 73 68 65 63 62 61 60 60 61 63 63 64 64 64 65 65 66 66 66 68 69 73 78 81 83 79 79 81 80 81 81 79 77 77 78 82 88 92 94 97 100 102 102 100 98 94 93 92 92 92 94 97 99 101 102 105 108 113 118 120 123 127 127 125 124 124 125 126 125 125 124 125 126 127 126 127 129 129 126 123 120 117 113 112 107 103 102 101 97 94 91 90 90 90 90 89 89 89 88 86 82 79 77 76 75 73 73 77 82 82 78 71 67 66 69 71 71 71 71 70 68 67 67 67 66 66 66 66 66 67 67 68 68 68 69 69 70 70 73 77 82 83 84 85 85 86 86 85 85 84 83 83 82 79 77 77 78 79 82 83 83 82 82 82 82 83 83 83 85 85 84 83 83 83 83 83 82 82 82 81 81 81 80 80 78 78 78 77 77 75 75 75 73 73 73 73 73 74 74 74 72 72 73 75 75 77 77 78 79 79 80 81 81 83 83 84 85 85 84 83 83 82 80 79 78 75 74 74 74 74 74 74 73 73 73 73 74 74 74 74 74 74 75 75 77 78 79 80 80 80 80 80 81 81 81 81 81 80 79 79 79 79 78 77 77 76 75 74 72 72 71 70 69 67 67 66 64 64 63 63 63 63 63 64 66 66 64 64 63 63 63 58 54 53 55 58 55 49 49 49 49 49 49 49 49 49 50 51 55 57 57 56 53 52 52 52 52 52 54 54 55 56 56 57 57 58 58 58 59 61 63 65 65 64 64 63 62 62 62 63 63 64 64 64 66 66 66 65 64 63 62 59 58 58 58 58 58 58 58 58 59 61 65 67 66 65 65 67 69 69 69 69 69 68 68 67 67 67 67 67 67 67 67 66 66 66 66 66 65 65 66 67 67 67 67 67 68 68 68 68 68 69 68 68 67 67 67 67 67 67 68 68 69 70 71 73 73 72 72 72 71 71 72 73 73 74 74 73 71 71 71 70 70 71 72 75 76 77 79 80 80 80 80 80 79 79 78 78 78 78 78 78 78 78 79 79 79 79 79 77 77 75 74 74 73 73 73 72 72 72 72 72 71 71 71 71 71 72 72 72 70 70 70 69 69 69 69 69 69 69 70 69 69 70 70 69 69 69 68 66 64 63 62 62 62 62 62 62 62 62 62 62 62 62 62 62 62 62 62 62 62 62 62 62 63 63 63 63 63 63 63 63 62 62 62 62 62 62 61 61 60 60 60 59 59 59 60 60 62 63 64 64 64 64 64 64 64 64 64 64 64 63 63 63 62 62 61 60 59 57 57 56
67 63 59 56 54 53 53 54 53 52 50 47 47 45 45 44 42 42 42 42 42 42 42 42 42 42 42 42 42 42 42 42 42 42 42 42 42 42 42 42 42 42 42 42 42 43 44 45 46 48 51 51 52 53 53 53 53 53 54 56 55 52 52 54 56 55 57 56 56 59 60 58 58 58 57 57 57 58 58 59 59 58 57 56 54 54 54 56 56 59 61 58 57 58 59 61 61 60 60 60 61 63 63 62 62 62 61 60 59 59 60 61 62 65 71 72 71 70 76 82 85 85 84 84 83 82 79 78 78 79 79 82 83 82 80 78 77 76 75 70 64 60 58 54 52 52 54 59 62 63 63 63 61 60 59 59 59 60 60 61 63 64 64 64 64 62 58 55 50 50 50 50 50 50 50 51 51 49 48 48 48 48 48 48 49 50 50 52 52 51 50 48 46 46 45 45 45 44 44 46 46 45 45 45 45 45 45 45 46 46 49 49 48 46 45 45 45 45 44 44 43 43 43 44 44 44 45 45 46 48 48 50 50 52 52 52 53 53 54 56 56 57 56 55 54 54 54 55 55 56 56 57 60 62 64 65 66 67 67 67 68 68 65 64 62 59 58 57 56 56 56 56 57 57 57 58 58 58 57 57 57 57 57 57 57 57 56 56 56 56 56 56 56 56 56 56 56 56 56 55 55 55 56 56 56 56 56 57 57 58 58 58 57 57 57 56 56 57 57 57 56 56 56 56 56 56 56 56 56 56 56 57 57 58 60 63 64 64 64 64 64 64 65 67 68 69 69 67 66 67 68 70 71 71 71 71 73 74 74 75 77 79 76 76 76 75 73 73 73 73 73 73 74 74 73 68 66 63 62 62 60 60 61 63 63 64 64 64 65 65 65 66 66 68 71 75 78 81 83 79 79 80 80 81 81 80 78 78 80 83 88 92 95 99 102 103 104 103 100 96 93 93 92 92 93 96 97 99 100 103 106 113 120 119 119 120 120 120 122 123 125 128 128 125 124 124 124 124 126 127 129 130 128 124 120 118 113 111 107 103 102 100 96 94 90 88 87 88 88 87 85 85 84 81 78 75 74 73 73 73 73 79 85 85 79 71 67 66 67 70 71 71 70 68 67 67 67 67 66 66 66 67 67 68 68 69 70 72 74 75 76 75 75 79 82 82 82 82 83 85 85 84 83 83 83 82 81 78 78 78 78 78 81 82 82 82 82 82 82 82 83 83 85 86 85 83 83 83 83 83 82 82 82 81 81 80 80 80 78 78 78 77 77 75 75 75 74 74 74 75 75 75 75 74 72 72 74 75 75 77 77 78 79 79 80 81 81 82 82 84 86 86 86 85 84 82 81 79 78 77 75 75 76 76 76 75 74 74 73 73 74 74 74 74 74 74 75 75 79 80 80 79 79 79 80 80 81 81 81 81 81 80 80 80 79 79 79 77 77 76 75 74 73 73 72 70 69 68 67 66 63 63 63 62 62 62 63 64 65 65 64 64 63 62 62 60 56 54 56 58 54 49 49 49 49 49 49 49 50 50 51 52 55 57 57 56 53 52 52 52 52 52 54 54 55 56 56 57 57 57 57 57 58 58 60 62 63 63 62 62 62 62 62 63 63 64 64 64 66 66 66 66 65 64 64 62 60 58 58 58 58 58 58 58 59 61 65 67 67 65 65 68 69 69 69 69 69 68 68 67 67 67 67 67 68 68 68 66 66 66 66 66 65 65 65 65 65 66 67 67 68 68 68 68 68 68 68 68 67 67 67 66 66 67 67 68 69 69 70 71 72 72 72 72 70 70 71 72 72 73 73 72 71 71 70 68 69 72 73 75 76 77 79 79 80 81 81 80 80 80 79 79 78 78 78 79 79 79 79 79 79 79 79 77 77 76 74 74 73 73 73 72 72 72 72 72 71 70 70 71 71 72 72 72 71 71 70 69 69 69 69 69 69 69 69 70 70 71 73 71 69 69 69 67 65 62 62 62 62 62 62 62 62 62 62 62 62 62 62 62 62 62 62 62 62 62 62 62 62 62 62 62 62 62 62 62 62 62 62 62 62 61 61 61 60 60 60 59 59 59 60 60 62 62 63 64 64 64 64 64 64 64 64 63 63 63 63 63 62 62 61 60 59 57 57 56
67 62 59 55 54 54 54 54 53 52 51 48 47 46 46 44 43 42 42 42 42 42 42 42 42 42 42 42 42 42 42 42 42 42 42 42 42 42 42 42 42 42 42 42 42 42 43 44 45 47 50 51 51 52 52 53 53 53 54 56 54 53 53 55 56 56 57 56 56 59 60 59 58 58 58 58 58 58 59 59 59 59 57 56 54 54 55 56 56 59 61 59 58 59 59 61 62 61 61 61 62 63 62 61 62 63 62 62 60 60 61 63 64 67 71 72 71 70 77 82 85 85 83 83 83 81 79 77 77 78 78 81 82 81 80 78 76 75 73 68 62 59 57 53 52 52 55 60 62 63 63 62 61 60 59 59 59 59 60 61 62 63 64 64 63 61 58 55 50 50 50 50 50 50 50 52 52 49 48 47 47 47 47 48 48 49 49 51 51 51 49 47 46 45 45 45 45 45 45 47 46 45 45 45 45 45 45 45 46 46 49 49 47 45 45 45 45 45 44 44 43 43 43 44 44 44 45 45 46 48 49 50 51 52 53 53 54 54 55 56 57 58 57 55 55 55 55 55 55 57 57 57 61 62 64 65 65 66 66 67 69 68 66 64 62 59 58 57 56 56 56 56 57 57 57 58 58 58 57 57 57 57 57 57 56 56 56 56 56 56 56 56 56 56 56 56 56 56 56 55 55 55 56 56 56 56 56 57 57 58 58 58 57 57 57 57 57 57 57 57 57 57 56 56 56 56 56 56 56 56 56 57 57 57 60 63 63 64 64 64 64 64 65 68 69 69 70 68 67 68 68 71 71 71 71 72 73 74 74 75 76 78 76 75 75 74 72 72 72 72 73 73 74 74 73 68 66 63 62 62 60 60 61 63 63 64 64 64 65 65 65 66 66 69 72 77 79 81 82 79 79 80 79 81 81 80 78 78 80 84 88 93 96 100 103 104 105 104 102 97 94 93 92 92 93 95 97 98 99 103 105 112 118 118 117 117 117 119 121 122 124 127 127 124 124 124 124 124 126 127 130 131 129 124 120 117 113 110 106 102 101 99 95 93 90 87 86 87 87 86 84 83 82 79 77 74 74 73 73 73 74 80 86 86 79 72 67 66 67 68 70 70 69 67 67 67 67 67 66 66 67 67 68 68 69 70 71 74 76 78 78 75 75 80 82 82 81 81 82 83 83 83 82 82 82 81 80 78 78 78 78 78 80 81 81 82 82 81 81 81 82 83 85 86 86 84 84 83 82 82 82 82 82 81 81 80 80 80 78 78 78 77 77 75 75 75 75 75 75 76 76 75 75 74 73 73 74 75 75 77 77 77 79 79 80 80 80 82 82 84 85 86 86 86 85 83 82 80 79 78 76 76 77 77 77 77 75 74 73 73 74 74 74 74 74 74 75 75 79 80 80 79 79 79 80 80 81 81 81 81 81 80 80 80 80 80 79 78 78 77 76 75 74 74 73 71 70 68 68 66 63 63 62 62 62 62 62 63 64 65 64 64 63 61 61 60 56 55 57 58 53 49 49 49 49 49 49 49 50 51 52 53 56 58 57 56 52 52 52 52 52 52 54 54 55 56 56 56 56 57 57 57 58 58 59 61 62 62 62 61 61 61 62 62 62 63 63 64 65 66 67 66 66 65 64 63 60 58 58 58 58 58 58 58 59 61 65 67 66 66 66 68 68 68 69 69 69 68 68 67 67 67 67 67 68 68 68 67 66 66 66 66 65 64 64 64 64 66 67 67 67 67 67 68 68 68 67 67 66 66 66 66 66 66 67 67 68 68 69 70 71 71 71 71 70 69 70 71 72 72 72 72 70 70 69 68 69 72 73 75 76 77 79 79 80 81 81 81 81 81 80 79 79 79 79 79 79 80 80 80 80 79 79 77 77 76 74 74 73 73 73 72 72 71 71 71 70 70 69 70 71 72 72 72 71 71 71 70 69 69 69 69 69 69 69 70 70 71 74 73 69 69 69 68 65 63 62 62 62 62 62 62 62 62 62 62 62 62 62 62 62 62 62 62 62 62 62 62 62 62 62 62 62 61 61 61 61 61 61 62 62 61 61 61 60 60 60 59 59 59 60 60 62 62 63 63 63 64 64 64 64 64 64 63 63 63 63 63 62 62 61 60 60 58 57 55
66 61 59 56 56 56 53 53 52 52 50 48 48 50 48 46 44 42 42 42 42 42 42 42 42 42 42 42 42 42 42 42 42 42 42 42 42 42 42 42 42 42 42 42 42 42 42 42 44 46 48 50 51 52 52 53 53 53 53 53 53 54 54 55 56 56 57 56 57 60 60 59 59 58 58 58 58 59 60 60 60 59 57 56 55 55 56 56 56 58 59 59 58 60 60 61 63 63 63 62 63 62 62 61 63 65 65 65 62 62 64 68 70 71 70 71 72 71 77 82 84 83 81 81 81 80 77 76 77 77 77 79 80 80 79 77 74 70 66 61 60 59 56 53 52 53 55 59 61 62 61 60 60 60 59 59 59 59 59 59 61 63 64 63 63 61 58 54 51 51 50 50 50 50 51 53 52 49 48 47 47 47 47 47 47 47 48 49 50 50 48 46 45 45 45 46 46 47 48 48 46 45 45 45 45 45 45 46 46 47 48 48 47 45 45 45 45 45 44 44 44 44 44 44 44 44 45 45 46 48 49 51 52 53 54 55 55 56 57 58 59 59 58 57 56 56 56 56 56 57 57 58 61 62 64 65 65 66 66 67 69 68 67 64 62 58 57 57 56 56 56 56 57 58 58 57 57 57 57 57 57 57 57 57 56 56 56 56 56 56 56 56 56 56 56 56 56 56 56 55 55 55 56 56 56 56 56 57 57 58 57 57 57 57 57 57 57 57 57 57 57 57 56 56 56 56 56 56 56 56 56 57 57 57 60 61 63 63 65 65 65 65 66 68 69 70 70 70 69 68 69 71 71 72 73 74 74 74 74 74 75 75 73 72 72 71 70 71 71 72 73 73 74 74 72 68 66 64 63 62 60 60 61 63 63 64 64 64 65 65 65 66 67 70 74 77 80 81 82 78 78 80 78 81 80 79 78 78 80 84 88 92 97 101 105 107 107 106 104 101 96 93 92 92 92 94 95 95 96 99 102 105 111 112 110 110 113 118 120 122 123 125 125 124 124 124 124 125 126 128 130 131 128 124 120 116 112 108 104 101 99 96 93 91 89 86 83 83 84 84 82 79 77 76 75 74 74 73 73 73 75 80 86 85 78 72 67 67 67 67 67 66 66 67 67 67 67 67 67 67 68 68 69 70 71 72 73 75 77 79 79 75 76 81 82 81 80 80 80 79 79 80 80 80 80 80 80 79 78 77 77 78 79 80 81 82 82 80 80 81 82 82 84 85 85 83 83 83 82 82 82 82 82 81 81 80 80 80 78 78 78 77 77 76 75 75 75 75 75 76 76 75 75 75 74 74 74 75 75 76 76 77 79 79 80 80 80 81 82 83 84 85 86 86 86 84 83 82 80 79 79 79 80 80 79 78 78 76 74 74 74 74 74 74 74 74 75 75 78 80 80 79 79 79 81 81 81 81 81 81 81 81 80 80 80 80 79 78 78 77 76 76 75 75 76 74 71 69 68 66 63 63 62 62 62 62 62 63 64 64 64 64 63 61 60 58 56 56 58 58 53 49 49 49 49 49 49 49 50 53 55 56 57 59 58 55 53 52 52 52 52 53 54 54 55 56 56 56 56 56 57 57 57 57 58 59 60 61 61 61 61 61 61 62 62 62 62 63 64 66 67 67 67 66 65 64 61 58 58 58 58 58 58 58 59 61 64 66 66 67 67 68 68 68 69 69 69 68 68 67 67 67 67 67 68 69 69 67 66 66 66 66 65 64 64 64 64 65 66 66 67 67 67 67 67 67 66 66 66 66 66 66 66 66 66 67 67 67 68 69 70 70 71 71 69 69 69 70 71 71 71 71 70 69 68 68 69 72 74 76 77 78 79 79 80 81 81 81 81 81 80 80 80 80 80 80 80 80 80 80 80 79 79 78 78 76 75 74 73 73 73 72 72 71 71 71 70 69 69 69 71 72 72 72 71 71 71 70 69 69 69 69 69 69 69 70 70 71 74 75 71 70 70 70 70 67 63 62 62 62 62 62 62 62 62 62 62 62 62 62 62 62 62 62 62 62 62 62 62 62 62 61 61 60 60 60 60 60 60 61 61 61 61 61 60 60 60 59 59 59 59 59 61 62 62 62 62 63 63 64 64 64 64 63 63 63 63 63 62 62 61 60 60 59 57 55
65 62 59 59 60 58 54 52 51 50 50 49 50 51 50 48 46 43 42 42 42 42 42 42 42 42 42 42 42 42 42 42 42 42 42 43 43 44 44 44 44 44 43 42 42 42 42 42 43 45 47 49 50 51 51 53 53 53 53 53 53 54 54 55 55 56 57 57 57 60 60 59 59 59 59 59 59 60 61 62 61 59 58 57 55 55 57 57 56 56 57 58 60 61 61 62 64 64 65 66 64 62 63 64 67 69 69 68 66 66 68 70 72 71 69 70 73 73 78 82 85 83 80 79 79 77 75 74 74 75 75 76 78 78 77 73 69 64 60 59 59 58 56 53 52 53 54 58 60 60 59 59 59 59 59 59 59 59 59 59 60 62 63 63 62 60 57 52 51 51 51 51 51 51 53 53 51 50 48 47 47 46 46 46 46 47 47 48 48 48 46 45 45 45 45 46 47 50 52 48 45 45 45 45 45 45 45 46 46 47 47 46 46 45 45 45 45 44 44 44 44 44 44 45 45 45 45 45 46 48 49 52 53 54 55 56 57 58 59 60 60 60 59 59 58 57 57 57 57 57 58 58 61 62 64 65 65 66 66 66 68 68 67 64 62 59 57 56 56 56 56 57 57 57 57 57 57 57 57 57 57 57 57 56 56 56 56 56 56 56 56 56 56 56 56 56 56 56 56 55 55 55 56 56 56 56 56 57 57 57 57 57 57 57 57 57 57 57 57 57 56 56 56 56 56 56 56 56 57 57 57 57 57 58 61 62 63 63 65 65 65 66 67 68 69 70 71 71 71 69 70 71 72 72 74 74 75 74 74 72 72 73 72 71 70 70 70 71 71 72 73 73 74 74 72 68 66 64 64 63 62 61 62 63 63 63 64 64 65 65 65 66 67 71 74 77 79 81 81 78 78 79 78 80 78 77 78 79 80 83 87 91 96 101 106 109 109 109 108 104 98 95 93 92 92 92 93 94 94 96 98 100 105 107 107 106 109 114 120 122 123 125 125 126 127 126 126 127 128 129 128 128 126 121 116 111 108 105 102 98 96 94 91 89 87 84 82 79 80 81 80 77 75 74 74 74 74 73 73 74 76 80 85 83 77 71 68 67 67 67 66 66 66 67 67 67 67 67 67 67 68 69 71 71 72 73 74 74 75 78 78 75 78 82 81 80 80 80 80 79 79 80 80 80 81 81 80 80 79 77 77 77 79 80 82 82 81 80 80 80 81 82 82 83 83 83 83 82 82 82 82 82 82 81 81 80 79 79 78 78 78 77 77 76 76 76 76 76 76 76 76 75 75 75 74 74 74 75 75 76 76 77 78 78 79 80 80 80 81 82 83 84 85 85 85 85 85 84 82 81 80 80 80 80 79 78 78 76 74 74 74 74 74 74 74 75 75 76 78 79 79 79 79 79 80 80 81 81 82 81 81 81 81 81 80 80 79 78 78 77 77 76 75 75 76 75 73 69 68 66 64 63 63 62 62 62 62 62 63 63 63 63 63 61 60 57 56 56 59 59 54 49 49 49 49 49 49 49 50 56 60 61 61 61 58 55 54 53 52 52 53 54 55 56 56 56 56 56 56 56 56 56 57 57 58 59 59 59 60 60 60 60 61 61 61 61 62 62 63 65 67 67 67 66 66 65 63 60 58 58 58 58 58 58 59 61 64 64 65 67 67 68 68 68 68 68 68 68 68 67 67 67 67 67 68 68 68 66 66 66 66 66 65 64 63 63 63 65 66 66 66 66 66 66 66 66 65 65 65 65 66 66 66 66 65 65 66 66 67 67 67 69 70 70 69 69 68 69 69 69 70 70 69 68 68 68 69 72 74 76 78 78 80 80 80 82 82 81 81 81 81 81 80 81 81 81 81 80 80 80 80 79 79 78 78 77 75 75 73 73 73 72 72 71 71 71 69 69 69 69 70 72 72 72 72 72 71 70 68 68 68 68 68 68 68 69 70 71 73 75 73 70 70 72 76 72 65 62 62 62 62 63 63 63 62 62 62 62 62 62 62 62 62 62 62 62 62 62 62 62 62 61 60 59 60 60 60 60 60 61 61 61 61 61 60 60 60 59 59 59 59 59 60 61 61 61 61 62 63 63 64 64 63 63 63 63 63 63 62 62 61 60 60 59 58 56
65 65 64 64 62 57 54 51 50 50 50 50 51 53 52 50 46 44 42 42 42 42 42 42 42 42 42 42 42 42 42 42 42 42 42 44 45 47 48 47 46 45 44 42 42 42 42 42 43 44 46 47 48 50 51 53 54 54 54 54 54 54 54 55 55 55 56 56 57 59 59 59 59 59 60 60 61 61 62 62 62 60 58 56 54 55 59 62 60 57 57 58 60 62 62 64 65 66 68 69 69 68 69 69 71 72 73 72 69 67 69 70 70 69 69 70 73 73 77 82 85 83 79 77 75 73 72 72 72 72 72 73 75 75 74 69 64 60 59 58 58 57 56 54 53 53 53 56 59 59 59 59 59 59 59 59 59 59 59 59 59 60 61 62 61 58 54 52 51 52 52 53 52 53 54 54 52 51 50 48 47 46 46 46 46 46 46 46 46 45 45 45 45 45 45 46 47 51 48 44 44 45 48 45 45 45 45 45 46 46 46 45 45 45 45 45 45 44 44 44 44 44 44 45 45 45 45 45 46 48 50 52 54 55 56 58 60 61 61 62 62 62 61 60 59 59 58 57 57 58 58 59 61 62 64 65 65 66 66 66 68 68 66 64 62 59 57 56 56 56 58 58 57 57 57 57 57 57 57 57 57 57 57 56 56 56 56 56 56 56 56 56 56 56 56 56 56 56 56 55 55 55 56 56 56 56 56 57 57 57 57 57 57 57 57 57 57 57 57 57 56 56 56 56 56 56 56 57 57 57 58 58 59 62 64 64 64 64 65 65 65 66 67 69 70 71 72 72 72 72 72 72 72 72 74 74 75 75 74 71 71 71 73 73 70 70 70 72 72 72 74 74 74 74 71 68 67 65 64 64 63 63 63 63 63 63 64 64 64 64 65 65 67 71 74 76 78 79 79 78 78 79 78 78 77 76 77 78 80 82 86 90 94 99 105 109 112 112 111 106 101 97 94 92 92 92 92 93 94 94 96 97 100 104 104 103 106 113 120 123 125 127 128 130 130 130 128 127 128 129 127 124 120 116 111 107 105 102 98 95 93 92 90 88 86 83 80 78 77 78 78 76 74 74 74 74 74 74 74 75 77 79 83 81 76 71 69 68 67 67 67 67 67 67 67 67 67 68 68 68 69 71 72 72 72 73 75 75 75 77 77 75 80 82 80 80 80 80 80 81 82 83 82 82 82 82 81 80 79 77 77 78 80 82 84 82 81 80 80 80 81 81 82 82 82 82 82 82 81 81 82 82 82 81 81 80 79 79 78 78 78 77 77 77 77 77 77 77 77 76 76 75 75 75 75 75 75 75 75 76 76 77 78 78 79 80 80 80 80 81 81 83 83 84 85 86 86 84 82 81 80 80 80 78 77 77 77 75 74 74 74 74 74 75 75 75 76 76 78 79 79 78 78 78 80 80 82 82 82 82 82 81 81 81 80 80 80 79 79 78 77 76 74 74 74 74 72 69 68 67 66 65 65 63 62 62 62 62 62 62 63 63 63 61 60 58 56 57 60 60 56 50 49 49 49 49 49 49 52 58 64 63 62 60 57 56 54 53 53 53 54 56 58 58 58 58 58 56 56 56 56 56 57 57 58 58 58 59 59 59 60 60 60 61 61 61 61 62 62 64 66 67 67 67 67 66 64 62 60 59 59 59 59 59 60 61 64 64 65 66 67 68 68 68 68 68 68 68 68 68 68 67 67 67 67 67 67 66 66 66 65 65 64 63 63 62 62 64 66 66 66 66 65 65 65 64 64 64 65 65 66 66 66 65 65 65 65 65 66 67 67 68 68 69 69 69 68 68 68 68 68 69 68 67 67 67 69 72 74 76 78 78 80 80 80 82 82 82 82 82 81 81 81 81 81 81 81 81 81 81 80 80 80 78 78 77 75 75 73 73 73 72 72 71 70 70 69 69 69 69 70 72 72 72 72 72 71 69 68 68 68 68 68 68 68 68 69 71 72 74 74 73 71 72 76 73 66 63 63 63 65 65 65 65 63 62 62 62 62 62 62 62 62 62 62 62 62 62 62 61 61 60 59 59 59 59 60 60 60 60 60 60 61 61 60 60 60 60 60 59 59 59 60 60 60 59 60 61 62 63 64 64 63 63 63 63 63 63 62 62 61 60 60 59 58 56
68 69 69 66 62 57 54 51 50 50 50 51 54 55 53 50 47 44 43 42 42 42 42 42 42 42 42 42 42 42 42 42 42 42 42 45 46 50 52 51 49 47 46 44 43 42 42 42 43 44 46 46 47 49 51 54 55 55 54 54 54 54 54 55 55 55 56 56 57 57 58 59 59 59 60 60 61 61 61 62 62 61 57 56 54 55 60 62 63 62 59 59 61 62 63 65 66 70 70 71 71 71 71 72 74 74 73 72 69 67 68 70 69 68 68 69 72 74 77 79 81 79 77 74 72 71 71 71 71 71 71 72 73 74 72 66 61 58 58 58 57 56 54 53 53 53 53 54 56 58 59 59 59 60 62 61 59 59 60 60 59 59 59 60 58 55 52 52 52 53 53 53 53 55 55 54 53 52 51 49 47 46 46 46 45 45 45 45 45 45 45 45 45 45 45 45 46 50 46 43 43 44 45 45 45 45 45 45 46 46 45 45 45 45 45 45 45 44 44 44 44 44 44 45 45 45 46 47 48 49 50 53 54 56 58 60 62 63 64 64 64 64 63 62 61 59 59 58 58 58 59 60 61 62 63 64 64 66 66 67 68 68 67 64 62 59 57 57 56 58 59 58 57 56 56 56 56 56 56 56 57 56 56 56 56 56 56 56 56 56 56 56 56 56 56 56 56 56 56 56 56 56 56 56 56 56 56 58 58 57 57 57 57 57 57 57 57 57 57 57 56 56 56 56 56 57 57 57 57 58 59 60 62 65 67 66 65 65 65 65 65 66 67 69 71 71 73 73 73 73 73 73 73 73 74 74 76 76 74 71 71 71 74 74 70 70 70 72 72 72 75 75 74 73 71 68 67 65 65 65 64 63 63 63 63 63 64 64 64 64 64 65 67 71 74 76 77 78 77 77 77 77 77 77 75 75 77 78 79 81 84 89 93 97 102 109 113 115 113 108 103 98 95 93 92 92 92 92 93 93 94 95 96 99 101 100 103 111 119 124 128 131 132 133 133 133 130 126 124 126 123 119 114 111 108 105 102 100 96 92 92 90 88 87 84 81 79 76 76 76 75 75 74 74 74 74 74 75 75 75 76 77 80 78 74 70 69 68 68 68 67 67 67 67 67 67 68 69 70 70 71 72 72 72 72 73 74 74 77 77 77 75 81 83 80 80 80 80 80 81 82 83 82 82 81 81 81 80 78 77 77 78 81 82 84 82 80 80 80 80 80 80 81 81 81 81 81 81 81 81 81 82 82 81 81 80 80 79 79 78 78 77 77 77 77 77 78 78 77 76 76 75 75 75 75 75 75 75 75 76 76 77 78 79 80 80 80 80 80 81 81 81 82 83 85 87 87 84 82 81 80 80 80 79 77 77 76 75 74 74 75 74 74 74 74 75 76 76 78 78 78 77 77 77 79 80 82 82 82 82 82 82 81 81 80 80 80 79 79 78 77 77 75 74 73 72 71 69 69 67 67 67 65 63 62 62 62 62 62 62 63 63 63 62 61 60 58 59 61 62 58 51 49 49 49 49 49 50 55 62 65 63 62 60 58 56 54 53 53 53 54 57 59 59 59 58 58 57 57 56 56 56 57 57 58 58 58 59 59 59 60 60 60 61 61 61 61 61 62 62 64 66 67 67 67 67 65 63 61 60 60 59 59 59 60 62 64 65 65 66 67 67 68 68 68 68 68 68 68 67 67 67 67 67 67 67 67 66 66 66 65 65 64 63 63 62 62 63 65 65 65 65 64 64 64 64 63 64 65 65 65 65 65 65 64 64 64 64 65 66 66 67 67 68 69 69 67 67 67 67 68 68 67 66 67 68 69 72 74 77 78 79 80 80 80 82 82 82 82 82 81 81 81 81 81 81 81 81 81 81 80 80 80 78 78 77 75 75 74 74 73 72 72 71 70 70 69 69 69 69 70 71 71 71 71 71 71 69 68 68 68 68 68 68 68 68 69 71 72 73 74 74 71 72 75 71 67 65 63 64 66 66 66 66 64 62 62 62 62 62 62 62 62 62 62 62 62 62 61 61 59 59 59 59 59 59 59 60 60 60 60 60 60 60 60 60 60 60 60 59 59 59 59 59 59 59 59 61 62 63 64 64 63 63 63 63 63 63 61 61 60 60 60 59 57 55
70 71 70 66 62 57 53 51 50 50 50 53 57 58 56 52 47 45 44 43 42 42 42 42 42 42 42 42 42 42 42 42 42 42 42 44 46 50 53 53 51 50 49 47 46 44 43 43 44 44 46 46 46 48 50 53 55 55 54 54 54 55 55 55 56 56 56 56 57 57 58 59 59 60 60 60 61 62 62 63 63 61 57 56 55 57 62 61 60 61 63 62 63 62 63 65 66 71 72 73 74 73 73 73 74 74 72 70 68 68 67 69 69 68 68 68 71 74 77 79 81 79 76 72 70 70 70 70 70 71 71 72 73 73 70 65 59 56 56 56 55 54 53 53 53 53 53 53 54 58 62 60 61 65 67 63 61 60 61 61 60 60 59 57 55 53 53 54 54 54 54 54 54 55 55 55 54 53 52 50 48 47 46 46 45 45 45 45 45 45 45 45 45 45 45 45 46 48 44 43 43 44 45 45 45 46 46 46 46 46 45 45 45 45 45 45 45 45 44 44 44 45 45 45 46 48 49 49 50 50 51 53 55 57 59 61 63 64 65 66 66 66 64 63 62 61 60 59 59 60 60 61 62 62 63 64 64 66 66 68 71 71 68 64 62 60 58 57 58 59 57 57 56 56 56 56 56 56 56 56 56 56 56 56 56 56 56 56 56 56 56 56 56 56 56 56 56 56 56 56 56 56 56 56 56 56 57 58 58 57 57 57 58 58 58 57 57 58 58 57 56 56 56 56 56 57 57 57 58 59 61 64 66 69 69 68 66 65 64 64 64 65 66 68 70 71 72 73 74 76 74 74 74 75 75 76 77 76 75 71 71 72 73 73 71 70 70 72 72 72 74 75 74 73 72 68 67 67 68 67 65 63 63 63 63 63 64 64 64 64 64 65 66 69 72 73 73 74 75 75 76 76 75 75 75 76 78 79 80 81 82 86 91 95 99 106 113 117 114 108 104 100 96 94 93 92 92 92 92 92 92 93 93 95 96 97 100 105 114 123 129 134 136 136 136 134 130 123 118 117 116 113 109 106 105 103 100 97 94 91 91 90 89 87 84 80 77 76 76 75 75 75 74 74 73 73 73 74 74 75 76 76 76 75 72 70 70 68 68 68 68 68 68 68 68 68 69 70 70 70 71 71 71 72 72 73 74 74 77 77 76 77 83 84 83 82 81 81 81 82 82 82 82 81 80 80 79 78 77 77 78 78 81 83 83 81 80 80 80 80 80 80 80 80 80 80 80 81 81 81 81 82 82 81 81 81 80 80 80 78 78 77 77 77 77 77 78 78 78 77 77 76 76 76 76 76 76 76 76 76 76 77 79 79 80 81 81 81 81 81 81 81 82 84 86 87 87 85 83 81 81 82 82 81 80 79 79 77 77 76 76 74 74 74 74 74 75 76 77 77 77 77 77 77 79 80 81 81 82 82 82 82 81 81 80 80 80 79 79 78 77 77 75 75 72 71 71 69 69 68 67 67 66 64 62 62 62 62 62 62 63 63 63 63 63 61 60 60 61 62 58 53 50 49 49 49 51 56 61 67 66 63 63 61 59 56 54 53 53 53 54 57 59 59 58 58 57 57 57 56 56 56 57 57 58 59 59 60 60 60 60 60 60 61 61 61 61 61 62 62 63 65 66 67 67 67 65 64 62 61 61 61 61 61 62 63 65 65 66 67 67 67 68 68 68 68 68 68 68 67 67 67 67 67 67 67 67 66 66 66 64 64 63 63 63 62 62 62 64 64 64 63 63 63 63 63 63 63 64 64 64 63 63 63 63 63 63 63 64 65 65 66 66 67 68 68 67 67 67 67 67 66 66 66 67 68 70 73 74 77 79 79 81 81 81 82 82 83 82 82 82 82 82 82 82 82 82 82 81 81 80 80 80 79 78 78 76 75 74 74 73 72 72 71 70 70 69 69 69 69 69 71 71 71 71 71 70 68 68 68 68 68 68 68 68 69 70 72 72 74 74 74 72 72 72 69 68 67 65 65 66 67 67 66 64 62 62 62 62 62 62 62 62 62 62 62 61 61 59 57 57 58 58 59 59 59 59 60 60 60 60 60 60 60 60 60 60 60 60 59 59 59 59 59 59 59 59 61 61 62 63 63 63 63 63 63 63 62 61 61 60 60 60 58 57 55
72 72 71 67 63 59 54 52 51 51 52 54 59 59 57 53 47 46 45 45 44 44 44 43 43 43 42 42 42 42 42 42 42 42 42 43 45 48 51 52 53 53 52 49 48 46 44 44 45 45 46 46 46 47 49 52 54 54 55 55 55 55 55 56 56 56 56 56 57 58 60 60 60 60 60 60 61 62 62 63 63 62 59 57 56 58 62 62 58 61 63 66 64 62 64 65 67 71 73 75 75 74 75 75 74 71 69 69 68 68 68 69 69 68 68 68 69 74 81 84 84 80 75 71 70 70 70 70 71 71 71 72 73 72 69 63 58 54 54 54 54 54 53 53 53 53 53 53 53 58 63 64 66 70 69 63 61 60 60 62 62 60 59 56 54 54 55 56 56 55 54 54 54 55 56 56 54 54 53 52 50 48 47 46 45 45 45 45 45 45 45 45 45 45 44 45 46 46 43 43 44 45 45 45 45 46 46 45 45 45 44 44 44 44 44 44 44 45 45 45 45 45 45 47 48 49 50 51 51 51 52 53 55 58 60 62 64 66 67 67 67 67 66 65 63 62 60 60 60 60 61 61 62 63 63 64 65 66 66 69 72 72 69 64 63 60 58 59 59 57 56 56 56 56 56 56 56 56 56 56 56 56 56 56 56 56 56 56 56 56 56 56 56 56 56 56 56 56 56 56 56 56 56 56 56 56 57 58 58 57 57 57 58 58 58 57 57 58 58 56 56 56 56 57 57 57 57 57 59 61 63 67 69 70 70 69 66 65 64 64 64 65 66 67 68 70 72 73 74 76 75 75 75 76 77 77 77 76 75 71 71 72 72 73 74 71 71 72 72 72 74 75 75 73 72 69 68 69 69 68 66 65 63 63 64 64 64 65 64 64 64 65 65 66 67 69 70 70 72 74 75 75 75 75 76 78 80 81 82 82 83 86 89 93 96 101 108 112 110 106 104 101 98 96 94 93 92 91 91 91 91 91 91 92 94 96 97 99 108 117 127 134 137 137 135 133 129 121 113 110 110 108 106 103 103 101 99 96 93 91 91 90 89 88 84 81 77 76 76 75 75 75 75 74 73 72 72 73 74 75 75 75 75 73 70 69 69 68 68 68 68 68 68 68 68 68 69 70 70 70 71 71 71 72 72 73 74 75 77 78 76 78 85 85 84 83 83 83 83 82 82 81 80 79 78 77 77 77 77 78 78 79 81 83 84 80 80 80 80 80 80 80 80 80 80 80 80 80 80 80 81 81 81 81 81 81 81 81 80 80 78 77 77 77 77 77 78 78 78 77 77 77 77 77 77 76 76 76 76 77 77 78 80 80 81 82 83 85 85 84 83 83 84 85 87 88 89 88 85 83 82 82 84 84 83 82 81 80 80 80 79 76 74 74 74 74 75 75 76 76 76 77 77 77 78 79 80 81 81 82 82 82 81 81 80 80 80 78 78 78 77 77 75 74 72 71 71 70 69 69 68 67 67 66 66 64 63 63 63 63 63 64 64 63 63 62 60 59 60 60 58 55 52 51 50 50 55 62 67 67 64 63 63 63 59 56 54 53 53 53 53 57 58 58 57 57 56 56 56 56 56 56 57 57 57 59 59 60 60 60 60 60 60 61 61 61 61 61 62 62 62 63 65 66 67 66 65 64 62 62 64 65 65 64 63 64 66 66 66 67 67 67 68 68 68 68 69 68 68 68 68 67 66 66 66 66 66 66 66 65 64 64 63 63 63 62 62 62 63 63 62 62 63 63 63 63 63 63 62 62 62 62 62 63 63 63 63 63 63 63 64 65 65 66 67 68 67 66 66 66 66 66 66 66 67 68 71 74 75 77 78 79 81 81 81 82 82 83 83 83 83 83 82 82 82 82 82 82 81 81 81 80 80 79 79 78 77 76 75 74 73 72 72 71 70 70 69 69 69 69 69 70 70 70 70 70 70 68 68 68 68 67 67 67 68 69 70 71 72 75 75 74 74 72 72 70 69 69 68 66 66 67 68 67 66 63 62 62 62 62 62 62 62 62 62 61 61 58 57 57 57 58 58 58 59 59 59 59 59 60 60 59 59 59 60 60 60 59 59 59 59 59 59 59 59 59 59 60 61 62 63 63 63 63 63 62 62 62 61 61 60 59 59 58 57 55
73 73 72 70 67 63 59 55 53 53 54 56 59 59 55 52 47 46 46 46 47 47 47 46 45 44 43 42 42 42 42 42 42 42 42 42 43 46 48 51 53 53 52 50 50 46 45 45 45 45 46 46 46 47 49 52 54 54 56 56 56 56 56 56 56 56 57 57 57 60 61 61 61 61 60 60 61 62 62 63 63 63 63 59 59 61 63 63 63 63 62 68 68 64 64 67 70 74 76 76 76 76 77 76 73 70 69 69 68 68 69 69 69 68 68 68 69 74 81 86 84 80 74 71 71 71 72 72 73 72 73 73 73 71 66 61 56 53 53 53 53 53 53 53 53 53 53 53 53 56 62 66 69 69 68 63 60 60 60 61 61 60 58 55 54 55 58 59 58 56 54 54 54 55 55 55 55 55 54 52 51 48 47 46 46 46 46 46 46 46 46 47 46 45 44 45 46 44 43 43 45 46 46 46 46 46 46 45 45 45 44 44 44 44 44 44 44 44 45 45 46 46 47 48 50 51 53 53 53 53 53 54 56 59 61 63 65 67 68 69 69 69 68 66 65 63 61 61 61 61 62 63 64 64 65 65 65 66 67 70 72 71 67 64 63 61 60 59 57 57 56 56 56 56 56 56 56 56 56 56 56 56 56 56 56 56 56 56 56 56 56 56 56 56 56 56 56 56 56 56 56 56 57 57 57 57 57 58 58 58 58 60 62 63 61 58 58 57 57 56 56 56 56 57 57 57 57 58 60 62 65 67 69 70 69 68 66 64 64 64 64 64 65 66 67 69 71 73 73 75 76 77 77 77 77 77 78 76 75 72 72 72 72 74 74 72 72 72 72 73 74 76 75 73 72 71 71 71 71 70 69 69 65 65 66 66 66 66 65 65 65 65 66 66 66 67 69 69 71 73 74 75 75 75 76 79 81 82 85 87 86 86 89 92 94 97 103 106 106 106 105 103 99 97 96 94 93 91 91 91 91 91 91 92 94 95 95 96 102 110 119 128 134 134 131 131 126 118 110 106 105 105 103 102 101 99 97 95 93 91 91 89 88 87 84 81 78 77 76 76 77 78 77 76 75 73 71 72 73 73 73 72 71 70 70 69 69 69 68 68 68 68 69 68 68 68 69 69 70 70 71 71 71 73 73 73 75 75 78 79 76 79 85 85 85 85 84 84 84 82 81 79 77 77 77 77 77 77 77 78 79 80 82 83 84 81 80 80 80 80 80 80 80 80 80 80 80 80 80 80 81 81 81 81 81 81 81 81 80 79 78 77 77 77 77 77 78 78 78 78 78 78 78 78 78 77 77 77 77 78 79 80 81 81 82 83 83 87 88 87 87 87 87 88 88 89 90 90 87 84 83 83 84 86 85 83 82 82 82 82 80 78 75 74 74 74 75 75 76 76 76 77 77 77 78 78 80 80 80 82 82 82 82 81 81 81 80 79 78 77 77 76 75 73 71 71 71 70 70 69 69 69 69 69 68 67 66 65 64 64 64 64 65 64 64 63 61 59 57 57 57 56 56 58 57 56 59 64 66 64 64 63 64 63 57 56 55 54 53 53 53 56 57 57 57 56 56 56 56 56 56 56 57 57 57 58 58 59 60 60 60 60 61 61 61 61 61 61 62 62 62 62 64 65 65 65 65 65 65 64 64 66 66 65 65 65 66 66 67 67 67 67 67 67 68 68 69 69 68 68 68 67 66 66 66 66 66 65 65 65 64 64 63 63 63 62 62 62 62 62 62 62 63 63 63 63 63 63 62 62 62 63 63 63 63 63 63 63 63 63 63 64 64 64 65 66 66 66 66 66 66 66 66 66 67 68 71 75 75 77 78 79 81 81 82 83 83 83 83 83 83 83 83 82 82 82 82 82 82 82 81 81 81 80 80 79 77 77 75 75 73 72 72 71 70 70 69 69 69 69 69 70 70 70 70 70 69 68 68 68 68 67 67 67 68 68 69 70 72 75 76 76 75 72 72 71 71 72 72 68 67 67 68 67 66 64 62 62 62 62 62 62 62 61 61 59 58 58 58 58 58 58 58 58 58 58 59 59 59 59 59 59 59 59 59 59 59 59 59 59 59 59 59 59 59 59 59 60 60 61 63 63 63 63 63 62 62 62 61 61 60 59 59 57 57 56
73 73 73 73 71 67 62 58 57 57 57 57 58 57 54 51 47 46 46 46 47 50 51 50 47 45 44 43 42 42 42 42 42 42 42 42 42 43 46 48 50 49 49 50 49 46 45 45 44 44 45 46 46 48 50 52 54 54 56 57 57 57 57 57 57 57 57 57 57 60 61 61 61 61 60 60 61 62 62 63 63 63 63 63 62 63 64 65 66 64 64 69 70 64 64 68 71 74 76 76 76 76 77 76 72 68 68 68 68 68 68 69 68 68 68 68 69 74 80 82 82 78 72 71 72 73 74 75 76 75 75 73 72 69 64 59 55 53 53 53 53 53 53 53 53 53 53 53 53 55 61 66 68 67 66 62 60 60 59 59 59 57 56 55 55 57 59 61 60 57 54 53 53 54 54 54 54 54 53 52 50 48 47 47 46 46 46 46 46 47 47 47 48 47 45 47 45 43 44 47 49 49 47 47 46 45 45 45 44 44 44 44 44 43 43 43 43 44 45 45 46 47 48 50 52 53 55 55 55 55 55 55 56 59 62 64 66 67 69 70 70 70 70 68 67 65 63 62 62 63 64 64 64 65 65 66 66 67 67 68 69 67 65 63 63 62 61 58 57 57 56 56 56 56 56 56 56 56 56 56 56 56 56 56 56 56 56 56 56 56 56 56 56 56 56 56 56 56 56 56 56 57 57 57 57 57 57 58 58 60 61 63 64 64 61 58 57 57 57 57 56 56 56 56 56 57 57 58 60 62 64 67 68 67 67 66 64 63 63 63 63 63 64 65 66 68 70 72 73 74 76 78 78 78 78 78 77 76 75 74 73 73 74 74 75 73 72 72 73 74 76 76 75 74 73 73 73 73 73 71 70 68 66 67 69 70 70 70 69 68 66 67 67 66 66 67 68 69 71 73 74 75 75 75 78 80 82 84 88 91 91 87 89 91 93 95 99 103 104 105 106 104 100 98 96 94 93 91 91 91 91 91 91 91 92 93 93 93 97 103 109 119 126 128 126 124 120 114 108 104 102 103 103 101 100 98 95 95 93 91 90 89 87 86 84 82 81 79 77 79 82 83 82 79 77 74 71 70 71 71 70 70 70 70 70 70 70 71 72 71 70 69 69 69 68 69 69 69 70 70 71 72 72 73 73 74 75 76 79 79 76 79 85 85 85 85 84 84 84 82 81 78 77 77 77 77 77 78 78 79 80 80 82 83 83 81 80 80 80 80 79 79 79 79 79 79 79 79 80 80 80 81 81 81 81 81 80 80 79 78 77 77 77 77 77 77 77 77 77 77 77 78 78 78 78 78 78 77 77 79 81 81 82 83 83 83 83 85 87 87 87 88 89 89 89 88 89 89 87 83 83 83 85 86 86 84 83 83 82 82 80 78 76 74 74 74 74 74 75 76 76 77 77 77 78 78 79 79 80 82 82 83 83 82 82 82 81 80 78 77 77 76 74 73 71 71 71 71 71 70 71 71 71 70 69 68 67 66 65 65 65 65 65 65 65 63 61 60 57 56 57 58 62 64 64 63 63 65 65 64 64 64 64 63 58 56 56 56 55 54 54 54 55 56 57 57 56 56 56 57 57 57 57 57 57 58 58 59 60 60 60 60 61 61 61 62 62 62 62 62 62 62 62 64 64 65 66 66 65 65 65 66 66 66 66 66 66 66 67 67 67 67 67 67 68 68 70 70 69 68 68 67 66 66 65 65 65 65 64 64 64 64 63 63 63 62 62 62 62 62 62 62 62 62 62 63 63 63 62 62 62 63 63 63 63 63 63 63 63 63 63 63 63 64 64 64 66 65 65 65 65 65 65 65 67 68 71 74 75 77 78 79 81 81 82 83 83 83 83 83 83 83 83 83 83 82 82 82 82 82 81 81 81 80 80 79 78 77 76 75 74 72 72 71 70 70 69 69 69 69 69 69 70 70 70 70 69 68 68 67 67 67 67 67 67 67 67 69 71 74 76 77 76 73 72 72 74 75 75 73 69 68 69 68 67 66 65 62 62 62 62 61 61 61 59 58 58 58 58 58 58 58 58 58 58 58 58 59 59 59 59 59 59 59 59 59 59 59 59 59 59 59 59 59 59 59 59 60 60 61 63 63 63 63 63 62 62 62 61 61 60 59 59 58 57 56
73 74 74 73 73 70 66 62 60 60 59 58 57 54 52 49 47 46 46 46 48 54 57 55 49 46 45 45 43 42 42 42 42 42 42 42 42 42 44 45 46 46 47 48 48 46 45 44 44 44 45 46 47 49 51 52 54 55 57 57 58 58 58 57 57 57 58 58 58 59 61 61 60 60 61 61 61 62 63 63 63 63 64 65 64 65 66 67 67 65 66 69 71 66 64 67 70 72 73 75 75 75 74 73 70 68 68 68 68 68 68 68 68 68 68 68 68 73 78 79 78 75 71 73 74 74 75 75 75 75 74 72 70 66 61 57 54 53 53 53 53 53 53 53 53 53 53 53 53 54 60 64 63 62 62 60 59 59 59 56 54 54 54 55 55 57 59 62 60 57 54 52 52 52 52 52 51 51 51 50 49 47 47 47 47 47 47 47 47 48 48 49 50 50 50 49 45 44 50 53 50 48 46 46 46 45 45 44 44 44 44 44 43 43 43 43 43 44 45 45 47 47 49 51 53 55 56 57 58 57 57 56 57 60 63 65 67 68 70 71 72 72 71 70 68 66 65 64 65 65 66 66 66 66 66 67 67 67 67 67 66 65 63 63 63 62 61 58 57 57 56 56 56 56 56 56 56 56 56 56 56 56 56 56 56 56 56 56 56 56 56 56 56 56 56 56 56 56 56 57 57 57 57 57 57 57 57 58 60 62 63 65 64 63 61 58 57 57 56 56 56 56 56 56 56 57 57 58 59 61 63 66 65 64 64 63 63 62 62 62 62 63 63 64 65 67 70 70 71 74 76 78 79 79 78 78 77 76 76 75 75 75 75 75 76 75 74 74 74 76 77 77 76 74 74 74 73 73 72 70 68 67 68 70 71 73 74 73 73 71 70 71 71 70 68 68 68 68 70 72 74 75 75 75 80 82 84 85 89 91 91 89 89 90 92 94 96 100 102 105 106 106 103 99 96 94 93 92 91 91 91 91 91 91 91 92 92 92 94 97 101 109 117 120 120 117 114 110 106 102 100 101 103 102 100 98 95 94 93 90 90 88 86 86 85 86 86 84 81 83 86 88 86 83 78 75 72 70 70 70 70 70 70 70 70 71 74 75 76 76 72 70 70 70 70 70 70 70 71 71 72 72 73 74 74 74 75 78 81 79 76 79 84 85 84 84 84 84 84 82 81 79 79 79 78 78 79 79 79 80 81 81 82 82 83 81 81 80 80 80 79 79 79 79 79 79 79 79 80 80 80 81 81 81 81 81 80 79 78 78 77 78 78 77 77 77 77 77 77 77 77 78 78 78 78 79 80 79 80 81 83 83 83 85 86 85 84 84 84 86 86 87 89 89 89 88 88 86 84 83 83 83 85 87 87 85 84 84 82 82 80 78 75 74 74 74 74 74 75 76 76 77 77 77 78 78 79 79 80 82 82 84 84 84 84 84 83 81 80 78 77 76 74 73 72 72 72 72 72 72 72 72 71 70 70 68 67 66 65 65 66 66 66 65 65 62 61 60 58 56 57 63 66 68 68 68 68 67 67 67 67 66 65 63 61 59 59 57 56 55 55 55 55 56 57 58 57 57 57 57 57 57 57 57 58 59 59 59 60 60 60 60 61 62 62 62 62 62 63 63 62 62 63 64 65 65 66 66 66 66 66 66 66 66 66 66 67 67 67 67 67 66 66 67 68 69 71 71 70 68 68 67 66 66 64 64 64 64 64 64 64 64 63 63 63 62 62 62 62 62 62 62 62 62 62 63 63 63 63 63 63 63 63 63 63 63 63 63 63 63 63 63 63 63 63 64 65 65 65 65 65 65 65 65 66 67 70 73 74 77 78 79 81 81 83 84 84 84 84 84 83 83 83 83 83 82 82 82 82 82 81 81 81 81 81 80 79 79 77 75 74 73 73 71 71 71 70 70 69 69 69 69 70 70 70 70 69 69 69 67 67 67 66 66 67 67 67 68 71 73 76 77 77 74 74 75 74 74 74 74 71 69 70 70 69 68 67 64 62 62 62 62 61 59 58 58 58 58 58 58 58 58 58 58 58 58 58 59 59 60 60 60 60 60 59 59 59 59 59 59 59 59 59 59 59 59 59 60 60 61 63 63 63 63 63 62 62 62 61 61 60 60 60 59 58 57
73 74 75 74 73 72 68 64 62 60 59 57 54 51 50 48 46 46 46 46 49 56 61 59 52 48 46 46 44 42 42 42 42 42 42 42 42 42 42 44 45 45 47 47 47 45 45 44 44 44 45 46 48 51 52 53 54 56 57 58 59 59 58 58 58 58 58 58 58 59 59 59 59 60 61 62 62 63 64 64 63 64 65 66 66 66 68 68 68 67 66 68 71 67 64 65 67 69 70 71 71 72 71 70 68 68 68 68 68 68 68 68 68 68 68 68 68 71 75 77 76 73 73 74 75 74 74 73 73 72 71 69 66 62 57 54 53 53 53 53 53 53 53 53 53 53 53 53 53 53 56 59 58 58 58 58 58 58 56 53 53 53 54 55 56 57 59 61 60 57 54 50 50 51 50 50 49 49 49 48 48 47 47 47 47 47 47 47 47 48 48 49 50 51 50 48 46 50 55 53 49 47 46 46 45 45 45 44 44 44 43 43 43 43 43 44 44 44 45 45 47 47 49 52 54 56 58 59 59 59 59 58 58 60 63 66 68 69 70 72 73 74 74 72 70 68 67 65 66 67 67 66 66 66 67 67 67 67 67 67 65 65 63 63 63 62 60 58 57 57 56 56 56 56 56 56 56 56 56 56 56 56 56 56 56 56 56 56 56 56 56 56 56 56 56 56 56 56 56 57 57 57 57 57 57 57 58 60 61 63 64 65 63 62 61 58 58 57 56 56 56 56 56 56 56 57 57 57 58 59 61 63 62 60 61 61 62 61 62 62 62 63 63 64 65 67 70 70 72 74 76 78 79 79 78 78 78 77 76 75 75 75 75 76 78 77 74 75 77 79 79 77 76 74 74 73 71 70 70 69 69 71 73 74 74 76 77 77 76 75 73 74 75 73 71 69 68 68 69 72 75 75 75 76 81 84 85 87 89 91 91 89 89 89 91 92 95 98 100 104 107 107 105 102 98 95 93 92 91 91 91 91 91 91 91 91 91 91 92 93 97 102 108 113 114 111 109 106 104 101 99 100 103 102 100 97 94 93 92 90 89 87 86 86 87 88 89 88 85 87 90 91 89 85 79 76 74 72 71 70 72 73 73 73 73 77 79 81 81 80 76 72 71 72 71 71 71 71 71 71 72 72 74 76 78 80 80 81 82 78 76 81 84 84 84 84 84 84 84 83 82 81 81 80 79 79 80 80 80 80 81 81 82 82 82 82 82 80 80 80 79 79 79 79 79 79 79 79 79 79 80 80 80 80 80 80 80 78 78 78 78 78 78 77 77 77 77 77 77 77 77 77 77 77 78 80 82 83 83 84 84 83 85 87 88 88 86 85 85 86 86 86 89 90 90 88 88 86 85 83 83 84 86 86 86 85 84 84 82 81 79 76 75 74 74 74 74 74 75 75 76 77 77 78 78 78 79 79 80 81 82 84 84 85 84 84 84 82 81 79 78 77 75 74 74 73 73 73 73 73 72 72 71 70 70 68 67 66 65 66 66 66 66 65 65 63 62 61 60 57 57 62 66 68 69 69 69 69 69 68 68 68 67 65 64 64 63 59 56 56 56 56 56 56 58 59 59 58 57 57 57 57 58 58 58 59 59 59 60 60 61 61 61 62 62 62 62 62 63 63 64 65 65 66 66 66 66 66 66 66 66 66 66 66 67 67 66 66 66 66 66 66 66 66 68 69 72 71 71 69 68 67 66 66 64 63 63 63 63 63 64 64 63 63 63 63 63 63 63 63 62 62 62 62 62 62 63 63 63 63 63 63 63 63 63 63 62 62 62 63 63 63 63 63 63 63 64 64 64 64 64 65 65 65 66 67 69 72 74 76 78 79 80 81 83 84 84 84 84 84 84 84 83 83 83 83 83 82 82 82 82 82 82 81 81 81 79 79 77 76 74 73 73 71 71 71 70 70 69 69 69 69 70 70 69 69 69 69 69 67 67 66 66 66 66 66 67 68 70 73 76 78 77 74 74 76 74 73 73 73 71 71 71 71 70 68 67 66 66 65 64 63 61 59 60 58 58 58 58 58 58 58 58 58 58 58 58 60 60 60 60 60 60 60 59 59 59 59 59 59 59 59 58 58 58 59 59 59 60 62 63 63 63 63 63 62 62 62 61 61 61 60 60 60 60 60
73 74 75 75 74 72 70 66 63 61 58 56 52 49 48 47 46 46 46 47 50 58 64 61 55 50 47 46 45 42 42 42 42 42 42 42 42 42 42 43 45 46 47 47 47 45 45 45 44 44 46 46 48 51 52 54 55 57 58 59 60 60 60 60 58 58 58 58 59 59 59 59 60 61 62 63 64 65 66 65 65 66 68 69 69 68 69 69 69 69 68 68 72 71 65 65 65 66 66 67 66 67 67 68 68 69 69 68 68 69 69 68 68 68 68 68 68 70 75 77 76 73 72 73 73 72 71 71 70 69 68 64 61 58 55 54 53 53 53 53 54 54 54 54 53 53 53 53 53 53 53 54 55 56 58 58 57 56 54 53 53 53 54 56 57 57 58 60 60 58 55 50 50 49 49 49 48 48 48 48 48 48 48 48 47 47 47 47 47 48 47 47 49 51 49 49 51 51 51 49 48 47 46 46 45 45 45 44 44 44 43 43 43 43 43 44 44 44 45 45 46 47 49 53 55 57 59 60 61 61 61 61 60 61 64 66 68 69 71 73 75 75 74 73 71 70 68 67 67 67 67 66 66 66 67 67 67 67 67 67 65 65 63 63 63 62 59 58 57 57 56 56 56 56 56 56 56 56 56 56 56 56 56 56 56 56 56 56 56 56 56 56 56 56 56 56 56 56 56 57 57 57 57 57 59 60 60 60 61 63 63 63 62 62 61 59 57 56 56 56 56 56 56 56 56 57 57 57 58 58 59 59 59 60 60 61 61 61 62 62 62 63 63 64 64 66 70 73 75 76 77 79 79 79 79 79 79 78 77 76 76 75 76 79 82 80 78 79 80 81 80 78 75 74 73 72 71 71 71 70 72 76 77 77 77 79 80 80 80 78 76 76 76 76 74 72 70 69 69 72 75 75 75 78 82 84 85 88 89 90 90 90 90 90 91 91 95 98 100 104 107 108 105 102 100 97 94 92 92 92 91 91 91 91 91 90 90 90 91 91 93 97 102 108 109 107 104 103 102 100 98 98 101 100 98 95 93 91 91 90 89 87 86 87 88 89 89 89 88 89 91 91 89 87 81 79 78 78 76 75 76 78 78 78 79 83 85 86 86 85 81 77 76 75 74 75 75 76 76 75 75 76 78 82 84 84 84 84 82 79 78 83 83 84 84 84 84 84 84 83 83 82 82 82 81 81 81 81 81 81 82 82 82 82 82 81 81 81 81 80 79 79 79 79 79 79 79 79 79 79 79 79 79 80 80 79 79 78 78 78 78 79 79 78 77 77 77 77 76 76 76 77 77 77 79 82 83 85 86 85 85 85 87 88 89 89 88 87 88 87 86 86 89 91 90 88 87 87 87 85 84 85 87 86 86 85 85 85 82 81 79 76 75 74 74 74 74 74 74 74 75 77 77 78 79 79 80 80 80 81 82 84 85 85 85 85 84 83 81 80 78 77 76 76 75 75 75 74 74 73 71 71 71 70 70 69 69 68 68 68 67 67 66 65 65 64 63 62 61 59 58 59 63 67 69 69 68 68 68 68 68 68 67 66 65 65 64 60 57 56 57 57 56 56 58 60 60 58 58 57 57 57 59 59 59 60 60 60 61 61 62 62 62 63 63 63 63 63 63 63 64 65 65 66 66 66 66 66 66 66 66 66 66 66 67 67 66 66 66 66 66 66 66 66 68 69 72 72 71 70 69 68 66 66 65 63 63 63 63 63 64 64 64 64 64 64 64 64 64 63 62 62 62 62 62 62 62 62 63 63 63 63 63 63 63 63 62 62 62 63 63 63 63 63 63 63 64 64 64 64 64 65 65 65 66 67 70 72 73 75 77 78 80 81 82 83 83 84 84 84 84 84 83 83 83 83 83 83 82 82 82 81 81 81 81 81 79 79 77 77 75 73 73 71 71 71 70 70 70 69 69 69 70 70 69 69 69 69 69 68 67 66 66 66 66 66 66 67 69 73 76 78 77 73 73 76 74 73 73 73 72 72 72 73 71 69 68 68 68 67 65 64 62 61 61 58 58 58 58 58 58 58 58 58 58 58 58 60 60 60 60 60 60 60 59 59 59 59 59 58 58 58 58 58 58 59 59 59 60 62 63 63 63 63 63 62 62 62 61 61 61 61 61 60 60 60
74 75 75 75 75 73 71 67 65 62 58 54 52 49 47 47 46 46 47 48 50 59 67 64 57 51 48 46 45 44 43 42 42 42 42 42 42 42 42 43 45 46 48 47 47 46 46 45 44 44 45 46 48 50 51 53 55 57 60 62 63 63 63 63 61 59 58 59 59 60 60 60 62 62 63 64 66 66 66 66 68 71 71 71 70 70 70 70 70 70 70 69 73 73 68 65 66 66 66 66 66 66 67 68 70 72 72 72 73 73 69 68 68 68 68 68 69 72 75 75 75 73 71 71 71 70 68 68 66 64 62 59 57 54 53 53 53 53 53 54 54 54 54 54 53 53 53 53 53 53 53 53 54 55 59 58 56 54 53 53 53 53 53 56 58 58 58 59 59 58 55 50 50 49 48 48 48 48 48 48 48 48 48 48 47 47 47 47 47 47 47 47 49 52 52 53 54 51 49 47 47 46 45 45 45 44 44 44 44 44 43 43 43 43 43 43 43 44 45 45 46 47 49 53 56 58 60 61 62 62 63 63 63 63 65 66 69 70 72 75 75 75 75 74 73 72 70 69 68 67 67 66 66 66 67 67 67 67 67 67 66 65 63 63 62 60 58 57 57 57 56 56 56 56 56 56 56 56 56 56 56 56 56 56 56 56 56 56 56 56 56 56 56 56 56 56 56 56 56 57 57 57 58 59 61 62 61 60 60 62 63 63 62 62 61 59 57 56 56 56 56 56 56 56 56 57 57 57 57 57 58 59 59 60 60 60 60 60 61 61 62 63 63 63 64 66 70 75 78 78 78 78 78 78 80 80 79 78 78 78 78 77 79 81 83 82 82 82 82 82 80 77 75 73 73 72 73 74 74 73 75 78 80 80 80 81 83 83 82 80 77 77 78 77 77 75 73 71 70 73 75 75 75 78 81 82 85 88 89 90 90 90 90 90 91 91 94 97 100 103 107 108 106 103 100 98 96 94 93 92 91 91 91 91 91 90 90 89 90 90 91 93 97 104 106 104 102 100 99 98 97 96 96 97 94 92 91 90 90 89 89 87 87 89 89 89 90 90 90 91 91 89 88 87 84 83 83 82 80 80 81 82 82 82 85 87 87 87 87 87 85 83 82 81 80 81 81 82 82 82 81 82 83 84 84 85 84 84 83 80 80 83 83 84 83 83 83 83 83 83 83 82 81 81 81 81 81 81 81 82 81 81 81 81 81 81 81 81 81 80 79 79 78 78 78 79 79 79 79 78 78 78 79 79 79 80 79 78 78 78 78 79 79 79 78 78 77 77 76 76 76 77 77 78 81 83 84 85 86 86 86 88 88 89 89 89 88 88 88 87 86 86 88 90 90 86 86 86 86 86 84 86 88 86 86 86 86 85 83 82 80 78 77 76 75 74 74 74 73 73 74 76 77 77 80 80 80 80 80 81 82 84 85 86 85 85 84 83 83 80 78 78 77 76 75 75 75 74 74 73 71 71 71 71 70 70 70 69 69 69 68 67 66 66 66 65 64 63 62 61 59 59 62 66 68 68 68 68 68 68 68 67 67 66 65 65 63 61 60 59 59 58 57 57 58 60 60 59 58 57 57 58 59 59 60 61 61 62 62 62 62 62 62 63 63 63 63 63 63 63 64 65 65 66 66 66 66 66 66 66 66 66 66 66 66 66 66 66 66 66 66 65 65 65 67 69 72 72 72 71 70 69 67 67 65 64 63 63 63 63 63 63 64 64 64 64 64 65 63 62 62 62 62 62 62 62 62 62 63 63 63 63 63 63 63 63 62 62 62 63 63 63 63 63 63 63 63 64 64 64 64 65 65 65 66 67 70 72 72 74 76 78 79 80 82 83 83 84 84 84 84 84 83 83 83 82 82 82 81 81 82 81 81 81 81 80 79 79 77 77 76 73 73 71 71 71 70 70 70 69 69 69 69 70 70 70 69 69 69 68 67 66 65 65 65 65 65 67 69 72 75 77 77 74 73 75 76 73 73 73 73 72 73 73 73 70 68 68 69 68 68 65 63 60 59 58 58 58 58 58 58 58 58 58 58 58 59 60 60 60 60 60 60 60 59 59 59 59 59 58 58 58 58 58 58 58 58 59 60 62 63 63 63 62 62 61 61 61 60 60 60 60 60 60 60 60
75 76 76 75 75 73 72 70 67 64 59 55 52 49 47 47 47 47 49 48 51 62 67 64 58 53 49 47 46 44 43 43 42 42 42 42 42 42 42 43 45 46 48 48 48 46 46 46 45 45 45 46 47 50 51 53 56 58 61 64 67 69 67 65 63 61 60 60 60 60 61 64 64 65 66 66 66 67 68 70 72 72 71 71 71 72 72 72 72 72 72 70 73 74 71 69 69 69 70 71 71 71 71 72 73 73 73 73 74 73 69 68 68 68 69 70 73 75 76 74 73 73 71 69 68 69 68 64 60 59 57 56 55 54 53 53 53 54 54 54 54 54 55 55 54 53 53 53 53 53 53 53 54 54 56 55 54 54 53 53 53 53 53 55 58 58 57 57 58 58 56 50 50 48 48 48 48 48 48 49 49 48 48 48 47 47 47 47 47 47 47 49 52 53 52 52 53 50 48 47 46 46 45 45 45 44 44 44 44 44 43 43 43 43 43 43 43 44 45 45 46 46 48 52 56 58 61 62 63 64 64 64 64 65 66 67 69 71 73 75 75 76 75 75 75 75 73 71 69 68 68 67 67 67 67 67 67 68 68 67 66 65 63 62 61 58 57 57 57 57 56 56 56 56 56 55 55 55 55 55 55 56 56 56 56 56 56 56 56 56 56 56 56 56 56 56 56 56 56 57 57 57 59 61 61 61 61 60 60 61 62 62 62 61 60 58 57 56 56 56 56 56 56 56 56 57 57 57 57 57 58 59 60 60 60 60 60 60 61 61 62 62 62 63 63 65 70 75 78 78 78 78 78 78 80 80 80 79 79 80 80 79 80 81 82 82 82 82 82 82 79 76 73 73 73 74 74 75 76 76 78 79 80 81 81 81 82 82 82 81 78 78 79 80 80 78 77 75 74 76 76 76 76 78 81 82 85 89 89 90 90 91 91 91 92 92 93 97 99 103 106 108 107 105 102 100 98 96 94 93 92 92 91 91 91 90 90 89 89 89 90 91 92 98 102 101 100 99 97 95 94 93 94 95 94 92 90 90 89 89 89 89 89 89 89 89 90 91 91 92 91 89 86 86 84 84 84 83 83 84 85 85 85 86 87 88 88 87 87 87 85 85 85 86 86 86 85 85 85 85 86 85 85 85 85 85 84 84 84 82 81 83 83 83 83 83 83 83 83 82 82 81 81 81 81 81 81 81 81 81 81 81 81 81 81 81 81 81 81 81 80 79 78 77 77 78 79 80 79 77 77 77 77 77 78 80 80 80 79 79 79 80 80 79 78 78 77 77 76 77 77 77 77 79 81 83 83 84 84 86 87 88 87 87 88 88 87 87 87 86 86 86 88 88 89 87 86 86 86 86 86 88 89 87 86 87 87 86 85 84 81 80 79 78 76 74 74 75 74 73 73 74 76 77 79 80 81 81 81 81 82 84 86 86 85 85 85 83 82 80 78 78 77 77 75 75 75 74 74 73 72 72 72 72 72 71 71 70 69 69 68 68 67 67 67 65 64 64 63 62 60 60 63 66 68 68 68 68 68 68 68 67 67 66 65 65 64 63 62 62 61 60 59 60 60 61 61 59 58 57 57 58 59 60 61 63 63 63 63 63 63 63 63 63 63 63 63 64 64 64 64 65 65 66 66 66 66 66 66 66 66 66 66 66 66 66 66 66 66 66 66 65 65 65 67 69 71 73 73 72 71 70 68 68 66 64 63 63 63 63 63 63 63 63 63 64 64 65 62 62 62 62 62 62 62 62 62 62 63 63 63 63 63 63 63 63 62 62 63 63 63 63 63 63 63 63 63 64 64 64 64 65 65 65 66 67 70 71 72 74 76 77 79 79 81 83 83 84 84 84 84 84 83 83 83 82 81 81 81 81 81 81 81 81 81 80 79 79 77 77 75 73 73 72 71 71 70 70 70 69 69 69 69 70 71 70 68 68 68 67 66 66 65 65 65 65 66 67 69 72 74 76 77 76 73 75 77 74 75 75 74 74 74 74 74 71 70 70 69 69 69 66 63 60 59 58 58 58 58 58 58 58 58 58 58 58 58 59 60 60 60 60 60 60 59 59 59 58 58 58 58 58 58 58 58 58 58 59 59 61 62 62 62 62 62 61 61 61 60 60 60 60 60 60 60 60
77 77 76 75 74 74 73 72 69 64 59 55 52 49 48 47 47 48 49 49 55 62 66 64 58 54 51 48 46 45 44 44 43 42 42 42 42 42 42 43 45 47 49 52 52 47 46 46 45 45 45 46 47 50 50 53 56 58 62 67 72 73 70 67 65 63 61 60 60 62 64 65 65 66 66 66 67 70 71 72 72 73 72 72 72 72 72 72 72 72 72 72 74 75 75 75 75 75 76 75 74 74 74 74 74 73 73 73 73 71 70 69 69 69 70 74 78 78 75 72 71 72 72 69 67 68 68 64 59 56 56 55 54 54 53 53 53 54 54 53 53 53 55 55 54 53 53 53 53 53 53 53 54 54 54 53 53 54 53 53 53 53 53 54 56 56 56 56 57 57 55 50 49 48 48 48 48 48 48 48 48 48 48 48 47 47 47 47 47 47 48 51 55 53 51 51 50 49 48 46 45 45 45 45 45 44 44 44 44 44 43 43 43 43 43 43 43 44 44 44 45 46 47 51 56 59 62 63 64 65 65 65 65 65 66 67 70 71 73 74 74 76 76 77 77 77 76 74 71 69 68 68 67 67 67 67 67 68 68 67 66 65 64 62 59 57 57 57 56 56 56 56 56 56 56 55 55 55 55 55 55 56 56 56 56 56 56 56 56 56 56 56 56 56 56 56 56 57 57 57 57 57 58 60 61 61 61 61 61 61 61 62 61 61 60 58 57 57 56 56 56 56 56 56 56 57 57 57 57 57 58 60 60 60 60 60 60 61 61 62 62 62 62 63 63 65 70 75 78 77 77 78 78 78 80 80 80 80 80 80 80 81 80 80 81 81 81 81 80 80 77 75 73 73 74 75 75 76 78 79 80 80 80 80 80 80 81 81 81 81 80 80 82 83 83 82 81 81 80 79 79 79 77 78 82 83 86 89 89 90 90 91 91 91 92 92 92 96 98 102 106 107 108 107 104 101 99 97 96 94 92 92 91 91 91 90 90 89 89 89 89 90 90 93 96 98 97 97 96 95 92 92 92 94 94 92 90 90 89 88 88 88 89 88 89 89 90 90 91 92 91 89 86 86 85 84 84 86 86 87 87 88 88 88 88 87 87 87 86 86 85 85 85 86 86 86 86 86 86 86 85 85 85 85 85 84 84 84 84 82 80 81 81 82 83 83 83 83 83 82 82 81 81 81 81 81 81 81 81 81 81 81 81 81 81 81 81 81 81 81 80 78 77 77 76 76 77 77 77 76 76 76 76 76 78 80 80 79 79 79 79 80 80 79 79 78 78 77 77 77 77 80 80 80 81 83 83 84 85 86 86 86 85 85 86 86 86 87 87 86 86 86 88 88 88 87 86 86 87 88 88 89 89 87 87 88 89 88 87 86 83 82 81 79 77 75 76 77 76 74 73 73 73 76 77 79 80 80 80 80 81 83 85 85 85 84 84 83 81 79 78 78 77 76 75 75 75 75 75 74 72 72 72 72 72 71 71 70 69 69 69 69 68 67 67 65 65 64 64 63 61 62 64 66 68 68 69 69 68 68 68 67 67 66 66 66 65 64 63 63 63 62 62 62 62 61 61 60 59 58 58 59 59 61 62 63 63 64 64 64 63 63 63 63 63 64 64 64 64 64 64 65 65 65 65 66 66 66 66 66 66 66 66 66 66 66 66 66 66 66 66 65 65 65 66 69 71 73 73 73 72 71 69 68 67 65 64 63 63 63 63 63 63 63 63 64 64 64 62 62 62 62 62 62 62 62 62 62 63 63 63 62 62 62 63 63 62 62 63 63 63 63 63 63 63 63 63 64 64 64 64 64 65 65 65 66 69 71 72 74 76 77 79 79 81 84 84 84 84 84 84 84 83 83 83 81 81 81 81 81 81 81 81 80 80 80 79 79 77 77 74 73 73 72 71 71 70 70 70 69 69 68 69 70 71 69 68 68 67 67 66 66 65 65 65 65 66 68 70 72 74 76 77 76 73 74 78 76 77 77 75 74 74 73 73 72 71 70 68 68 68 66 62 59 59 58 58 58 58 58 58 58 58 58 58 58 58 58 58 59 59 60 60 60 59 59 59 58 58 58 58 58 58 58 58 58 58 59 59 60 61 62 62 61 61 60 60 60 59 59 59 60 60 60 60 60
77 77 76 74 74 73 73 72 69 64 59 55 52 50 48 48 48 49 49 53 58 61 62 60 57 55 52 49 48 46 45 45 44 43 42 42 42 42 42 43 45 47 50 52 51 47 46 46 45 45 45 46 47 50 51 54 56 59 63 68 73 74 71 68 66 64 62 62 62 63 64 65 66 66 66 66 68 70 71 73 73 73 73 73 72 72 72 73 73 73 73 73 75 75 75 76 76 77 77 77 78 78 76 74 74 73 72 71 70 71 72 71 71 69 71 75 77 77 74 71 70 72 72 69 67 67 66 63 58 56 56 55 54 54 54 54 54 54 54 53 53 53 54 54 54 53 53 53 53 53 53 53 54 55 54 53 53 53 53 53 53 53 53 53 54 55 55 55 55 55 54 50 49 48 48 48 48 48 48 48 48 48 48 48 48 48 48 47 48 50 53 54 53 52 50 49 49 48 47 45 45 45 45 45 44 44 44 44 44 44 43 43 43 43 43 43 43 44 44 44 45 46 46 50 54 59 62 64 65 66 66 66 66 66 67 68 70 71 72 73 75 76 78 80 80 80 79 77 74 70 69 69 68 67 67 67 67 68 68 68 66 66 64 62 59 57 57 57 56 56 56 56 56 56 56 55 55 55 55 55 55 56 56 56 56 56 56 56 56 56 56 56 56 56 57 57 57 57 57 57 57 57 58 58 60 60 61 61 61 61 61 61 61 61 60 58 57 57 57 57 57 57 57 57 57 57 57 57 58 58 59 60 61 61 61 61 62 62 63 63 63 63 63 63 63 64 70 74 76 76 76 77 78 78 79 79 79 79 79 81 81 82 81 81 81 81 81 81 80 80 78 75 74 74 75 76 77 77 79 81 81 81 81 80 80 80 81 81 82 82 81 81 82 84 85 86 85 86 85 82 81 81 78 78 82 83 86 88 89 91 91 91 91 91 92 92 92 96 98 102 106 108 110 108 105 103 100 98 97 95 93 92 91 91 91 90 90 89 88 88 89 90 90 91 92 95 95 95 95 94 92 91 92 93 93 91 90 90 89 88 88 87 87 87 88 89 89 90 90 90 90 88 86 86 86 86 86 87 87 87 88 88 88 88 88 87 87 87 86 86 86 86 86 86 86 86 85 85 85 85 84 84 84 84 84 84 84 84 82 81 80 80 80 82 83 83 83 83 83 82 82 81 81 81 81 81 81 81 81 81 81 81 80 80 80 80 80 82 82 82 80 77 76 76 76 76 76 76 76 76 76 76 76 76 76 78 79 79 80 80 80 80 80 80 80 80 80 79 77 77 78 80 82 83 84 84 84 84 85 86 86 86 86 85 86 86 86 86 86 86 86 86 88 88 88 86 86 87 89 89 89 89 89 88 88 89 89 89 88 87 84 83 82 80 78 76 77 78 79 78 74 73 73 74 75 77 78 78 79 79 79 81 83 83 83 83 82 81 79 78 77 77 76 75 74 74 74 74 74 74 73 73 72 72 72 71 71 71 70 70 69 69 68 67 67 66 66 66 65 63 63 64 65 66 68 68 69 69 68 68 68 67 67 67 66 66 65 65 65 64 64 64 63 63 62 61 61 60 60 59 59 59 60 61 62 63 64 65 65 65 64 64 64 64 64 64 64 64 64 64 65 65 65 65 65 65 66 66 66 66 66 66 66 66 66 66 66 66 66 66 66 66 65 65 66 68 71 74 74 74 73 71 70 69 68 66 65 63 63 63 63 63 63 63 63 63 63 63 62 62 62 62 62 62 62 62 63 63 63 63 62 62 62 62 63 63 63 63 63 63 63 63 63 63 63 63 64 64 64 64 64 64 65 65 65 65 68 70 72 74 76 76 78 79 81 84 84 85 85 85 84 84 83 83 83 81 81 81 81 81 81 81 81 80 80 79 78 78 77 77 74 72 72 72 71 71 70 70 69 68 68 68 68 68 68 68 68 67 67 66 66 66 66 66 66 66 66 69 70 72 74 74 76 76 73 74 78 79 78 78 75 74 74 73 73 72 71 70 68 68 67 64 62 59 59 58 58 58 58 58 58 58 58 58 58 58 58 58 58 58 59 60 60 60 60 60 59 59 59 58 58 58 58 58 58 58 58 59 59 60 60 61 61 60 60 60 60 60 59 59 59 59 59 60 60 60
78 76 76 75 74 73 72 71 69 64 59 55 52 50 49 49 49 49 50 54 61 64 63 58 57 55 52 50 49 47 46 45 45 44 43 42 42 42 42 42 45 47 49 50 49 47 46 46 45 45 45 46 47 50 54 58 60 61 65 68 70 71 70 69 67 65 64 64 64 65 65 66 68 68 67 67 68 70 72 73 73 74 74 74 73 73 73 74 74 73 73 73 75 75 75 76 76 77 79 80 81 79 75 74 73 72 71 70 71 72 73 73 71 69 72 74 76 76 73 70 69 72 72 71 69 67 64 61 58 56 56 55 54 54 54 54 54 54 54 53 53 53 54 54 54 53 53 53 53 53 53 53 54 56 54 53 53 53 53 53 53 53 53 53 53 54 54 53 53 52 51 50 49 48 48 48 48 48 48 48 48 48 48 48 48 48 49 50 53 54 54 53 51 50 49 49 48 47 46 45 45 45 44 44 44 44 44 43 43 43 43 43 43 43 43 44 44 44 44 44 45 46 47 50 54 58 63 65 66 67 67 67 67 67 68 69 70 71 72 74 77 79 81 82 82 81 81 79 77 73 71 70 69 68 67 67 68 68 68 68 66 66 64 62 60 57 57 56 56 56 56 56 56 56 56 55 55 55 55 55 55 56 56 56 56 56 56 56 56 56 56 56 56 57 57 57 57 57 57 57 57 57 58 59 60 61 61 60 60 60 60 60 61 61 60 57 57 57 57 57 57 57 57 57 57 57 57 57 58 58 59 61 62 63 63 62 63 64 63 63 63 64 64 63 63 64 69 72 74 76 76 76 77 77 78 78 78 78 79 81 81 83 83 82 82 81 81 82 84 84 79 74 74 75 77 79 80 81 81 82 82 81 80 80 80 80 81 82 83 82 81 80 81 83 85 86 88 88 88 84 81 83 78 78 82 83 86 88 89 91 91 92 92 92 92 92 92 96 98 102 105 108 110 110 107 104 102 99 98 96 94 92 91 90 90 90 90 89 88 87 88 89 89 90 90 92 93 94 94 92 91 90 90 91 91 90 89 89 88 87 87 87 87 87 86 87 88 89 90 89 88 86 86 86 86 86 86 86 86 86 87 87 87 87 88 87 87 87 86 86 86 86 85 85 85 85 85 85 84 84 84 84 84 84 84 84 83 83 81 80 80 80 81 81 83 83 83 82 82 82 82 81 80 80 80 80 80 81 81 81 81 81 80 80 80 80 80 81 82 82 79 76 76 76 76 76 76 76 76 76 76 76 76 76 76 76 78 78 80 80 80 80 80 80 80 80 81 81 79 79 80 81 82 84 85 86 85 85 85 86 86 88 87 86 86 86 86 86 86 86 87 87 88 88 88 87 88 89 90 90 89 89 89 89 89 89 89 88 87 87 85 83 82 81 79 78 77 78 80 79 78 75 74 74 75 76 77 78 78 79 79 79 81 81 81 80 80 79 79 77 77 76 75 75 74 74 74 74 74 74 73 73 72 71 71 71 71 71 70 70 69 69 69 68 68 68 67 66 65 65 64 65 65 67 67 68 68 68 68 67 67 66 66 66 66 66 66 65 65 65 64 64 63 63 62 62 62 60 59 59 60 60 61 62 62 64 65 65 65 65 65 65 65 65 65 64 64 64 64 64 65 65 65 65 65 65 65 65 66 66 66 66 66 66 66 66 65 65 65 66 67 67 67 66 66 67 71 74 74 75 74 72 70 70 68 66 65 63 63 63 63 63 63 63 63 63 63 63 62 62 62 62 62 62 62 62 62 62 62 62 62 62 62 62 63 63 63 63 63 63 63 63 63 63 63 63 64 64 64 64 64 64 65 65 65 65 67 69 71 73 75 76 78 78 81 83 84 85 84 84 84 84 83 83 83 81 81 81 80 80 80 80 80 79 79 79 78 78 77 76 74 72 72 72 71 71 70 70 69 68 68 67 68 68 68 68 68 67 67 66 66 66 65 65 66 67 67 69 70 71 73 74 74 75 74 74 78 79 78 77 75 73 73 72 72 72 71 71 70 68 66 64 62 60 58 58 58 58 58 58 58 58 58 58 58 58 58 58 58 58 59 59 59 59 60 60 59 59 59 58 58 58 58 58 57 57 57 58 59 59 59 60 60 60 60 59 59 59 59 59 59 59 59 59 59 59
