ncols         871
nrows         31
xllcorner     -77.8
yllcorner     38.25119
cellsize      1.0E-5
NODATA_value  -9999
129 129 130 130 131 133 134 134 135 136 137 138 138 138 138 139 140 141 143 143 143 142 142 140 139 138 138 138 139 140 141 142 141 140 139 138 137 138 140 141 141 140 140 140 140 140 139 138 138 139 140 141 142 141 140 140 139 139 137 137 135 133 133 132 130 129 129 128 129 130 131 130 130 129 128 127 127 126 125 124 124 124 125 125 125 125 124 123 122 119 118 120 122 123 123 123 125 127 128 127 126 126 125 124 122 121 118 116 116 117 113 110 112 115 115 114 116 118 118 116 112 109 108 106 105 103 102 100 98 96 95 95 97 99 101 103 105 107 110 114 116 118 118 117 116 114 112 113 114 114 115 114 113 116 119 122 124 125 126 126 126 126 125 125 125 125 125 125 126 127 128 128 128 128 129 130 129 128 127 126 124 122 121 121 121 122 122 122 124 125 126 127 127 128 129 130 130 130 131 132 132 132 132 131 132 132 132 131 132 133 133 132 132 134 134 134 134 133 132 132 131 130 130 130 129 128 128 130 131 131 131 132 131 131 130 129 127 127 126 125 124 125 126 127 127 127 126 125 124 123 121 119 117 117 116 115 115 115 116 116 117 119 120 119 117 115 114 113 112 111 110 110 112 112 114 115 115 115 115 115 115 117 118 120 121 122 123 124 124 124 123 123 122 121 120 120 119 118 117 116 114 113 112 112 113 115 115 114 114 114 115 115 117 118 116 114 113 113 113 113 113 115 115 116 116 115 115 115 116 116 115 114 114 113 112 112 112 112 111 109 108 108 107 107 107 106 105 103 102 102 103 104 105 106 105 105 106 107 107 105 102 100 100 102 103 101 98 96 97 99 103 105 106 105 104 104 104 105 104 102 102 105 106 107 107 107 107 106 106 106 105 104 104 103 102 102 102 103 105 106 105 104 103 103 102 102 101 100 99 98 97 97 97 97 98 99 101 102 101 101 100 99 97 95 94 93 91 89 88 88 91 93 95 97 97 94 90 87 84 82 81 79 79 78 78 79 79 78 78 78 78 80 82 82 81 81 82 83 85 86 88 90 91 95 98 100 101 101 101 102 104 105 106 106 105 105 105 107 109 110 110 110 111 112 111 111 111 110 108 104 99 95 94 96 94 89 90 93 94 92 92 95 97 96 95 92 90 89 89 89 90 93 95 96 97 98 98 97 96 96 96 97 97 96 95 96 97 97 95 93 93 93 93 93 91 88 89 92 94 92 90 91 92 94 96 97 99 100 101 100 97 94 92 90 88 86 84 82 81 82 83 84 85 86 86 87 88 88 87 87 86 87 88 90 91 92 91 91 91 91 90 90 90 91 93 94 94 96 97 96 94 92 93 93 93 94 94 94 94 92 91 92 94 94 94 94 91 90 92 91 90 90 91 92 93 94 95 97 97 98 100 101 102 101 101 100 100 99 99 99 99 98 96 94 92 91 90 90 93 95 96 97 97 97 97 95 94 95 97 98 99 99 98 98 99 101 103 104 102 102 104 107 108 108 108 107 107 107 108 108 107 106 105 104 103 103 102 101 101 101 100 100 98 98 98 98 98 97 97 95 91 92 93 92 92 93 95 97 97 97 98 99 99 99 99 100 100 101 102 102 102 102 102 102 102 102 102 103 103 103 103 103 103 103 103 102 102 101 100 100 100 100 100 100 100 101 101 101 102 101 100 98 95 98 101 102 99 94 90 91 97 100 102 103 104 104 104 103 102 100 98 98 100 100 101 100 99 97 95 94 94 94 95 96 97 96 94 93 92 92 93 93 92 91 91 90 89 88 88 88 87 86 86 86 86 86 86 86 85 85 84 83 82 83 84 85 85 83 82 80 79 78 75 73 72 76 80 81 81 81 80 79 78 78 76 76 76 76 75 75 76 76 75 70 67 65 64 63 62 63 63 62 63 65 63 62 61 64 59 64 58 56 61 66 66 66 68 64 63 65 61 55 54 52 49 47 45 44 43 43 43
130 130 130 130 130 132 133 134 136 137 138 139 140 140 141 141 142 142 143 144 143 143 142 140 139 138 137 137 138 139 140 140 140 139 138 137 136 137 139 140 140 140 139 139 139 139 137 136 137 138 140 141 141 141 140 140 139 138 136 136 134 133 133 132 131 131 130 129 130 131 130 130 129 128 127 127 126 125 124 124 123 123 122 122 123 123 122 122 121 119 118 119 120 121 121 122 124 126 127 127 126 126 125 125 123 122 120 118 118 117 113 111 113 116 116 115 117 119 118 116 114 111 109 107 107 106 105 103 100 97 95 96 99 101 104 106 107 109 111 115 116 119 118 118 117 115 114 115 116 116 118 116 114 115 118 121 123 124 125 127 127 127 126 124 124 124 124 125 125 126 127 128 128 128 128 128 128 127 126 125 124 122 121 121 121 121 121 123 125 127 128 128 128 129 129 130 131 131 132 133 133 133 133 132 133 133 133 133 134 134 134 133 134 134 134 134 134 133 132 131 130 129 129 129 128 127 127 129 130 130 130 131 131 130 129 128 127 126 125 124 124 125 126 128 128 128 127 126 124 123 121 119 119 119 117 115 115 115 115 115 116 118 119 118 117 115 114 113 113 111 109 109 111 113 114 114 113 113 114 115 116 118 119 120 120 121 122 123 123 124 124 124 123 122 121 121 120 119 118 116 114 112 111 111 112 114 114 113 112 113 115 116 117 118 117 115 113 112 112 112 112 114 114 115 114 114 114 115 116 115 114 113 112 112 111 111 112 112 111 109 108 108 107 106 106 106 106 104 103 101 101 103 104 106 105 104 104 105 106 106 104 102 101 102 103 101 98 97 98 100 103 105 104 104 103 103 103 105 105 104 105 106 107 107 107 107 106 106 105 105 104 103 103 102 101 101 102 103 105 105 104 103 103 103 103 103 102 101 100 99 98 97 96 96 96 98 100 101 101 101 100 99 97 96 95 95 93 90 88 88 88 90 93 96 96 94 93 90 87 83 80 80 79 78 78 78 78 78 78 79 80 81 82 82 82 81 81 83 84 84 85 87 90 94 97 98 99 98 99 101 104 105 107 108 108 107 107 108 109 110 111 110 110 110 110 109 109 109 108 104 100 94 91 93 93 90 90 92 92 91 92 95 97 96 94 93 91 89 89 89 91 94 95 96 97 98 97 96 95 94 94 95 96 96 96 96 97 97 95 94 94 94 94 93 91 88 89 92 94 93 90 91 93 94 95 97 99 100 100 100 97 95 94 93 91 88 84 82 81 82 85 85 85 87 88 88 89 89 89 88 88 88 88 89 91 92 92 92 93 92 91 91 91 93 93 94 94 95 97 97 95 94 94 95 95 95 96 96 94 93 92 92 94 95 95 94 92 91 93 93 91 90 92 93 93 94 95 96 97 98 99 101 102 102 101 101 100 99 99 100 100 98 97 95 93 92 91 90 91 94 96 96 96 97 98 95 94 95 96 97 98 98 97 97 99 101 102 102 101 101 104 107 109 109 108 106 106 106 107 107 107 107 106 105 104 103 102 102 101 101 100 99 98 97 97 97 97 97 95 93 93 95 95 94 94 93 95 97 99 99 100 100 100 100 100 100 101 102 102 103 103 103 102 101 101 101 101 102 102 102 103 103 103 103 103 102 101 101 100 100 100 100 100 100 100 100 101 102 102 101 100 98 96 100 102 103 100 95 93 92 96 100 102 103 103 104 103 102 102 100 99 99 100 101 101 100 99 97 95 94 94 95 95 96 96 96 94 93 93 94 94 94 93 92 91 91 90 88 88 88 87 87 87 87 86 86 85 85 85 84 84 82 82 83 84 85 84 83 81 79 78 76 74 73 73 76 80 81 82 81 79 79 78 77 76 76 76 76 75 75 75 75 73 68 67 66 65 64 62 63 63 64 67 69 67 67 66 66 62 65 59 58 63 67 68 68 69 67 65 66 63 57 56 58 55 53 51 48 47 44 40
131 131 131 130 130 132 133 134 135 137 138 140 141 141 142 143 143 143 144 144 144 143 142 140 139 138 137 136 136 137 138 139 139 138 137 136 135 136 138 139 139 138 137 137 137 137 136 136 138 139 140 141 141 141 140 140 139 138 137 136 135 135 135 134 133 132 131 130 131 131 130 129 128 127 127 127 127 127 126 124 123 123 122 121 121 120 118 118 118 118 117 117 118 118 119 122 124 126 126 126 126 125 125 125 124 123 122 121 119 117 114 113 115 118 118 117 117 119 118 116 115 113 111 109 107 107 106 105 102 99 96 96 101 103 106 108 109 110 113 115 116 117 118 118 118 117 116 118 120 120 120 119 116 116 119 120 121 123 125 127 128 127 125 124 124 124 124 124 124 125 126 127 128 127 127 127 128 127 125 124 123 121 121 121 121 122 122 124 125 127 128 129 129 130 130 130 131 132 133 133 134 134 133 133 133 134 134 134 134 135 134 134 134 135 134 134 134 133 132 131 130 129 127 127 128 127 127 127 128 128 129 130 131 130 129 128 127 125 124 124 125 126 127 128 129 128 127 126 124 122 121 120 121 120 119 117 115 114 114 114 114 116 117 117 116 115 114 114 113 112 110 109 110 112 113 112 112 113 115 116 117 118 119 118 118 119 120 121 122 123 124 124 123 121 121 121 121 119 118 117 115 113 112 111 111 112 112 112 112 114 116 117 118 118 118 116 114 112 112 112 112 112 112 113 112 112 113 114 115 114 113 111 111 110 109 110 111 112 111 109 108 107 106 106 106 106 106 105 103 101 100 101 103 104 104 103 103 104 105 106 106 105 104 104 104 102 99 98 100 103 103 103 103 103 103 103 104 106 106 106 106 107 107 107 106 106 105 105 105 104 103 102 101 100 100 100 102 103 104 104 104 103 102 103 104 103 103 102 101 100 98 97 96 96 95 95 97 99 100 100 100 99 98 97 97 97 95 93 91 88 87 88 90 93 95 95 95 94 91 85 81 80 79 79 78 78 78 78 78 81 83 83 83 84 85 85 85 87 88 88 88 87 88 91 94 95 95 96 99 102 104 106 108 109 109 108 108 109 109 110 111 109 108 108 109 108 106 106 106 103 98 93 90 90 91 89 89 90 89 90 92 93 94 94 94 94 92 90 89 89 91 92 94 96 97 97 96 95 92 91 92 93 95 96 97 97 97 97 96 95 95 95 94 93 91 89 89 91 93 94 92 92 94 95 96 97 98 99 100 100 98 97 96 96 93 90 86 82 81 83 85 86 86 87 88 90 90 90 90 90 90 90 89 90 92 93 93 94 94 93 91 92 93 94 94 94 94 95 96 97 97 96 97 97 97 97 97 97 96 94 93 93 94 96 96 95 94 93 94 94 91 91 92 94 95 96 96 96 97 98 99 101 102 102 102 102 101 101 101 101 100 99 97 96 94 93 91 90 90 92 94 95 95 97 98 96 93 94 95 96 97 97 96 96 98 100 100 100 99 101 104 107 109 109 108 106 105 105 105 106 107 106 106 105 104 103 102 102 101 101 100 99 98 97 97 97 95 94 93 94 96 98 99 97 96 94 95 96 98 100 100 101 101 101 101 101 102 103 103 103 103 103 102 101 101 101 100 100 101 102 103 103 103 103 103 103 101 100 100 100 100 100 100 100 100 100 101 101 102 101 100 98 97 100 102 103 100 97 95 94 95 98 100 102 103 103 103 102 100 100 100 100 100 101 100 100 98 97 95 95 95 96 96 96 96 96 95 94 94 94 94 94 93 92 91 91 90 89 89 88 88 88 87 87 86 86 85 85 84 83 83 82 81 82 83 84 83 81 79 77 76 76 74 73 76 80 80 81 81 80 79 78 78 77 76 76 76 76 75 74 75 73 69 68 69 71 70 68 68 67 65 67 69 69 69 69 69 66 65 65 65 65 67 69 71 71 70 70 69 69 66 62 59 64 62 61 56 54 54 54 53
133 133 133 133 132 132 133 133 134 136 137 140 141 142 143 144 144 144 145 144 144 143 142 140 139 138 137 136 135 135 136 137 137 137 136 135 134 135 137 137 136 135 135 136 135 135 136 137 139 140 140 141 141 141 141 140 139 139 138 138 137 137 137 136 134 133 132 132 131 131 130 130 129 129 128 129 129 129 127 126 127 126 125 123 122 121 119 118 118 117 116 116 116 116 117 120 122 123 124 125 124 123 122 123 124 123 123 121 120 117 116 115 116 119 119 118 117 117 117 116 114 113 111 109 107 107 106 105 102 99 96 98 102 105 108 109 110 112 113 114 115 115 116 117 118 118 119 120 121 122 123 122 119 117 119 121 122 124 125 127 127 126 125 124 124 124 123 123 123 124 125 126 126 126 125 125 126 126 124 123 122 121 121 121 122 123 124 125 126 128 129 130 130 131 131 132 132 133 133 134 134 134 134 133 133 134 135 135 135 135 135 135 135 135 134 134 134 133 132 131 130 129 127 125 125 126 125 125 126 127 129 130 130 129 129 128 127 124 124 124 124 126 128 129 129 128 127 125 123 122 122 122 122 121 121 119 116 114 112 112 113 113 114 115 114 114 113 113 113 112 110 109 109 110 111 112 113 115 116 118 118 118 119 118 117 117 118 120 121 122 123 123 123 122 121 121 120 119 119 118 116 114 112 110 109 111 111 111 113 115 116 117 118 119 119 117 115 113 111 110 110 110 112 112 111 111 113 113 114 113 112 110 109 109 108 108 110 112 111 109 108 107 106 106 105 104 104 104 103 101 100 100 101 103 103 102 102 103 105 106 107 107 106 106 106 104 102 101 103 105 104 103 102 102 102 103 104 106 106 106 106 105 105 105 105 104 104 103 103 103 103 101 100 100 100 101 103 103 104 103 103 102 101 102 104 104 103 102 101 100 99 99 99 98 96 94 96 98 98 98 99 99 98 98 98 98 97 96 94 90 87 87 88 91 94 95 96 96 93 87 81 80 79 79 78 78 78 78 80 82 84 85 85 85 86 87 89 90 92 93 92 91 89 89 91 93 95 98 101 103 105 107 108 109 109 109 109 110 110 110 110 108 106 106 107 106 103 103 103 102 99 95 91 89 88 87 87 87 89 90 92 93 93 93 94 94 91 89 88 89 90 92 94 97 97 96 95 93 91 91 92 93 94 95 96 97 97 97 96 96 97 97 96 95 93 91 90 91 93 95 94 93 94 96 97 98 99 99 100 98 97 96 97 96 94 90 86 82 82 84 85 85 85 86 87 88 90 91 91 91 90 91 91 90 92 94 95 96 96 94 93 93 94 95 95 96 96 96 96 97 99 99 99 99 99 99 99 98 97 96 95 94 94 96 97 97 96 94 95 95 93 92 92 93 94 95 96 97 97 99 101 102 102 103 103 103 103 102 102 100 99 98 97 95 94 93 92 91 90 90 92 93 94 96 97 96 93 92 94 95 95 95 95 96 97 98 98 97 97 100 104 107 109 109 108 106 104 103 104 105 105 105 105 105 104 103 102 102 101 100 100 99 98 98 99 99 97 96 93 95 99 100 100 99 97 96 96 96 97 99 100 101 101 102 102 102 102 103 103 103 102 102 101 101 101 100 100 100 100 101 102 103 103 103 103 103 102 101 100 100 99 99 98 99 99 100 100 101 101 101 101 101 100 101 102 103 101 99 98 97 97 98 100 101 102 103 103 102 100 100 100 100 100 101 100 100 98 97 96 96 96 96 97 97 97 96 96 95 95 95 94 94 93 92 91 91 90 90 89 89 88 87 86 86 85 85 85 85 83 82 82 81 81 82 82 82 81 81 79 76 75 75 74 75 80 82 81 81 81 80 79 78 78 77 77 76 76 76 75 73 72 70 69 70 72 73 73 72 71 69 66 68 69 70 70 70 70 67 66 66 70 72 72 73 73 73 72 73 72 71 70 65 61 64 66 61 58 60 62 61 61
134 134 134 135 135 135 135 135 134 136 136 138 140 142 143 144 145 145 145 144 143 143 141 139 138 137 136 135 134 134 134 135 136 136 135 134 134 135 136 135 134 134 134 135 134 134 136 138 140 141 141 141 141 141 140 140 139 139 139 138 138 138 137 136 135 133 133 132 132 131 131 130 130 129 129 130 130 130 129 128 128 128 127 126 125 123 123 122 122 121 119 117 115 115 116 117 119 121 123 124 123 121 119 120 122 123 123 122 121 120 118 117 117 119 119 118 117 115 114 113 112 110 109 108 107 106 106 104 101 98 96 98 103 105 108 110 111 112 113 113 113 114 114 115 115 116 118 119 121 123 124 124 122 120 120 122 124 125 126 127 127 126 126 124 124 123 123 123 123 123 123 124 125 124 124 124 125 124 123 122 120 120 121 121 124 125 126 127 127 128 129 130 131 131 131 132 133 133 134 134 134 135 134 134 134 134 135 135 135 135 135 135 135 135 134 134 134 133 132 131 130 130 128 125 125 125 124 124 126 128 130 130 130 129 128 127 126 124 124 124 124 127 128 130 130 129 127 125 123 123 123 123 123 121 120 119 117 115 113 112 112 112 112 113 112 112 112 112 112 112 111 109 109 109 111 113 115 116 117 118 118 118 118 117 116 115 116 118 120 122 123 123 122 122 121 120 120 120 119 118 117 115 112 110 109 109 110 111 113 115 116 117 118 119 119 118 116 114 112 110 109 109 110 110 109 110 112 113 113 112 111 109 109 108 108 108 109 110 110 109 108 107 107 106 105 104 103 103 102 100 100 100 100 102 102 101 101 102 104 106 108 108 108 107 107 106 105 104 105 105 103 101 100 101 102 103 104 106 106 106 105 104 103 103 103 104 103 103 103 103 102 101 99 99 100 101 103 104 103 102 101 100 100 101 103 104 103 102 101 100 99 100 102 101 97 94 95 96 97 97 98 99 99 99 99 99 98 97 95 91 88 86 86 89 93 94 96 96 93 87 81 79 79 79 79 78 78 79 81 82 82 83 84 86 87 88 90 92 94 95 96 96 94 92 91 94 96 99 101 103 106 107 109 109 109 109 110 110 110 110 109 107 104 104 106 105 102 99 100 100 99 97 95 92 90 87 86 87 89 90 92 93 93 93 94 94 92 89 88 88 89 92 95 97 96 95 93 91 90 91 95 96 95 95 96 97 98 98 97 98 98 98 98 97 95 94 91 91 93 96 96 94 94 96 97 99 99 100 99 97 95 93 93 93 92 89 86 83 82 83 84 85 85 85 86 87 89 91 92 92 92 92 92 91 92 93 95 96 96 95 94 94 94 95 96 96 97 97 97 98 99 100 100 100 100 100 100 99 99 98 97 95 94 96 97 97 97 96 96 96 95 93 93 93 93 94 95 96 97 99 101 103 103 103 104 104 104 103 102 100 99 97 96 94 94 95 95 94 91 90 90 91 93 95 96 95 92 91 93 94 94 94 95 96 97 98 97 96 96 100 102 105 108 109 108 107 104 103 102 103 103 103 103 104 104 103 102 102 101 100 100 99 98 99 100 100 99 98 94 96 100 100 101 100 98 98 97 97 97 98 100 101 102 102 103 103 103 103 103 103 102 101 101 101 101 100 100 100 100 102 102 103 104 104 104 103 102 101 100 100 99 98 97 97 97 98 99 100 101 101 102 102 101 101 102 103 102 101 100 100 99 99 100 101 102 102 102 102 100 100 100 100 101 101 100 100 98 97 97 97 97 97 97 98 98 97 97 96 96 95 95 94 94 93 92 91 91 90 89 88 88 86 85 85 85 85 85 84 83 82 82 81 80 80 80 80 80 79 78 76 74 74 75 79 81 82 82 81 80 79 79 78 77 77 76 76 76 76 75 73 71 69 70 72 73 74 75 74 72 70 67 68 69 70 71 71 70 68 68 68 70 74 75 74 74 74 74 74 73 72 71 67 64 65 65 61 63 65 66 63 61
134 135 135 136 137 137 138 139 138 136 136 137 139 140 142 143 144 145 145 144 143 142 140 139 138 136 135 134 133 133 133 134 134 135 134 133 133 134 134 133 133 133 134 134 133 133 136 138 139 140 140 140 141 141 140 139 138 136 137 138 138 138 137 137 136 133 133 132 132 132 132 131 130 130 131 132 132 131 130 130 131 130 129 128 128 127 126 126 125 124 123 120 117 114 114 114 116 119 120 122 121 120 118 119 121 122 123 122 122 121 120 119 119 119 119 118 117 115 113 111 110 108 107 106 105 104 104 102 99 97 97 99 102 104 106 107 107 108 109 110 111 111 112 112 114 115 117 118 119 121 122 124 124 122 120 121 124 126 127 128 128 127 127 125 124 123 123 123 122 122 122 122 123 123 122 122 123 123 121 120 119 119 120 121 124 125 126 127 128 128 129 129 130 130 131 132 132 133 133 133 134 134 134 134 134 134 134 134 134 134 134 134 134 134 134 134 134 133 132 131 131 130 128 126 124 124 124 125 127 130 130 130 130 129 128 127 125 124 124 124 125 127 129 130 130 129 127 126 125 125 124 124 123 121 121 118 116 115 114 114 113 112 112 112 111 111 111 110 109 109 109 109 109 109 112 113 115 115 116 117 118 119 118 117 115 115 116 118 119 121 122 122 122 121 120 118 118 119 119 119 117 115 112 110 109 109 109 111 113 114 116 117 118 118 119 118 117 115 113 112 110 109 109 109 109 109 111 112 112 112 111 109 109 109 108 108 108 109 110 109 109 107 106 105 104 104 103 103 101 100 99 99 99 101 101 100 100 101 104 106 108 109 109 108 107 107 106 106 105 104 101 100 100 101 103 104 104 105 106 105 104 103 102 100 101 102 101 101 101 102 101 100 98 98 100 101 103 103 102 100 99 98 99 101 103 104 103 102 101 100 101 102 103 102 99 95 94 94 95 96 98 98 99 99 100 100 98 97 95 92 88 85 85 88 91 93 95 95 92 85 80 78 78 78 78 78 79 79 80 81 81 81 83 85 87 89 91 93 94 95 97 98 97 96 95 94 95 97 99 101 104 106 107 108 109 109 109 109 110 110 108 106 102 101 104 104 101 97 97 97 96 96 96 95 92 88 85 86 89 90 92 93 92 92 93 94 93 89 88 88 89 93 95 96 95 93 91 90 91 93 96 97 97 96 96 97 98 99 99 99 100 100 100 99 98 96 92 91 93 96 97 97 96 96 97 99 100 100 98 96 93 91 90 90 89 87 85 83 82 82 84 85 85 87 87 87 88 90 92 93 93 94 94 93 93 94 96 98 98 96 94 94 95 96 97 98 98 98 99 99 99 100 101 101 101 101 100 100 100 99 98 97 95 96 97 98 98 98 98 98 97 96 95 94 93 93 96 98 100 101 102 103 104 105 105 105 104 103 101 100 99 97 96 95 96 97 97 95 93 90 88 89 91 93 94 93 91 91 92 92 92 93 95 97 97 97 95 94 96 98 100 102 105 107 108 107 105 103 100 101 101 101 102 103 104 103 102 102 101 101 100 99 99 100 100 101 99 97 95 96 100 101 101 101 100 99 99 98 98 99 100 101 102 103 103 103 103 103 103 102 102 101 100 100 100 100 100 100 100 101 102 103 104 104 104 103 103 102 101 100 100 99 97 97 97 97 98 100 100 101 101 101 101 101 102 102 102 101 101 101 100 100 100 101 101 101 102 102 101 101 101 101 101 101 100 100 99 98 98 97 97 97 97 98 98 97 97 97 96 96 96 95 95 94 93 92 91 90 89 88 87 86 85 85 85 84 84 83 83 82 82 81 80 79 78 78 78 78 77 75 74 77 80 82 82 82 82 81 80 79 78 78 77 76 76 76 76 75 74 73 71 70 71 73 75 75 76 75 73 71 68 68 69 70 71 71 71 69 69 70 70 74 76 76 76 76 75 75 74 73 72 69 67 68 65 63 66 68 67 64 60
134 135 136 137 139 140 140 141 140 138 137 137 138 139 140 142 143 143 144 144 143 143 141 139 138 137 136 135 133 132 132 132 133 133 133 132 132 133 133 132 132 132 133 133 132 133 136 137 137 138 139 139 140 140 140 139 138 135 135 136 137 138 137 137 135 133 133 133 133 133 132 132 132 132 132 133 133 133 133 132 132 131 131 130 130 129 128 127 127 126 124 123 120 115 113 112 113 116 118 120 120 118 117 118 119 121 122 122 122 121 120 120 119 119 119 118 117 115 113 111 109 107 106 105 103 103 102 100 98 97 98 99 100 103 104 104 104 105 105 107 108 109 112 113 114 117 118 119 120 122 123 124 125 124 122 122 124 126 128 128 128 128 127 125 124 124 123 122 122 121 121 121 122 122 121 121 121 121 120 119 118 119 120 121 123 125 126 127 127 127 127 128 129 130 131 131 131 131 132 132 133 133 133 133 133 133 134 134 134 134 134 134 134 134 133 133 133 133 132 132 131 130 129 127 125 123 123 125 126 129 130 130 129 128 127 126 125 124 124 124 126 128 129 130 130 129 128 127 127 126 125 123 121 121 120 117 115 115 115 115 114 112 112 112 111 110 109 109 109 109 109 109 109 109 111 112 113 114 115 116 118 118 118 117 114 113 115 117 119 120 120 121 121 120 118 117 117 119 119 118 117 115 113 111 109 109 109 110 112 114 115 116 116 117 118 118 117 115 113 111 110 109 108 108 108 109 110 112 112 112 112 112 111 109 108 107 107 107 109 110 109 107 105 104 103 102 101 101 101 100 99 98 98 100 100 100 100 101 103 105 107 108 107 107 106 106 106 105 104 102 100 99 100 102 103 104 104 104 104 104 104 103 101 99 99 100 100 100 100 101 100 99 97 97 99 101 103 102 101 99 97 96 98 101 103 104 103 102 102 101 101 102 102 101 99 97 94 93 93 94 97 98 98 99 99 99 98 97 96 93 89 86 85 86 89 92 94 94 90 84 79 78 77 77 77 77 78 79 79 79 80 82 84 85 87 89 91 92 94 95 97 98 100 100 98 98 98 100 101 103 104 105 106 107 107 108 108 108 108 109 108 105 101 99 101 103 100 97 95 95 94 94 96 97 93 89 85 86 87 89 93 93 92 91 93 94 92 89 87 87 90 93 94 93 92 91 89 91 94 96 97 98 98 97 97 97 98 99 99 100 100 101 100 99 98 96 93 92 93 96 97 97 97 97 97 99 100 99 97 95 92 90 88 87 86 85 84 83 83 83 84 86 87 89 90 89 88 89 91 93 94 95 95 95 94 95 97 99 99 97 96 96 96 97 98 98 99 99 100 100 100 100 101 101 101 101 101 101 101 100 100 99 97 97 97 98 98 98 99 99 99 98 97 96 94 93 96 99 102 104 105 105 105 106 106 105 104 103 102 101 99 98 97 96 96 96 96 95 93 91 88 88 89 92 93 91 91 91 91 91 93 94 96 96 96 95 94 94 95 96 97 101 103 105 106 106 105 103 100 99 99 100 101 103 104 103 102 102 101 101 100 100 100 100 101 100 98 97 96 96 100 101 102 102 101 101 101 100 99 99 100 101 102 103 103 104 104 103 103 102 102 101 100 100 100 100 100 100 100 101 101 103 104 104 104 104 103 103 102 101 100 99 98 97 97 97 98 99 100 100 100 100 100 101 102 102 102 101 100 99 99 99 99 100 100 101 101 102 102 102 102 102 101 101 101 100 100 99 99 98 98 98 98 97 97 97 97 97 97 97 97 96 95 94 93 92 91 90 88 88 87 87 86 85 85 84 83 82 82 82 81 81 80 79 78 78 77 76 76 75 75 80 82 82 83 82 81 80 79 78 78 78 77 76 75 75 74 73 72 72 72 72 72 74 76 76 76 76 74 71 69 69 69 70 71 72 72 71 72 72 72 74 76 76 76 76 76 75 74 73 72 71 70 69 65 65 68 69 68 64 60
134 135 137 138 140 141 142 142 142 140 139 138 138 139 139 140 142 143 143 143 143 143 141 140 139 137 136 135 133 132 131 131 131 132 132 131 131 132 132 131 131 131 132 132 131 131 134 135 135 136 137 138 139 139 139 137 135 134 134 136 137 138 137 136 135 135 135 135 133 133 133 133 133 133 133 134 134 134 133 133 132 132 131 130 129 128 128 127 127 126 124 123 120 117 115 112 112 113 115 116 117 116 116 118 119 120 121 122 122 121 120 120 119 118 118 118 116 114 112 111 110 109 108 107 106 105 104 102 99 98 98 99 100 102 102 103 104 105 106 108 110 112 114 116 118 119 121 122 123 123 124 126 127 126 125 124 124 126 128 128 128 127 126 125 124 124 123 122 122 121 121 121 121 122 121 120 119 119 119 118 119 120 121 122 124 125 125 125 125 125 127 128 129 129 130 130 130 130 131 132 132 131 131 131 131 133 133 133 133 133 133 133 133 134 133 133 133 133 132 132 131 130 129 127 125 123 121 123 125 127 129 130 129 128 127 127 125 124 124 124 127 129 130 131 130 130 129 128 127 126 124 123 121 119 118 117 116 116 116 115 114 113 112 112 112 111 110 110 110 109 109 108 108 109 109 111 112 113 115 116 116 116 116 115 114 113 115 117 118 119 119 120 120 119 117 116 116 118 119 118 117 116 114 112 111 109 109 109 111 112 114 115 116 116 117 117 116 114 112 111 109 108 108 108 108 109 110 112 112 113 113 113 111 109 109 107 106 106 108 109 109 108 107 105 104 102 101 100 100 100 99 97 97 99 100 100 100 100 103 105 106 106 106 105 104 104 104 103 102 100 98 98 101 103 104 104 104 104 104 104 103 102 100 98 97 98 99 99 100 101 100 98 97 97 99 101 102 101 100 98 96 96 98 101 103 103 103 102 101 101 101 101 101 101 100 99 96 93 92 92 94 97 98 98 99 99 98 98 96 94 91 88 85 84 87 90 93 93 87 81 78 77 76 76 76 76 77 78 78 79 80 83 84 86 88 90 91 93 95 96 97 99 100 101 101 101 102 102 103 104 105 105 106 107 106 106 106 106 106 106 105 104 100 97 97 100 100 97 94 92 91 91 94 96 93 89 85 85 87 89 93 93 91 90 91 93 92 88 86 87 89 91 91 90 89 88 88 92 96 98 99 99 99 99 99 98 98 99 99 100 101 101 100 99 97 96 94 93 94 96 97 98 98 98 98 99 99 98 96 94 92 91 89 86 85 84 84 84 83 83 85 87 89 91 92 92 90 88 89 91 92 95 96 96 96 97 99 100 100 98 97 97 97 98 98 99 99 100 100 101 101 100 100 100 100 100 100 100 100 100 100 99 98 97 97 98 98 99 99 100 100 100 99 98 97 95 97 101 104 106 106 106 106 106 106 104 103 102 101 100 99 97 97 96 94 94 93 92 92 90 88 87 87 89 91 91 90 90 90 92 94 95 96 95 94 93 93 94 94 95 97 99 101 102 103 104 104 102 99 97 97 99 101 103 104 103 103 102 102 101 100 100 100 100 101 100 98 97 97 97 99 101 102 102 102 102 102 100 100 100 100 101 102 103 103 104 104 103 103 102 102 101 100 100 100 100 100 100 100 100 101 102 103 104 104 104 104 103 102 101 101 100 99 97 97 97 98 99 100 100 100 100 100 101 101 102 102 101 100 99 97 97 98 99 100 100 101 102 102 102 102 102 101 101 100 100 100 99 99 99 98 98 97 97 97 97 97 97 97 98 97 96 95 94 93 92 91 90 88 88 88 88 87 87 86 85 83 82 82 82 81 81 80 79 78 78 77 76 76 75 77 82 82 83 83 82 81 79 79 78 78 77 77 76 75 75 74 73 72 72 72 73 73 75 76 76 77 76 73 71 70 70 70 70 71 72 72 72 72 73 73 74 75 76 76 76 75 75 74 73 73 72 71 69 68 67 70 71 68 65 63
134 135 137 138 140 142 143 143 143 143 142 141 140 139 139 140 142 143 143 142 141 141 141 140 139 137 136 136 133 132 130 130 130 131 130 130 130 131 131 131 130 130 131 131 130 130 131 132 133 134 136 137 137 137 137 136 134 133 133 135 136 137 137 136 136 136 136 136 134 133 133 133 133 133 134 134 134 134 134 133 132 131 130 129 127 126 125 125 124 124 122 122 120 118 116 113 111 111 112 113 115 114 115 118 119 119 120 121 121 121 120 120 119 118 118 117 116 115 114 113 112 111 110 109 108 107 106 104 100 98 98 100 101 103 103 103 104 106 108 110 113 116 118 120 120 121 122 124 124 124 125 127 127 127 127 127 126 127 128 128 127 126 125 124 124 123 122 122 122 121 120 120 121 122 121 119 118 118 118 119 120 121 121 122 123 124 124 124 124 125 126 127 128 128 128 128 129 129 130 130 130 130 130 130 131 131 132 132 132 132 132 132 132 132 132 132 132 132 132 132 131 130 129 127 125 123 121 122 124 125 128 129 128 128 128 127 125 123 123 124 126 129 130 131 131 130 129 128 126 125 124 121 120 118 118 117 118 118 117 116 114 114 113 113 113 112 112 112 111 111 110 109 107 107 108 110 112 113 113 114 114 114 115 114 113 112 114 116 117 117 117 118 119 118 116 115 115 117 118 117 115 115 114 113 111 109 108 108 109 111 112 113 114 115 116 116 115 114 112 110 108 107 107 107 109 111 112 112 113 114 115 114 112 111 110 107 106 106 107 108 109 109 108 107 105 103 102 101 100 99 98 97 97 98 99 99 99 100 102 104 104 104 104 104 103 102 102 102 101 98 97 99 101 102 103 103 103 103 103 103 103 102 100 97 95 96 97 98 99 100 99 97 96 97 99 101 100 99 98 97 95 96 99 101 103 102 102 101 100 100 100 100 100 100 100 99 98 96 94 92 92 94 96 97 97 98 97 97 96 94 92 90 87 84 85 88 91 90 85 80 77 76 76 76 76 76 77 78 78 79 81 83 84 86 88 90 92 94 96 97 98 99 100 101 103 103 103 103 104 104 105 105 105 104 104 105 106 105 104 103 103 102 100 95 94 97 98 97 94 91 90 89 91 93 92 88 84 85 87 91 94 94 91 89 89 91 90 87 85 86 88 88 88 87 87 88 91 95 98 100 100 100 100 100 100 98 98 99 99 100 101 101 100 99 97 96 95 94 94 96 97 98 99 99 99 99 99 98 96 94 92 91 89 86 85 86 86 85 84 84 85 87 89 91 92 92 92 90 89 90 92 94 96 96 96 97 99 100 100 99 98 98 99 99 100 100 100 100 101 101 100 100 99 99 99 99 100 100 100 99 99 99 98 98 98 98 99 99 99 100 101 101 101 100 99 96 98 101 103 104 105 105 105 105 105 104 102 101 99 98 97 97 97 95 94 94 92 91 90 90 89 87 87 88 90 89 89 89 91 93 94 95 95 94 92 91 92 93 93 96 97 98 99 99 100 101 101 100 98 96 96 98 100 102 103 103 103 103 102 102 101 101 101 101 101 100 99 100 100 99 99 101 103 103 103 103 103 101 101 101 102 102 102 103 103 104 104 103 103 102 102 101 100 100 100 100 100 99 99 99 100 101 102 103 104 104 104 103 102 102 101 100 100 98 96 96 97 99 100 100 100 100 100 101 101 101 101 100 100 99 97 96 97 98 99 100 101 101 101 101 101 102 101 101 100 100 100 99 99 98 98 97 97 96 95 95 95 96 97 97 97 96 95 94 92 91 90 90 88 88 88 88 88 88 87 85 84 84 83 82 82 82 81 80 79 78 78 77 76 75 79 82 83 82 82 81 80 79 79 78 78 77 77 76 76 75 74 73 72 72 73 73 74 75 75 76 76 75 73 71 72 72 72 72 72 72 72 73 73 73 74 74 75 75 75 74 74 74 73 72 72 71 71 70 69 69 71 72 68 67 66
133 135 137 138 140 143 144 144 144 145 145 144 143 142 141 142 143 143 143 142 140 139 138 139 138 137 136 136 133 131 130 130 130 130 130 130 130 131 131 130 130 130 130 130 130 130 130 131 133 134 136 136 136 136 136 135 134 132 133 134 135 137 137 137 137 137 137 136 135 134 134 134 134 134 135 135 135 135 134 133 132 130 128 126 123 122 121 121 121 120 119 119 118 116 115 113 111 111 111 111 112 113 115 117 118 118 118 119 120 120 119 119 119 118 118 117 116 115 115 115 114 113 111 110 109 108 107 104 99 99 99 101 104 106 106 106 106 108 111 113 115 118 120 121 122 123 124 124 124 124 125 126 128 128 128 128 127 127 128 128 127 126 125 124 124 123 122 122 121 121 120 120 120 122 121 119 118 118 119 120 121 121 121 121 121 122 122 122 124 125 126 127 127 127 127 127 128 129 129 130 130 130 130 130 130 131 131 131 131 131 132 132 132 132 131 131 131 131 131 131 131 130 129 127 126 123 121 121 123 125 127 128 127 127 128 127 125 123 123 124 126 128 130 131 131 130 129 127 125 124 122 120 119 118 118 118 118 118 118 116 115 114 114 114 114 113 113 113 112 112 112 109 107 106 107 109 111 112 112 112 112 113 113 112 111 111 114 116 115 115 116 118 118 117 115 114 115 117 118 117 115 112 111 110 109 108 106 106 108 109 110 111 113 114 115 116 115 113 111 110 108 106 106 108 110 112 112 112 112 113 114 114 112 110 109 107 106 106 106 108 110 110 109 108 107 105 103 101 100 100 99 97 97 97 98 98 98 101 103 103 103 102 102 102 101 100 100 100 100 98 97 98 99 100 101 102 102 102 102 102 102 101 100 97 94 94 96 97 99 99 98 96 94 95 99 100 99 98 96 94 94 96 99 101 102 101 101 101 100 100 100 100 99 97 97 98 99 98 97 94 91 92 93 95 96 97 97 96 95 94 93 91 88 85 83 86 89 88 82 79 77 76 76 76 76 77 77 78 79 80 81 83 85 86 88 91 93 94 95 96 96 98 100 101 102 103 104 104 104 104 104 103 101 101 103 105 106 105 102 101 101 99 98 96 92 93 96 97 96 93 91 88 88 90 90 87 84 86 88 91 93 94 92 89 88 88 87 85 84 84 85 86 88 89 90 91 94 98 100 101 99 98 100 100 98 97 97 99 100 100 101 101 100 99 98 97 96 95 94 96 97 99 100 100 100 100 98 97 95 93 91 90 88 86 87 88 88 86 84 84 84 85 88 90 91 92 92 91 90 91 93 94 95 95 95 95 97 99 100 100 99 99 99 100 100 101 101 101 101 100 100 99 99 99 99 99 99 99 99 99 98 98 97 97 97 98 98 99 99 100 101 101 102 101 101 98 97 99 100 101 103 103 104 105 104 104 102 100 99 98 97 97 97 96 96 95 94 93 92 91 90 88 87 87 88 88 88 89 91 93 94 94 94 92 91 91 91 92 94 96 97 97 97 96 96 97 98 97 95 95 95 97 99 100 102 103 103 103 103 102 102 102 102 102 101 100 100 102 102 101 100 100 103 104 104 104 103 102 102 102 102 103 103 103 103 104 104 103 103 102 102 101 101 100 100 100 99 99 98 98 99 100 101 102 103 104 104 103 103 102 101 101 100 97 94 95 97 99 100 100 100 100 100 101 101 101 100 100 100 99 97 96 96 97 98 98 99 100 101 101 101 101 101 101 101 100 100 100 99 98 97 97 96 95 95 94 94 95 96 96 97 96 95 93 92 91 90 90 89 89 89 89 88 88 87 86 85 85 84 83 83 83 82 81 80 79 79 78 76 76 81 82 83 82 82 81 80 79 78 78 77 77 77 76 76 75 74 73 73 73 74 74 74 75 75 76 76 74 73 72 72 73 73 73 73 73 73 73 73 73 74 74 75 75 74 73 73 73 73 72 72 70 70 70 70 70 71 71 70 70 70
133 135 137 138 140 143 144 145 145 146 146 145 144 144 143 144 144 144 144 143 141 138 137 137 137 137 136 135 133 131 130 129 129 129 129 129 130 130 130 130 129 129 129 129 129 129 130 131 133 134 136 136 135 135 135 134 133 131 132 133 135 136 138 137 137 137 137 137 136 135 135 134 134 134 135 135 135 135 134 133 131 129 126 124 122 121 120 120 119 118 117 117 115 115 114 113 113 113 111 111 111 113 115 116 117 117 118 118 119 119 119 118 118 118 118 117 116 116 116 115 115 114 112 111 110 108 106 103 99 99 99 103 106 107 108 107 108 110 112 115 116 118 120 121 122 122 123 123 122 123 125 126 127 128 128 128 128 128 128 128 127 126 125 124 124 123 122 121 120 120 119 119 120 121 120 119 118 118 119 119 119 118 118 119 120 121 122 123 124 125 126 126 126 126 127 127 128 128 128 129 129 129 129 129 129 130 130 130 130 131 131 131 131 131 130 130 130 131 131 131 131 130 129 127 126 123 121 121 122 125 127 128 127 126 126 125 124 121 122 124 126 128 129 130 131 130 129 127 125 123 122 121 120 119 118 119 119 119 118 117 116 115 116 116 115 114 114 114 113 113 113 110 107 106 107 108 110 111 111 111 112 113 112 110 109 111 114 116 115 115 115 117 118 117 114 113 115 117 118 117 115 113 111 109 108 107 106 106 106 107 109 110 111 113 114 114 114 113 111 109 108 106 106 108 111 112 113 112 112 113 114 113 111 110 109 107 105 105 106 108 110 110 110 109 108 105 103 102 102 102 100 98 97 97 97 97 99 101 103 103 102 101 100 100 99 98 99 100 100 98 97 97 98 99 100 100 100 101 101 101 101 100 99 97 94 93 95 97 98 98 97 95 94 96 99 100 99 97 95 94 95 98 100 101 101 100 100 100 100 99 99 99 98 97 97 97 97 98 97 95 91 90 91 93 95 96 96 95 94 93 92 91 89 85 82 84 87 86 82 79 77 76 76 76 76 77 78 79 80 81 82 84 85 87 89 91 92 93 93 94 96 98 99 100 101 102 103 104 103 103 102 101 100 101 103 105 105 104 102 100 99 98 96 95 93 92 94 95 96 94 91 89 88 88 88 86 84 86 89 91 92 92 91 88 86 86 85 85 84 84 85 86 89 90 93 95 97 99 100 99 97 97 99 99 96 95 97 99 100 101 101 101 100 99 98 97 96 96 95 96 96 98 100 101 101 100 98 97 95 93 92 90 88 88 89 90 89 87 84 84 84 85 86 88 89 90 90 91 91 92 94 94 94 94 94 95 97 99 100 101 101 101 101 101 101 101 100 100 100 100 99 98 98 97 97 97 98 98 98 97 97 97 96 96 97 97 97 98 99 100 100 101 102 102 102 99 98 98 99 101 102 104 104 104 104 103 101 100 99 98 97 98 98 98 98 97 96 94 93 91 90 88 87 87 87 87 88 89 91 92 92 92 92 91 90 90 90 93 94 95 95 96 95 94 94 95 95 95 94 94 95 96 97 99 100 101 102 103 103 103 103 103 103 102 101 101 101 103 103 102 101 101 103 104 105 104 104 104 103 103 103 103 103 104 104 104 104 104 103 103 102 101 101 100 100 100 99 99 98 97 98 99 101 102 103 104 104 103 102 101 101 100 100 97 94 94 98 100 100 99 99 99 100 101 101 101 99 99 99 98 96 95 95 96 97 97 98 100 100 100 101 101 101 101 101 101 100 100 99 98 97 96 96 95 94 94 93 94 95 96 97 96 95 93 91 91 90 89 89 89 89 89 88 88 87 86 86 85 85 84 83 82 81 81 80 79 79 77 76 78 82 82 82 82 81 80 79 79 78 78 77 77 77 76 75 75 74 73 75 75 75 75 75 75 75 76 75 74 73 72 72 73 73 73 73 73 73 73 73 73 74 74 74 74 74 73 73 73 73 72 72 70 69 69 69 69 69 69 70 70 71
133 134 136 137 139 142 144 145 146 147 147 146 145 145 145 145 145 145 145 144 142 139 136 136 136 136 134 134 132 131 130 129 128 128 128 128 128 129 130 129 128 128 128 128 128 129 131 133 134 135 135 135 135 134 134 133 132 130 131 132 133 136 138 138 138 138 138 137 137 136 136 135 135 135 135 135 135 134 134 133 131 128 125 123 123 123 123 121 119 117 117 116 115 115 114 114 116 116 114 111 111 112 113 115 116 116 117 118 118 119 118 118 118 118 118 117 116 115 115 115 115 115 113 111 110 108 105 102 99 99 100 103 107 109 109 109 110 112 113 115 116 117 118 119 120 120 120 120 121 123 125 125 126 127 127 128 128 128 128 128 127 126 125 125 124 123 123 121 120 119 119 119 120 121 120 119 118 118 118 118 118 118 118 118 120 121 122 123 125 125 125 126 126 126 126 127 127 128 128 128 128 128 128 128 129 129 130 130 130 130 131 131 131 131 130 130 130 130 130 131 130 129 128 127 126 123 121 121 122 124 126 128 127 127 124 124 122 121 122 124 126 127 128 129 130 130 129 128 126 125 124 123 121 120 120 120 120 120 119 118 117 117 117 117 116 115 115 114 114 114 113 111 107 106 106 107 108 109 109 111 112 112 111 109 109 112 114 116 115 114 114 116 116 115 113 112 114 116 118 117 116 115 113 111 109 108 106 105 105 106 107 109 110 111 112 113 112 111 110 109 107 106 106 109 111 112 112 111 111 112 113 112 110 109 108 107 105 104 105 107 109 110 110 109 108 106 105 105 105 104 102 99 97 97 97 97 100 102 103 104 103 102 100 98 97 97 97 99 100 99 96 95 96 98 99 99 99 100 100 100 100 100 99 96 94 93 95 97 98 97 96 94 93 96 98 99 98 96 94 93 96 98 100 101 101 100 99 99 99 99 99 99 98 97 97 95 94 95 96 96 94 91 90 91 93 94 95 94 93 91 91 91 89 85 82 82 84 85 83 81 78 76 75 76 76 77 78 79 81 82 83 85 86 87 88 89 89 90 91 93 95 98 99 99 99 101 102 103 102 101 99 99 99 101 103 104 105 103 101 98 98 98 95 92 92 91 91 93 95 94 90 88 88 87 85 84 84 87 90 91 90 89 90 88 85 84 84 85 85 86 86 87 88 90 93 96 98 98 97 95 95 97 99 97 95 94 96 97 99 100 100 100 100 99 98 98 97 96 96 96 96 98 100 101 101 100 98 97 95 93 91 89 88 90 91 91 89 86 84 84 84 84 84 86 87 88 88 90 91 91 92 92 92 93 94 96 98 100 100 101 102 102 102 102 100 100 100 100 99 99 98 98 97 97 97 97 98 98 97 97 97 97 95 95 95 96 96 97 99 100 100 101 102 103 102 101 99 99 101 103 103 104 104 104 104 103 101 100 99 98 99 100 100 100 100 98 96 94 93 91 89 88 87 87 87 87 87 89 90 91 91 91 91 90 90 90 92 94 94 93 94 94 92 91 91 92 93 93 93 94 94 95 96 96 96 99 102 103 103 103 103 103 103 103 102 102 101 102 103 102 102 102 103 104 105 105 105 105 104 104 103 104 104 104 105 104 104 104 103 103 102 101 101 100 100 100 99 99 98 97 97 97 99 101 102 103 103 103 102 101 100 100 98 95 93 94 98 100 100 98 97 99 100 101 101 101 98 97 98 97 95 94 94 95 96 96 97 99 99 100 100 101 101 101 101 101 100 100 99 98 97 96 96 95 94 94 93 93 94 95 96 96 95 93 91 91 90 89 89 88 88 88 88 87 86 85 85 85 84 83 82 82 81 80 79 79 78 77 77 79 82 83 82 82 81 80 79 79 78 78 77 77 77 76 75 75 74 74 75 76 76 75 75 75 75 76 75 74 73 73 73 73 74 74 73 73 73 73 73 73 74 74 74 74 74 73 73 73 73 72 72 71 69 69 69 69 66 66 68 70 72
133 134 135 136 138 140 142 145 147 148 148 147 147 147 147 147 147 146 146 145 144 140 137 135 135 134 133 133 131 131 130 130 130 129 127 127 127 127 128 128 128 127 127 127 127 130 132 134 134 134 134 134 134 134 132 131 130 130 130 131 133 135 137 138 138 139 138 138 137 137 136 136 136 136 136 135 134 134 132 131 130 127 124 124 125 126 126 124 121 120 120 119 117 116 116 118 121 119 116 111 110 110 111 113 114 115 115 116 117 118 118 116 115 115 117 117 116 115 115 114 114 114 112 111 109 107 104 101 99 99 101 104 108 109 110 110 111 113 114 115 116 116 116 116 117 118 120 121 121 122 124 124 126 127 127 127 127 127 127 128 127 126 126 126 125 124 123 122 121 119 118 118 119 119 119 119 118 118 118 118 119 119 120 120 120 121 121 122 123 124 124 125 125 125 125 126 126 126 126 127 127 127 127 128 128 128 128 128 128 128 128 128 128 129 129 129 128 128 128 128 128 128 127 126 125 123 121 119 120 122 124 126 127 127 126 124 122 121 122 123 124 125 127 128 129 130 130 129 128 127 126 124 122 121 121 122 122 122 121 120 119 119 119 119 118 117 117 116 114 112 111 109 107 105 105 105 106 108 109 111 112 111 109 108 109 111 112 114 114 113 112 114 114 114 112 112 113 115 117 117 117 116 115 114 112 110 108 107 105 106 106 107 108 109 111 112 111 110 109 107 106 106 106 108 110 110 110 109 109 111 112 110 109 108 107 105 103 103 104 106 108 110 110 109 109 108 107 106 106 106 104 101 98 96 96 97 100 102 103 104 103 103 101 99 98 96 95 97 98 98 95 94 95 96 97 97 97 97 97 97 98 99 99 96 92 92 94 96 97 97 95 92 92 96 98 98 97 94 92 93 95 97 99 100 101 99 97 97 97 98 98 98 98 97 97 95 94 93 93 94 94 93 90 89 90 92 93 92 91 90 91 91 90 87 83 81 82 83 83 82 78 75 75 75 76 77 78 80 81 82 83 84 85 86 86 86 87 89 91 93 95 97 96 96 98 100 102 102 101 99 97 97 99 101 103 104 103 102 99 97 96 97 95 93 91 89 89 90 94 94 91 87 87 88 87 84 84 87 90 91 90 88 87 86 84 82 83 85 85 85 85 85 86 89 92 94 94 93 93 92 93 95 95 94 93 93 94 95 96 97 97 99 100 99 99 99 99 98 97 97 96 98 100 101 101 100 98 97 95 92 91 90 90 92 93 91 88 86 85 85 85 84 84 85 85 85 86 88 88 89 90 90 92 93 95 96 97 99 100 101 102 103 103 101 100 99 99 98 98 98 97 97 97 97 97 97 98 98 97 96 96 95 94 94 94 96 97 99 99 100 100 101 101 101 102 102 102 102 102 103 104 103 102 102 102 102 101 100 100 100 102 102 102 101 100 97 95 92 91 91 91 90 88 87 85 85 86 87 88 89 88 88 88 88 89 92 93 94 91 90 91 91 90 90 90 91 92 91 91 93 94 93 92 91 93 98 101 103 103 104 104 104 104 103 103 103 103 103 103 103 104 104 105 105 105 106 106 106 106 105 105 105 105 105 104 103 103 103 103 103 102 102 101 101 100 100 99 99 99 98 97 96 97 99 100 102 102 101 101 99 99 98 96 92 92 95 98 99 98 97 97 98 100 99 99 99 96 96 97 96 94 94 94 95 96 97 97 98 98 99 100 101 101 101 101 101 100 99 99 98 97 96 95 94 94 93 93 93 93 94 95 95 95 93 91 90 89 88 87 87 87 86 86 85 85 84 84 83 82 81 81 80 80 79 79 78 78 77 78 80 82 83 82 82 81 80 79 79 78 78 77 77 77 76 75 75 75 75 76 76 76 76 76 76 76 76 75 74 74 74 74 74 74 74 73 73 73 73 73 73 73 73 73 73 74 74 74 74 74 73 73 72 70 70 69 69 66 65 66 69 73
134 134 135 136 137 138 140 143 146 147 148 148 148 148 148 148 148 148 147 146 145 140 137 136 135 133 133 133 133 133 132 132 131 130 128 127 127 127 127 126 126 125 125 125 127 129 132 133 133 133 133 134 133 133 131 129 129 130 130 131 133 135 137 138 138 138 138 138 138 137 137 137 137 136 136 135 134 133 131 129 128 125 124 126 127 128 128 126 122 123 124 122 118 117 119 121 123 122 118 113 109 109 110 111 112 113 114 114 116 118 118 116 114 114 116 116 115 115 115 115 114 113 111 110 109 107 104 101 99 100 101 104 107 109 109 110 111 112 112 113 114 114 115 116 118 120 121 122 123 124 125 125 127 127 127 126 126 126 126 126 127 127 127 127 127 125 124 122 121 118 118 118 118 118 118 118 118 118 118 119 120 121 122 122 122 121 121 121 122 123 124 124 124 124 124 124 124 125 125 127 127 127 127 128 128 128 128 127 126 126 126 126 126 127 127 128 128 127 126 126 126 126 126 126 125 124 122 119 118 121 123 124 126 126 125 124 121 121 122 123 125 126 127 127 129 129 130 129 128 128 126 124 123 122 123 124 124 123 122 121 120 121 121 121 120 119 118 116 114 113 112 110 108 106 105 105 106 107 109 109 109 108 107 108 110 111 112 112 113 112 112 112 111 111 110 111 113 115 116 117 116 116 116 116 115 113 111 109 107 105 105 105 106 108 109 110 109 108 107 106 105 105 106 108 109 108 108 108 109 111 111 109 108 107 106 105 103 103 105 107 108 109 109 108 108 107 107 107 107 106 106 104 100 97 96 96 99 101 102 103 103 102 101 100 99 96 94 95 97 96 95 93 94 95 95 95 95 94 94 95 97 98 97 95 92 91 93 95 97 96 94 92 93 96 97 96 95 92 92 93 95 97 99 100 101 100 97 96 96 97 97 97 97 98 97 96 94 93 91 92 94 94 91 88 88 90 91 91 89 88 89 90 90 89 85 82 81 82 84 82 78 75 75 75 76 77 78 80 81 82 82 83 84 84 84 85 87 89 92 94 96 96 95 95 97 100 101 101 100 98 97 98 100 101 102 103 102 100 97 94 95 97 96 95 93 90 88 88 92 94 92 87 86 87 87 85 84 86 90 91 89 86 85 82 80 79 80 83 85 85 85 85 86 87 88 88 89 90 90 90 91 92 93 93 93 94 95 96 96 96 97 99 101 101 101 101 100 99 99 98 97 99 100 101 101 99 97 96 94 92 91 90 92 94 93 90 87 86 86 86 87 87 87 88 87 87 87 87 88 90 91 92 94 95 96 96 97 98 99 100 102 102 102 100 99 97 97 97 97 96 96 96 96 97 99 99 98 97 97 96 94 94 94 94 95 97 98 99 100 100 99 99 100 100 101 102 102 102 102 103 104 103 101 99 99 100 100 101 101 102 103 103 103 101 99 96 93 92 93 94 93 90 88 87 86 85 85 86 86 87 86 86 86 87 89 92 93 92 88 88 89 90 89 88 89 91 91 91 91 93 94 91 89 90 93 97 100 102 103 103 104 104 104 104 105 105 105 105 105 105 105 106 106 106 106 107 107 107 106 106 106 106 106 105 103 103 103 103 103 103 103 102 102 101 100 100 100 100 100 100 98 97 95 96 98 100 100 100 99 97 96 97 94 91 92 95 97 98 97 96 96 97 98 98 97 96 94 95 95 94 94 94 96 97 98 98 98 98 97 98 99 100 101 101 101 101 100 99 98 97 96 95 95 94 94 93 93 93 93 93 94 95 95 93 92 90 89 87 86 85 84 84 84 84 83 83 82 82 81 80 80 79 79 79 79 78 78 78 78 80 82 82 82 81 81 80 79 79 78 78 78 78 77 76 76 75 75 75 76 76 76 76 76 76 76 76 76 75 75 75 75 75 75 75 74 73 73 73 73 73 73 73 73 73 74 74 75 75 75 74 74 73 71 71 70 69 67 65 65 68 71
136 135 135 136 136 138 139 141 144 146 147 148 149 149 149 149 149 148 147 146 146 141 138 136 135 134 135 135 135 134 134 133 132 130 129 128 127 127 126 125 125 125 125 125 126 129 131 132 133 133 133 133 133 132 130 128 128 130 130 132 134 136 138 138 138 138 138 138 138 138 137 137 137 136 136 135 134 133 131 129 127 125 125 127 128 129 128 126 124 125 125 123 118 118 121 123 124 124 121 116 112 109 109 109 111 112 113 114 116 117 117 115 114 113 116 115 114 114 115 115 114 112 111 109 108 106 104 101 100 100 101 103 106 107 109 109 110 110 111 112 112 114 115 117 119 121 123 124 125 125 126 127 127 127 127 126 125 125 125 125 127 127 127 128 127 126 124 123 121 119 117 117 118 118 118 118 118 118 119 120 120 121 123 124 124 123 121 121 122 123 124 124 124 124 124 124 124 125 125 127 127 127 127 128 128 128 128 127 125 125 125 125 125 126 127 128 128 127 126 124 124 124 125 125 125 124 122 119 118 119 122 124 125 125 124 123 121 121 121 123 124 127 127 127 128 129 130 129 129 128 127 124 123 124 124 125 124 124 123 121 121 122 122 121 121 119 118 117 116 115 114 113 111 109 107 105 106 106 108 108 107 106 107 109 112 113 113 113 113 113 112 111 109 109 109 111 113 115 116 116 116 116 116 116 116 115 113 111 109 106 104 104 105 107 109 110 109 108 107 106 105 105 106 108 108 107 107 107 109 111 110 108 108 107 106 105 103 103 104 106 108 109 108 108 107 106 106 107 107 107 106 105 102 98 96 96 98 100 101 103 103 102 101 100 99 96 94 94 95 95 93 92 93 94 94 94 94 93 93 93 95 97 97 94 92 91 92 94 96 96 93 91 93 96 97 95 93 91 91 93 95 98 100 101 101 100 98 96 95 97 97 97 97 97 97 96 95 93 91 92 94 94 93 89 87 89 90 90 89 88 88 89 90 89 86 83 80 80 81 81 78 76 75 76 77 77 78 80 81 82 82 82 82 83 84 85 88 90 93 95 96 95 94 95 97 99 100 100 99 97 97 98 100 101 101 102 101 99 96 94 95 97 97 97 96 93 89 88 90 93 92 88 85 85 86 84 83 85 88 90 89 86 83 80 79 78 81 84 86 87 88 88 88 88 87 87 88 89 90 90 91 91 92 93 94 96 97 98 98 98 99 100 102 102 102 102 101 101 100 99 99 100 100 101 100 99 97 96 94 92 91 91 93 94 94 90 87 87 87 87 88 89 89 90 90 90 88 87 88 90 93 94 96 96 97 97 98 99 100 101 102 102 102 101 99 97 97 97 96 96 96 96 96 98 99 99 98 97 97 95 94 94 94 94 96 97 98 98 99 99 99 99 99 100 101 102 101 101 101 102 103 103 100 99 99 99 100 101 102 102 103 104 103 101 98 96 94 95 96 96 94 91 88 88 87 85 85 85 85 86 86 86 86 87 88 90 92 90 87 87 88 89 88 88 89 91 91 90 90 92 91 89 88 91 94 97 99 101 101 102 103 104 104 104 105 105 106 106 106 106 106 106 107 107 107 107 108 107 107 106 106 106 106 105 103 103 103 103 103 103 103 102 102 101 100 100 100 100 100 100 100 98 95 94 96 97 99 98 96 95 94 95 92 91 92 95 96 97 96 95 96 97 97 97 96 94 94 94 94 92 93 95 97 97 98 99 99 98 97 97 98 100 100 101 101 101 100 99 98 97 96 95 95 94 94 93 93 92 92 93 94 95 95 94 92 89 88 87 85 85 84 84 84 83 83 83 82 81 81 80 79 79 78 78 79 79 79 78 78 80 81 82 82 81 81 80 79 79 78 78 78 79 78 77 76 76 76 76 76 76 77 77 77 77 76 76 76 76 76 76 76 76 76 75 75 74 74 74 73 73 73 73 73 73 73 74 75 76 76 75 74 73 72 71 70 69 68 67 65 64 64
137 136 137 136 136 138 139 139 142 145 147 148 149 149 149 149 149 148 147 146 146 142 138 136 136 136 136 137 137 136 135 134 133 131 130 130 130 129 128 126 124 124 124 124 125 127 129 130 130 130 130 132 132 131 129 127 127 130 131 133 135 137 138 138 137 137 137 137 137 137 137 137 137 137 136 135 134 133 131 129 127 126 127 129 130 129 128 127 127 127 125 123 119 119 122 125 126 125 123 119 115 112 108 108 109 110 111 113 115 116 117 115 113 112 114 115 114 112 114 115 115 113 111 108 107 105 103 101 100 101 101 102 105 106 107 108 109 109 111 112 114 116 117 118 120 122 124 124 125 125 126 126 126 126 126 125 125 124 124 124 125 126 127 128 127 126 124 123 121 120 118 117 117 117 117 118 118 119 120 121 121 122 124 124 124 124 123 123 123 123 124 124 124 124 124 124 124 125 126 127 128 128 129 129 129 129 128 127 125 124 124 123 124 125 126 127 127 127 127 126 124 123 122 123 123 122 121 120 118 118 121 122 123 124 123 122 120 120 121 123 125 126 127 127 128 128 129 129 129 128 127 125 124 125 125 125 125 124 124 123 123 123 123 122 121 120 120 119 118 118 117 115 113 111 108 105 106 106 106 106 105 105 108 111 113 115 115 114 114 113 112 111 109 108 109 111 113 114 116 115 115 115 115 116 116 116 115 113 111 108 104 103 104 106 108 109 109 109 107 106 105 105 106 107 107 106 106 107 109 111 110 108 108 108 106 104 103 103 104 106 107 107 107 106 105 105 105 105 105 105 105 104 102 99 95 94 96 98 100 101 101 101 100 98 97 96 94 93 93 93 91 91 91 92 92 92 93 92 91 91 94 95 95 93 91 90 91 94 95 94 92 90 92 95 95 92 90 90 92 94 96 97 99 99 100 99 98 96 94 96 97 96 96 97 97 96 95 93 91 91 92 93 93 90 88 88 88 88 88 87 87 88 88 89 87 85 81 79 78 77 76 76 76 76 77 78 79 80 81 82 82 82 82 83 85 86 88 91 93 95 95 93 92 94 97 98 99 99 98 96 95 97 99 99 100 101 100 98 95 92 93 95 98 98 97 95 90 87 88 92 93 90 87 84 84 83 83 86 89 90 89 86 82 79 79 80 83 86 87 88 90 92 92 90 88 87 88 89 90 91 91 92 93 94 94 96 98 99 100 101 101 102 102 103 103 103 103 102 101 100 100 100 101 101 100 99 98 96 95 93 91 92 94 95 93 90 88 87 87 87 88 89 91 92 93 93 90 88 88 90 93 95 97 97 97 98 99 100 100 101 102 101 101 100 99 98 97 95 95 94 94 96 97 99 99 99 98 97 96 94 94 93 93 93 95 96 97 97 98 98 97 97 98 99 100 100 99 99 101 103 103 102 100 97 97 98 99 100 102 102 104 104 103 101 98 96 96 98 98 97 94 90 88 88 87 84 84 84 85 85 84 84 85 86 87 88 88 87 87 87 88 89 88 87 88 90 89 89 90 91 89 87 89 92 93 95 96 97 98 101 102 103 103 104 104 104 105 106 106 106 106 106 107 107 107 107 108 107 107 106 106 106 106 105 103 103 103 103 103 103 103 102 102 101 100 100 100 100 101 101 101 100 97 94 94 95 96 96 94 92 91 91 90 90 92 94 95 95 95 94 96 97 96 96 96 94 93 94 92 91 95 96 97 98 98 99 100 98 97 97 98 99 100 100 101 101 100 99 98 97 96 95 94 93 93 93 92 92 92 93 94 94 94 93 91 89 88 86 85 84 84 82 82 82 82 82 81 81 80 79 79 78 78 80 80 79 79 79 79 80 81 82 81 81 80 80 79 79 79 79 79 79 79 78 76 76 76 76 76 77 77 77 77 77 77 77 76 76 76 76 76 76 75 75 74 73 73 73 73 73 72 72 72 72 72 73 74 75 75 75 74 73 72 72 70 70 70 69 66 64 61
139 137 137 137 137 138 139 140 142 145 147 149 149 149 149 148 148 148 147 146 145 142 139 137 136 137 137 138 137 137 136 135 134 133 132 132 132 132 132 130 128 126 125 124 124 124 126 127 128 128 128 130 131 130 128 127 127 129 131 133 135 137 138 137 137 136 136 136 137 137 137 137 137 137 136 136 135 134 132 130 128 129 130 131 131 130 129 129 128 127 124 122 121 122 124 126 127 126 125 120 117 115 111 108 108 108 109 110 113 115 116 115 112 112 113 115 113 112 112 114 114 113 111 107 105 103 102 101 101 101 101 102 103 104 106 109 110 112 114 115 117 117 119 120 121 122 124 124 124 125 125 125 125 125 125 125 124 123 123 124 125 126 127 127 126 125 124 123 121 119 118 117 117 117 117 118 118 120 121 122 123 123 124 125 125 125 124 124 124 124 124 125 124 124 124 124 125 125 126 127 128 129 130 130 130 129 128 127 126 123 122 121 121 122 123 125 126 128 127 127 125 124 121 121 121 121 121 120 118 118 119 121 122 122 122 120 119 119 121 123 125 126 127 127 127 128 129 129 129 128 127 126 125 126 126 126 126 125 124 124 124 124 123 123 122 121 121 120 120 119 119 118 116 113 110 106 104 104 104 103 103 105 108 110 111 113 115 115 115 114 113 112 110 108 109 111 113 114 115 115 115 115 115 115 116 116 116 114 112 110 107 104 103 104 106 108 109 109 108 106 105 104 105 106 106 106 107 109 110 111 111 110 109 108 106 104 103 103 103 105 106 106 105 104 103 103 103 103 104 103 103 103 102 99 96 94 94 96 98 99 100 99 98 96 95 93 92 91 90 90 90 90 90 90 90 91 90 89 89 89 91 92 93 93 91 89 90 93 94 93 90 89 91 93 91 89 90 92 95 97 97 97 97 98 99 99 98 96 94 95 96 95 95 95 96 96 95 94 92 90 91 92 92 90 88 88 88 88 88 87 87 86 85 87 88 88 85 81 79 77 75 75 75 76 77 78 79 80 81 81 81 81 82 84 85 86 88 90 92 94 94 92 92 94 95 96 97 97 96 94 94 96 98 99 100 101 99 97 94 92 91 93 96 98 96 94 90 87 88 90 91 91 89 85 83 82 83 86 89 90 88 85 81 79 80 84 86 87 88 91 94 96 95 92 89 88 90 92 91 91 92 94 94 95 95 96 97 98 100 101 102 102 103 103 103 103 103 102 102 101 101 101 101 101 100 99 99 97 95 93 91 92 94 95 93 90 89 89 89 89 89 89 91 94 95 95 92 89 88 90 93 95 97 98 98 98 99 100 101 101 102 101 101 100 99 98 97 95 94 94 95 97 99 100 100 99 98 97 96 94 93 92 92 93 94 95 96 96 97 97 97 97 98 98 98 97 97 99 101 103 104 102 99 97 97 98 99 100 102 104 105 105 104 101 99 99 100 100 100 97 94 90 89 88 86 84 84 84 84 84 84 84 84 84 84 85 86 85 86 87 88 88 88 87 88 89 88 88 90 89 87 87 88 90 90 92 93 93 95 99 101 102 103 103 103 103 105 106 106 107 107 107 107 107 107 108 107 107 107 107 107 106 106 105 104 103 103 103 103 103 103 102 101 101 100 100 100 100 101 102 102 102 100 97 93 93 94 94 92 91 91 91 90 90 91 93 94 94 93 93 95 95 94 95 96 94 93 93 91 91 95 96 97 97 97 99 100 99 97 97 97 98 99 100 100 101 100 99 98 97 96 95 94 93 93 93 92 92 92 92 93 93 94 93 91 90 88 87 86 84 84 82 82 82 82 81 81 81 80 79 79 80 80 81 81 79 79 79 79 80 81 81 81 80 80 80 79 79 79 79 79 79 79 78 76 76 76 76 76 77 77 77 77 77 77 77 77 76 76 76 76 76 75 74 74 73 73 73 73 73 72 72 72 72 72 72 73 74 75 75 74 74 73 72 71 72 71 70 68 66 64
140 139 139 139 138 139 140 142 142 145 147 149 149 148 148 147 147 146 146 146 145 142 139 138 138 138 139 139 139 138 137 136 135 134 134 134 134 134 133 132 131 130 128 125 124 124 124 125 125 126 127 128 128 128 127 127 127 129 131 133 135 137 137 137 136 135 134 134 135 136 136 136 136 137 137 137 136 135 133 132 130 132 133 133 132 131 130 129 128 126 123 122 123 125 126 127 127 126 125 121 117 114 112 111 108 107 107 109 111 113 114 114 112 111 111 113 112 111 110 111 113 111 108 105 103 102 102 101 102 102 102 102 103 104 108 111 113 114 116 117 118 119 119 120 121 121 122 123 123 123 123 123 123 124 124 123 123 122 121 123 125 126 126 126 125 124 123 122 120 119 117 116 115 115 117 119 119 120 122 123 124 125 125 126 126 126 126 125 125 124 124 125 125 125 125 125 126 127 127 128 129 130 130 131 130 130 129 128 126 124 122 121 120 120 121 122 124 125 126 127 126 124 122 121 120 120 120 119 118 117 118 120 121 121 120 119 118 119 121 123 125 125 125 125 126 127 128 129 129 128 127 127 127 127 127 127 127 126 125 125 125 124 124 124 124 123 122 122 121 121 121 120 117 114 111 107 105 104 103 103 103 103 105 108 110 112 113 114 114 114 114 113 110 108 109 111 113 114 114 113 113 113 113 114 115 116 116 115 114 111 109 106 104 103 104 106 108 108 107 106 104 103 104 105 106 107 109 110 111 112 111 110 109 108 106 104 102 102 102 103 104 104 103 102 101 101 101 101 101 101 100 100 100 99 97 95 94 94 95 96 96 97 96 94 92 91 90 90 90 90 91 91 90 89 88 88 88 87 87 87 89 90 91 91 90 88 89 91 92 91 88 88 91 91 88 89 92 94 96 97 97 95 96 98 99 99 98 96 94 93 94 95 94 94 95 96 95 94 92 90 89 90 91 90 88 87 86 87 88 87 87 86 85 85 85 86 86 84 82 81 78 75 75 75 76 77 78 79 79 79 80 81 82 83 84 86 88 90 92 93 92 91 91 92 94 95 96 95 94 94 95 96 98 99 98 98 99 98 97 93 91 92 95 97 96 93 90 87 86 87 88 88 87 85 82 82 83 85 88 88 86 82 79 79 81 85 87 87 89 92 95 97 97 94 91 90 91 93 93 92 93 95 96 96 97 98 98 99 100 101 102 103 103 103 103 103 103 103 102 102 101 101 100 100 100 100 99 98 96 94 92 92 93 94 93 91 90 90 91 92 92 92 92 94 97 97 94 90 88 89 92 95 96 97 97 98 99 100 101 101 101 100 100 99 98 97 96 95 94 94 95 98 99 100 100 98 97 96 95 94 93 91 91 92 93 94 95 96 97 96 96 97 96 96 96 96 97 99 102 103 102 100 98 96 97 98 100 101 103 105 105 106 104 103 101 100 100 101 100 97 93 90 88 87 85 84 84 84 84 84 84 84 84 83 82 83 84 84 85 86 87 88 88 85 86 87 87 87 88 87 85 86 87 88 88 89 90 91 93 97 99 101 101 101 101 102 105 106 106 107 107 107 106 106 106 106 105 105 106 107 107 106 106 106 105 103 103 103 103 103 102 102 101 101 100 100 100 101 102 103 103 103 102 100 96 93 93 93 91 91 92 94 92 88 89 90 90 90 90 90 92 93 91 93 95 94 91 91 89 90 94 96 97 96 96 98 99 98 97 95 96 97 98 99 100 100 100 99 98 97 96 95 94 93 93 93 92 91 91 91 92 93 93 93 91 90 89 88 86 85 84 83 82 82 81 81 81 81 80 80 81 81 82 82 81 79 79 80 81 81 81 81 80 79 79 79 79 79 79 79 79 79 79 79 77 76 76 76 76 76 76 76 77 77 77 77 76 76 76 76 75 75 75 74 73 73 73 72 72 72 72 71 71 71 71 71 72 73 74 74 74 74 73 72 72 72 72 71 69 68 67
142 140 141 141 140 140 142 145 144 145 146 148 148 147 147 146 146 146 145 145 144 142 139 139 139 140 140 140 139 139 138 137 136 135 135 135 135 134 134 133 132 131 130 127 123 123 123 124 124 124 125 127 127 126 126 127 128 130 132 134 136 136 136 136 135 134 133 133 134 135 135 135 136 136 137 137 137 136 135 134 133 134 134 134 133 131 130 128 126 124 123 123 125 127 127 128 127 126 124 121 117 115 116 116 113 108 107 108 109 110 112 113 112 109 108 109 111 110 109 109 109 108 106 104 102 102 102 102 103 104 104 103 103 105 109 113 115 116 117 118 119 119 119 120 120 121 121 122 121 121 121 121 122 123 123 122 121 121 121 123 125 125 126 126 125 124 123 121 120 118 117 115 115 116 118 119 120 121 123 124 124 125 126 126 127 127 126 126 126 125 125 126 126 126 126 126 126 127 128 129 130 130 131 131 131 130 129 128 127 124 123 121 120 119 119 120 122 123 124 125 126 125 123 122 120 119 119 119 118 116 116 118 119 119 119 118 118 120 121 123 124 124 124 124 124 126 127 128 129 128 128 128 128 128 128 128 127 126 126 126 125 125 125 125 124 123 123 122 122 122 121 121 118 115 112 110 109 108 107 104 103 103 103 106 109 110 111 112 112 114 114 113 110 109 109 111 113 114 113 112 112 112 112 114 115 116 116 116 115 113 111 109 106 103 103 105 106 107 107 106 104 103 104 105 106 107 109 110 110 111 110 110 109 108 106 104 102 101 100 102 103 103 102 101 100 99 99 99 100 99 99 98 98 98 97 95 93 93 93 93 94 95 94 93 90 90 90 91 93 95 97 97 93 89 88 88 88 88 88 87 87 87 87 87 88 88 88 90 91 90 88 88 90 88 88 91 94 96 97 97 95 94 95 97 98 98 98 96 93 92 93 94 94 94 94 95 95 94 93 91 88 88 89 90 89 86 85 87 88 88 87 86 86 85 85 84 83 84 83 83 81 77 75 75 75 76 77 78 78 79 80 81 82 83 85 87 88 90 91 90 90 90 90 92 94 94 94 94 93 93 95 97 98 98 95 96 98 99 97 93 90 91 94 96 96 93 90 87 85 84 84 84 83 82 81 81 84 87 87 85 82 79 79 79 84 89 89 88 89 93 96 98 98 96 93 91 92 95 95 94 94 96 97 98 99 100 100 100 100 100 101 102 103 103 102 102 102 102 102 101 101 101 100 100 100 100 99 98 96 95 94 93 93 94 93 92 91 92 93 95 96 95 93 94 97 97 94 91 90 89 90 93 94 96 97 98 99 100 101 101 101 100 99 99 98 97 95 94 94 94 96 98 99 99 98 97 96 95 95 94 93 91 91 91 91 92 95 96 96 94 95 94 94 94 95 97 99 101 102 102 100 97 95 95 97 99 101 103 104 105 105 105 103 102 101 100 100 100 99 96 92 90 88 87 87 87 86 84 84 84 84 84 84 83 82 82 82 83 84 86 87 88 88 85 85 85 86 87 86 85 85 86 88 89 89 89 89 90 93 96 99 100 101 100 100 102 104 106 107 107 107 106 105 105 105 103 103 104 106 107 107 107 107 107 105 104 103 103 103 103 102 102 101 101 101 101 101 102 103 103 104 104 103 102 97 93 93 92 92 94 95 96 93 89 87 87 87 86 85 86 88 88 89 91 93 93 90 87 87 91 94 96 98 95 96 97 98 98 97 94 95 96 97 98 99 100 101 100 99 98 96 95 94 94 93 93 92 91 91 91 91 92 92 91 91 90 89 88 87 86 85 83 82 82 81 81 81 81 80 81 81 82 82 82 81 80 80 81 81 81 81 80 80 79 79 79 79 79 79 79 80 79 79 79 78 77 76 76 76 76 76 76 76 77 77 77 76 76 76 75 75 75 75 74 73 73 73 72 71 71 71 71 71 71 70 70 71 72 73 73 74 74 73 73 72 72 71 70 68 68 69
143 142 143 143 142 141 143 146 146 146 146 147 146 146 146 146 145 144 144 144 144 142 139 139 140 141 141 141 140 139 138 137 136 136 136 135 135 135 134 134 133 132 130 127 124 123 123 123 122 122 123 125 125 125 125 127 129 131 133 134 135 134 134 134 133 133 132 132 133 134 134 134 135 136 137 138 137 137 136 136 135 135 135 134 133 131 129 127 125 123 123 125 127 128 128 128 127 126 124 121 119 118 118 117 115 110 107 108 108 108 110 112 111 108 106 106 108 108 107 107 107 106 104 103 102 102 102 104 105 107 105 103 103 105 110 113 115 116 117 118 118 118 118 119 120 120 121 121 120 119 119 120 122 122 122 121 121 121 121 123 124 125 125 125 125 124 122 121 119 118 116 115 115 116 118 120 121 122 123 124 125 126 126 127 127 127 127 127 127 126 126 127 127 127 127 126 127 128 129 130 130 131 131 131 131 130 129 129 127 125 123 122 120 119 118 118 120 122 122 124 125 125 124 122 121 120 118 118 117 116 115 116 118 118 117 117 118 121 122 123 123 123 123 123 123 124 126 128 129 128 128 128 128 128 128 127 126 125 125 125 124 124 124 124 123 122 122 121 121 121 120 120 119 117 115 113 113 111 110 107 104 103 103 105 107 108 109 110 111 112 113 112 110 108 108 111 113 113 112 111 110 110 111 113 114 115 116 116 115 115 112 110 107 103 102 103 104 106 106 105 103 102 104 105 106 107 108 109 109 110 110 109 108 107 105 104 102 100 100 100 101 101 101 100 99 98 97 97 97 97 97 96 96 95 94 94 93 93 93 93 93 92 92 90 90 90 92 94 97 99 101 99 94 90 90 91 90 91 92 90 87 87 87 87 87 87 87 88 89 88 87 88 88 87 89 92 94 95 96 96 94 93 95 97 98 98 98 96 94 92 92 93 94 94 94 94 95 94 94 92 89 88 88 88 89 87 85 86 88 88 87 87 87 86 85 84 83 82 82 82 82 80 76 75 75 75 76 77 78 79 80 81 83 84 86 88 89 90 90 89 88 89 90 92 93 93 93 93 93 94 96 98 98 97 94 93 96 98 96 92 89 90 93 96 95 93 90 88 87 86 85 84 83 81 81 81 85 87 85 82 80 79 79 82 86 90 90 90 90 93 96 98 97 95 93 91 92 95 96 96 96 97 99 99 100 100 101 100 100 100 100 100 101 102 102 101 101 101 100 100 100 100 100 100 99 99 99 98 97 96 95 94 93 94 93 93 93 93 95 96 97 97 94 95 97 98 96 93 90 90 90 91 94 96 97 98 99 100 101 101 100 99 98 98 97 96 94 94 94 94 96 97 98 98 97 96 95 94 94 94 93 91 90 90 90 91 94 96 95 94 94 93 93 95 96 98 100 101 102 100 98 95 94 95 98 100 102 104 104 103 102 103 102 100 99 98 98 99 99 96 93 90 89 88 87 88 87 85 84 85 86 86 84 83 82 81 81 81 84 86 87 88 86 83 83 83 86 87 84 84 85 88 90 90 90 90 90 92 93 96 98 99 99 99 100 102 104 105 106 106 106 105 103 103 103 102 102 104 105 107 108 107 107 107 106 105 104 103 103 103 102 102 101 101 101 101 101 102 103 104 104 104 104 103 98 94 93 92 94 97 98 98 95 92 89 87 87 86 85 84 84 86 87 89 91 91 89 86 86 91 94 95 97 95 95 96 97 97 96 94 94 96 97 98 99 100 100 100 99 98 97 96 95 94 93 93 92 91 91 91 91 91 91 91 90 89 88 87 86 85 84 83 82 82 82 82 81 81 81 81 82 82 82 82 81 81 81 81 82 81 80 80 79 79 79 79 79 79 79 79 79 79 79 78 77 77 76 75 75 75 75 76 76 77 76 76 76 76 75 75 75 74 74 74 74 73 73 72 71 70 70 70 70 70 69 69 71 71 72 73 73 74 73 73 72 71 71 70 68 67 65
142 143 145 145 143 142 144 146 146 146 145 144 144 143 143 143 143 142 143 143 143 141 139 140 141 143 143 142 141 140 139 138 137 137 137 136 135 135 135 134 133 132 130 128 126 126 127 125 121 120 121 123 123 124 126 128 130 132 133 133 133 132 132 132 131 131 130 130 132 132 132 133 134 136 137 138 138 138 138 137 137 136 135 134 132 130 127 125 124 124 124 126 128 128 128 127 126 125 123 121 119 118 118 116 113 110 108 108 108 107 107 108 108 107 105 105 105 105 105 105 104 103 103 103 104 105 105 106 109 110 107 104 103 105 109 112 114 115 115 115 115 116 118 119 119 119 119 119 119 118 119 120 121 121 121 121 121 121 122 123 124 125 125 124 124 123 122 120 119 118 116 115 115 116 118 120 122 123 124 124 125 125 126 127 127 128 128 128 128 128 128 128 128 128 128 127 127 128 129 130 131 131 131 131 131 131 130 130 128 125 124 123 121 120 118 118 118 119 121 123 125 125 124 123 122 121 120 118 118 116 115 115 115 116 115 117 119 121 121 121 121 121 121 121 122 124 125 128 129 129 129 128 128 128 127 127 126 124 124 124 123 122 122 122 121 121 120 120 119 119 118 118 118 117 117 116 115 114 112 109 104 103 103 104 105 106 108 109 110 111 112 111 109 106 108 110 112 112 111 110 109 109 111 112 113 114 114 115 116 115 113 110 108 105 101 100 102 104 105 104 102 102 103 105 106 108 108 109 109 110 110 109 107 105 104 103 102 100 100 100 100 99 99 98 97 97 97 96 96 96 96 96 95 94 94 94 94 95 94 93 92 91 90 91 94 95 97 99 101 102 102 98 94 92 95 96 96 96 96 94 90 87 87 86 86 85 85 86 87 88 86 85 85 86 88 91 92 92 93 94 92 92 94 96 97 98 97 96 94 92 91 93 93 92 92 93 94 95 94 93 91 89 88 87 86 86 85 85 86 87 87 88 88 87 86 85 85 83 81 81 81 80 79 77 75 75 76 77 79 80 81 82 83 85 87 88 88 88 87 87 87 89 90 91 91 92 93 92 92 94 97 98 97 94 91 92 95 96 95 91 88 90 93 95 95 93 90 88 87 88 88 89 88 85 82 81 83 83 81 79 79 79 83 86 88 91 93 93 92 93 96 98 97 95 93 92 93 96 97 97 97 99 100 101 101 101 100 99 99 99 99 99 100 101 100 100 100 100 99 99 99 99 100 100 98 97 97 97 97 97 95 94 94 94 94 94 94 94 95 98 99 98 96 96 98 98 97 94 91 91 91 91 93 95 97 99 100 100 101 101 99 98 97 97 96 94 94 94 94 94 96 97 97 97 97 96 95 94 94 93 92 90 89 89 89 90 93 94 93 92 91 92 94 95 96 98 99 100 100 98 96 93 93 96 98 99 102 103 104 102 100 100 100 98 96 95 95 98 99 98 94 91 89 88 88 87 86 84 84 86 88 87 86 85 84 81 81 81 82 84 86 87 84 82 82 83 85 85 83 84 86 89 91 91 91 92 92 93 94 95 96 96 97 99 100 102 103 104 105 104 104 103 101 101 100 100 101 103 105 106 107 107 107 107 106 106 105 103 103 103 102 102 102 102 102 102 102 103 104 105 105 105 104 102 98 96 94 94 96 100 101 100 97 94 90 89 88 88 87 85 84 84 84 86 88 88 88 85 86 90 92 94 95 93 92 94 95 95 94 93 93 95 97 97 98 99 100 100 100 99 98 97 96 94 93 93 92 91 91 90 90 90 90 89 88 88 87 86 85 84 83 82 82 82 82 82 82 81 82 82 83 82 82 82 82 82 82 82 81 80 79 79 79 78 78 78 78 79 79 79 79 79 78 77 77 76 75 73 74 74 75 76 77 76 76 76 76 76 75 74 73 73 73 73 73 73 73 72 71 70 70 70 69 69 67 68 70 70 71 72 72 73 73 73 72 71 70 70 68 67 65
141 144 146 145 144 143 144 145 145 144 142 140 140 140 140 141 141 141 141 142 142 140 140 141 142 144 143 142 141 140 139 138 138 138 137 136 136 136 135 135 134 132 131 130 130 130 129 128 124 120 120 121 122 125 127 129 130 131 131 131 131 131 131 130 130 130 130 130 130 131 131 133 134 136 137 138 139 139 138 138 137 136 135 133 131 129 127 126 126 127 127 127 128 128 127 126 124 123 122 120 118 117 116 114 111 109 108 108 108 107 107 106 106 105 105 105 105 105 105 104 103 103 103 105 107 108 108 109 112 112 108 104 103 104 107 110 112 113 113 113 114 116 118 119 119 118 118 118 117 117 119 119 120 121 121 121 121 121 122 123 124 125 125 124 123 122 121 119 118 117 115 115 115 116 119 120 122 123 123 124 124 125 126 127 127 128 129 129 129 129 129 129 129 129 128 128 128 129 130 131 131 132 132 132 132 131 131 130 128 126 125 124 122 120 119 118 118 118 119 122 124 125 124 123 123 122 121 120 119 118 116 115 115 115 115 117 120 122 121 120 120 120 120 121 122 124 126 128 129 129 129 128 128 127 126 125 124 123 122 122 121 121 121 121 120 119 119 118 117 116 115 115 115 115 115 115 115 114 113 110 105 103 103 103 104 105 107 108 109 110 110 109 108 106 108 110 112 112 111 110 109 109 110 111 112 112 113 115 116 116 114 111 109 106 103 101 100 102 103 103 102 102 103 105 107 109 109 109 109 110 110 109 107 105 103 102 101 100 100 100 100 99 97 97 97 97 97 97 97 96 97 97 96 96 95 95 97 97 96 94 93 92 93 96 98 99 101 102 103 104 102 97 94 95 99 100 100 99 98 94 90 89 89 89 88 86 85 85 85 85 85 84 84 84 85 87 88 89 91 92 91 91 93 96 97 97 97 96 93 91 90 92 93 92 91 92 94 94 94 93 92 91 90 89 87 86 84 84 85 86 87 88 88 87 86 85 85 84 83 80 79 80 79 77 75 75 76 77 78 80 81 82 83 85 86 87 88 87 86 86 87 89 90 90 91 92 92 91 92 95 97 97 94 92 90 92 94 95 94 91 87 89 92 94 95 93 90 88 87 87 89 90 90 88 83 81 82 81 79 79 79 81 87 89 90 92 95 96 95 94 96 98 98 96 95 93 93 96 99 99 99 100 101 102 102 101 100 99 98 98 98 98 100 100 100 100 99 99 98 98 98 98 99 99 98 97 97 97 97 96 94 94 94 94 95 95 96 96 96 98 99 99 97 96 98 99 98 95 92 91 93 93 93 95 97 99 100 101 101 100 99 97 97 97 96 95 94 94 94 94 95 96 97 97 97 97 96 96 95 94 93 91 89 88 88 89 91 92 91 90 90 92 94 95 96 98 99 99 98 96 94 93 94 96 97 98 101 103 104 102 99 99 98 96 94 94 96 98 99 98 95 92 89 88 87 87 85 84 85 87 88 87 87 87 86 83 81 81 81 82 84 85 83 81 81 83 84 83 82 84 86 89 91 91 91 91 93 93 94 94 94 94 97 99 101 102 103 104 103 103 103 101 99 98 98 99 101 103 105 106 106 106 107 107 107 106 106 104 103 103 102 102 102 102 102 102 102 104 105 106 106 106 104 102 100 98 96 95 99 102 102 101 98 94 92 90 91 91 89 87 87 85 84 84 84 85 85 84 86 87 89 91 92 91 89 89 91 93 93 93 94 95 96 97 98 99 100 100 100 99 98 97 96 95 94 94 93 92 91 90 89 89 88 88 87 87 86 86 85 84 83 82 82 82 82 83 83 83 83 83 83 82 82 82 82 82 82 82 81 80 79 79 78 78 78 78 78 79 79 79 79 79 77 76 76 76 74 73 73 74 75 76 77 76 76 75 75 76 75 74 73 73 73 73 73 73 72 72 71 71 71 70 69 68 66 65 67 69 70 71 71 72 73 73 72 72 71 71 71 72 72
141 144 146 145 144 144 144 144 143 141 139 139 139 139 138 138 139 139 140 140 141 141 142 142 143 144 143 142 141 140 139 139 138 138 137 136 135 134 134 136 136 135 134 133 132 132 131 129 126 120 120 121 123 125 128 129 129 129 129 129 129 129 129 129 129 128 128 128 129 129 130 132 134 136 137 138 139 138 138 138 137 136 134 132 130 128 127 128 129 130 130 130 128 126 124 123 122 119 118 116 115 113 112 111 109 109 109 110 110 110 108 106 105 105 105 105 105 105 105 105 105 104 105 107 110 113 113 114 115 112 108 104 104 105 106 107 109 110 111 112 113 116 118 119 118 117 116 116 115 117 119 119 119 120 120 120 121 121 122 123 124 125 124 123 122 121 119 118 117 116 115 115 115 117 119 120 121 121 121 121 123 125 126 126 127 127 127 128 129 130 130 130 130 130 129 130 130 130 130 131 131 132 132 132 132 131 130 129 128 127 126 124 122 121 119 118 117 117 119 121 123 123 124 124 123 122 121 121 120 118 116 114 114 115 116 118 120 120 120 119 118 119 121 122 123 125 126 128 129 129 128 128 127 126 125 124 123 122 121 121 120 119 119 119 118 116 115 114 112 111 110 109 110 110 110 111 111 111 112 111 108 105 103 103 103 105 106 107 107 108 107 107 106 106 108 110 111 111 110 109 109 109 109 110 110 112 113 115 116 115 114 113 111 108 106 103 100 100 102 101 101 102 104 107 108 110 110 110 109 109 109 109 108 106 105 104 102 102 102 101 100 99 99 99 99 99 99 100 100 99 99 100 99 98 97 96 97 99 99 98 96 94 95 98 101 102 103 104 105 106 104 99 97 99 102 102 101 98 96 94 94 93 91 92 93 92 89 86 84 84 85 84 84 84 84 84 85 87 89 90 90 91 94 95 97 96 95 94 91 89 89 91 92 91 91 92 93 93 93 93 92 92 91 90 89 88 85 84 84 84 86 87 87 86 86 85 84 83 82 80 79 79 78 76 75 75 76 77 78 80 81 81 83 84 85 86 86 85 85 85 87 88 89 90 92 92 91 90 93 95 95 93 91 89 89 92 94 94 94 92 88 87 89 92 93 93 92 90 87 85 86 88 90 88 83 81 81 80 80 80 80 82 87 89 90 93 96 98 98 96 97 99 100 99 97 95 94 96 99 101 101 101 103 103 102 100 100 99 97 97 97 98 99 100 99 99 98 98 97 97 97 97 97 98 98 97 97 97 96 95 94 94 95 96 96 96 98 100 99 99 100 99 99 98 99 100 99 95 92 92 94 95 95 95 97 99 100 100 100 100 99 97 97 97 96 96 95 94 94 94 94 95 96 97 98 98 98 97 97 95 94 92 90 88 87 87 89 90 90 90 91 92 94 96 97 98 97 97 97 95 92 92 94 95 96 96 99 102 103 102 100 97 96 94 93 93 95 97 98 98 96 93 91 90 88 87 87 86 87 87 89 89 88 88 88 85 83 81 81 81 82 83 82 81 81 83 83 82 82 84 86 89 90 90 90 91 92 92 91 91 93 96 99 100 101 102 102 102 102 101 101 100 97 96 96 99 102 104 105 106 106 106 107 106 105 105 105 105 103 103 102 102 102 102 102 102 103 104 106 106 107 106 105 104 103 101 98 97 101 103 103 101 98 94 93 93 93 91 89 88 88 87 85 84 84 83 82 83 84 84 86 88 89 87 86 87 89 91 92 93 95 97 97 97 98 98 99 99 99 99 98 97 97 95 95 94 93 92 90 89 88 88 88 87 86 85 85 85 84 84 83 82 82 82 84 84 84 84 84 84 84 83 83 83 83 82 82 82 81 80 79 79 78 78 78 77 78 78 79 79 79 78 75 75 75 75 74 73 72 73 75 76 76 76 74 72 75 75 74 74 73 73 73 73 73 73 72 72 72 73 73 72 72 71 70 67 64 63 64 67 69 72 72 73 73 73 73 73 74 74 74
141 144 145 145 145 145 144 143 142 142 142 140 139 138 137 138 138 138 139 140 141 142 143 143 144 144 143 142 141 140 139 138 138 138 137 136 135 133 134 137 136 136 134 134 133 133 131 130 126 121 120 121 124 126 127 128 128 128 128 128 128 128 128 128 128 128 128 128 128 129 130 132 134 136 137 138 138 138 138 137 137 135 133 131 129 128 129 129 130 131 131 130 128 125 122 121 120 117 116 114 112 111 111 110 109 110 111 114 115 113 110 107 106 105 105 106 106 106 107 108 108 107 107 109 114 116 116 116 114 110 106 105 105 106 106 106 106 107 109 111 113 115 117 118 117 116 115 115 115 118 119 119 119 120 120 120 120 121 122 123 124 124 123 122 121 119 118 117 116 115 115 115 116 118 118 119 119 119 120 121 123 125 125 125 126 126 126 127 128 130 131 131 131 130 130 130 131 131 131 131 132 132 132 132 131 131 130 129 128 127 126 124 123 121 120 118 117 116 118 120 121 122 123 123 123 122 121 120 119 117 115 114 114 115 116 118 120 119 118 118 119 121 123 124 125 126 127 128 128 128 128 128 127 125 123 122 122 121 121 120 119 119 118 117 116 115 114 114 112 112 110 109 109 108 107 106 106 106 107 108 107 106 104 103 103 103 105 106 106 106 105 105 105 106 108 110 111 110 109 108 107 107 108 109 110 112 113 114 115 115 114 113 112 110 107 104 101 100 100 100 100 102 105 107 108 109 110 110 110 109 109 109 108 107 106 105 105 104 103 101 100 100 101 101 101 102 102 102 102 102 102 102 101 100 98 97 98 100 101 100 97 95 95 98 100 102 104 106 106 106 104 101 101 103 104 103 100 97 95 96 98 95 92 95 98 98 95 90 86 85 86 85 85 85 84 84 84 85 87 88 89 91 94 95 96 96 94 93 90 88 88 90 91 91 90 90 91 92 93 92 92 92 91 90 90 88 86 83 82 84 85 86 86 85 85 84 83 81 80 79 79 79 78 76 75 76 77 78 79 80 81 81 83 84 85 86 85 85 85 86 87 88 90 91 91 90 88 89 93 94 92 90 89 88 89 92 93 94 94 93 90 86 86 88 90 93 93 91 89 85 83 85 87 85 82 80 79 81 84 85 84 84 86 88 91 94 97 99 99 98 97 99 100 100 99 97 95 96 99 102 102 102 103 104 102 100 99 98 97 97 97 97 98 99 99 98 98 97 96 96 96 96 97 97 98 97 97 97 96 96 96 96 96 97 98 99 99 100 100 100 100 100 100 99 100 101 99 95 93 93 94 96 97 97 97 99 100 100 100 100 99 98 97 97 97 97 95 94 94 94 94 94 96 97 98 98 98 98 97 97 95 93 91 88 87 87 87 88 88 90 92 93 95 96 97 97 95 94 94 92 91 91 93 94 94 96 99 100 99 100 99 97 95 92 91 92 94 96 97 97 96 94 93 91 89 88 89 89 89 89 89 90 90 89 89 87 84 82 80 80 81 81 81 81 81 82 82 81 81 84 86 87 88 88 89 90 90 89 89 92 95 98 100 101 101 101 101 101 99 99 98 96 94 94 98 101 102 104 105 104 104 106 107 105 102 102 105 106 104 103 103 103 103 103 103 103 103 104 106 107 107 107 106 106 105 103 100 100 103 103 103 100 98 96 94 94 92 91 90 90 89 87 87 86 85 83 82 82 82 82 83 85 85 85 87 90 92 94 93 93 95 97 98 97 97 97 98 98 98 98 98 98 97 96 95 95 94 92 90 89 88 88 88 87 86 85 85 84 84 84 83 83 83 83 84 85 85 85 85 84 84 84 84 84 83 82 82 82 81 80 79 79 78 78 78 76 76 77 78 79 79 77 75 75 75 74 73 72 70 70 73 75 75 73 71 71 74 73 73 74 73 73 73 73 73 73 73 73 73 73 74 73 73 73 72 72 70 66 63 63 65 69 72 73 73 73 74 74 74 75 75
140 143 144 144 144 144 144 144 143 143 143 142 141 139 137 137 137 137 138 140 141 142 143 144 144 144 143 142 141 140 138 138 137 137 137 136 134 133 133 137 137 136 135 135 134 133 132 130 126 122 120 122 123 125 127 127 127 127 127 127 127 127 128 128 127 127 127 127 127 129 130 132 134 136 137 138 138 138 137 137 136 135 133 131 129 129 130 130 131 132 131 130 128 125 123 121 119 118 116 113 111 111 110 110 110 111 114 116 117 115 110 107 106 106 107 108 108 107 109 110 110 110 109 111 116 117 117 115 112 108 105 105 108 109 108 106 106 106 108 110 112 114 115 116 116 115 115 115 116 118 118 118 119 119 119 119 120 121 122 123 124 123 122 121 120 119 117 116 115 115 115 115 116 117 117 118 118 118 120 121 123 124 124 124 124 125 125 126 128 129 130 131 131 130 130 130 131 131 131 131 132 132 132 132 131 130 129 128 127 126 125 124 123 121 121 119 117 116 116 118 120 121 122 122 122 122 121 120 118 116 114 114 114 115 117 118 119 118 118 118 120 122 124 125 126 127 127 127 127 128 128 128 127 125 123 122 121 121 121 120 119 119 118 118 117 117 116 115 114 113 112 111 109 108 108 106 105 105 104 104 103 103 102 102 102 103 104 105 105 104 103 103 104 106 109 110 110 110 109 108 106 106 107 108 110 112 113 113 114 114 114 113 112 111 108 106 103 101 99 99 100 102 105 106 108 109 109 110 110 109 108 108 108 107 107 106 105 104 102 101 100 102 103 103 103 103 103 104 104 104 103 103 102 100 98 98 99 101 102 100 97 95 95 98 100 102 104 106 107 107 105 103 104 106 106 104 101 98 97 99 99 96 93 96 100 100 97 91 87 87 89 88 88 88 85 83 83 84 86 87 89 91 93 94 95 95 94 92 89 88 89 90 90 89 89 89 90 91 92 92 92 91 91 90 89 88 86 83 82 83 85 86 85 84 84 83 82 81 80 79 79 79 77 75 75 76 77 79 80 80 81 82 83 84 85 86 85 85 85 87 88 89 89 90 89 88 87 89 93 94 92 89 87 87 89 91 93 94 94 93 91 87 85 86 89 92 93 92 90 86 82 83 84 82 80 79 80 83 87 88 88 87 88 90 93 95 98 100 100 99 97 99 101 101 100 97 96 96 99 101 103 103 103 103 101 99 98 98 97 96 96 96 97 98 98 97 97 96 95 94 94 95 96 97 98 98 97 97 97 97 97 97 97 98 99 100 100 100 100 100 101 101 100 100 100 101 98 95 94 94 94 96 98 98 98 99 100 100 100 100 100 99 98 98 97 97 95 94 93 93 93 93 96 97 98 98 97 97 97 97 96 94 91 89 88 87 87 87 87 90 93 94 95 96 97 97 95 93 92 91 90 90 92 93 95 97 98 98 97 97 98 97 95 92 90 91 94 95 96 96 94 93 92 91 90 89 90 90 90 89 89 90 90 90 90 89 87 83 80 80 80 81 81 81 81 82 82 81 81 84 85 86 86 87 88 88 88 88 89 93 96 99 100 100 100 100 100 99 97 97 95 94 93 94 98 102 103 104 104 103 103 106 107 104 101 101 105 107 105 103 103 103 103 103 103 103 103 105 106 107 107 107 107 107 106 105 102 103 104 104 102 100 98 97 96 94 91 91 92 91 90 89 90 89 88 86 82 81 81 81 82 83 84 85 89 93 95 96 96 95 96 97 98 97 97 97 97 97 97 98 98 98 97 96 96 95 94 93 91 90 89 88 88 87 86 85 85 84 84 84 84 84 84 84 85 85 86 85 85 84 84 85 84 84 83 82 82 81 81 80 80 79 79 78 78 76 76 76 76 78 78 77 75 75 74 74 73 71 68 68 70 72 71 69 68 69 71 72 73 73 72 72 72 72 73 73 73 73 73 74 74 74 74 74 73 73 72 70 65 62 62 66 70 72 73 73 74 74 75 75 75
139 141 143 144 144 144 145 144 144 144 143 143 141 140 138 136 136 137 138 140 141 143 144 144 144 143 143 142 141 140 138 137 136 136 135 135 134 133 133 135 137 136 135 135 134 133 132 129 126 123 120 121 123 124 125 126 126 126 127 127 127 127 128 128 127 127 127 127 128 130 131 133 135 136 137 138 137 137 137 136 135 134 132 130 130 130 131 131 132 131 131 130 128 125 124 122 120 118 115 113 111 111 111 111 112 113 116 118 118 115 110 107 107 108 109 110 110 110 111 112 114 114 113 114 117 118 117 114 110 107 106 108 111 112 110 107 107 108 108 109 111 113 114 115 114 114 115 115 117 118 118 118 119 119 119 119 119 121 122 123 123 122 121 120 119 118 116 115 115 115 115 115 116 116 116 118 118 119 121 122 123 123 123 123 123 123 124 125 127 128 129 131 131 130 130 130 130 131 131 131 132 132 132 131 130 129 128 127 126 125 124 123 122 122 121 119 117 116 115 116 119 120 120 121 121 122 121 119 118 116 114 114 114 115 117 118 117 116 116 118 121 123 124 125 126 127 127 127 127 127 128 128 127 126 125 124 122 121 121 120 119 119 119 118 118 118 117 116 115 114 113 111 111 111 111 110 109 107 105 105 104 103 103 102 102 102 103 103 104 103 103 103 105 107 109 109 110 109 108 107 106 106 107 109 110 112 112 112 112 112 113 113 113 111 110 108 106 103 100 99 100 102 105 106 107 108 109 110 110 109 108 107 107 107 107 106 105 103 102 101 102 103 104 104 103 103 104 105 105 105 104 102 101 99 98 99 100 102 102 101 98 96 97 99 101 102 104 106 107 107 105 106 106 106 106 104 101 99 101 102 100 96 95 99 101 100 95 90 88 91 93 91 90 92 89 84 82 83 85 86 89 91 92 93 94 95 94 91 89 88 89 90 90 89 88 89 90 91 91 91 91 91 91 90 88 87 86 84 81 82 84 85 84 83 83 83 82 81 80 79 79 79 77 75 75 76 78 79 80 81 81 82 82 84 85 85 84 84 86 87 88 88 88 88 87 85 86 89 93 94 92 89 87 88 90 92 93 94 95 93 91 87 85 85 88 90 92 92 90 87 83 81 80 79 79 80 83 87 90 90 91 91 92 94 96 98 99 100 101 100 99 100 101 102 101 98 98 98 99 101 102 102 102 101 99 98 98 97 96 96 96 96 97 97 97 97 96 95 94 94 94 95 96 97 97 97 97 97 97 98 98 97 98 98 99 100 100 100 100 100 101 101 101 101 101 99 97 96 95 94 95 97 99 99 100 100 101 101 101 101 100 99 98 97 97 96 95 94 93 91 91 93 96 97 98 97 97 97 97 97 97 95 92 90 88 87 87 87 87 90 92 93 94 95 96 97 95 93 91 89 89 90 92 94 96 97 97 96 96 96 97 97 95 92 90 91 93 94 94 94 94 92 90 89 89 89 89 90 89 88 88 89 90 91 91 90 89 85 81 79 79 79 80 80 81 81 81 81 81 84 85 84 85 86 86 86 87 88 89 93 97 99 100 99 98 97 98 97 95 94 93 93 93 94 98 102 103 103 102 101 103 106 107 103 100 102 106 107 106 104 103 103 103 104 103 104 104 105 106 107 107 107 107 106 106 105 105 105 105 103 102 100 99 98 96 93 92 93 93 93 92 94 95 95 92 89 84 82 81 81 81 82 83 87 92 94 96 97 97 96 96 97 98 97 96 96 97 97 97 97 98 98 97 97 96 95 95 93 91 92 91 89 88 88 87 87 86 85 85 85 85 85 85 85 86 86 86 86 85 85 85 85 84 84 83 82 82 81 81 80 80 79 79 78 78 77 76 76 75 76 77 77 75 75 74 73 72 69 68 68 68 68 67 68 67 66 64 66 68 69 71 71 71 72 73 73 74 74 74 74 74 74 75 74 74 74 73 73 70 64 60 62 68 71 72 73 73 74 74 75 75
138 140 141 142 143 144 145 145 145 144 143 143 141 140 138 136 135 136 138 139 139 140 142 143 144 143 142 142 141 139 138 136 135 134 133 133 132 132 132 134 135 136 135 134 134 133 131 129 126 123 120 121 122 123 124 125 125 125 125 125 126 127 128 127 126 125 127 128 130 131 132 133 135 137 137 137 137 136 136 135 134 133 132 131 131 131 132 132 131 130 130 129 127 125 124 123 119 116 114 112 113 115 116 114 115 117 120 120 118 113 109 108 108 108 111 113 114 113 113 115 117 119 118 118 118 118 115 112 108 107 108 111 114 114 111 110 112 112 110 108 109 111 112 112 113 114 115 116 117 117 118 118 119 119 118 118 119 120 121 122 122 121 120 119 118 117 116 115 114 114 114 115 115 115 117 118 119 120 121 122 122 121 121 121 121 122 123 124 126 128 129 130 131 131 130 130 130 131 131 131 132 132 132 131 130 129 127 126 125 124 123 122 121 120 119 118 117 116 115 115 117 118 118 119 120 121 121 119 118 116 114 114 114 115 116 116 115 115 118 119 121 122 122 124 125 125 125 125 126 127 127 128 127 127 125 124 123 121 121 121 120 119 119 118 118 118 117 116 115 114 114 114 114 114 114 113 111 110 108 108 108 108 106 104 102 101 101 101 102 103 103 104 106 107 107 108 109 109 108 106 106 106 108 110 110 111 112 111 111 111 112 113 113 112 111 109 106 103 100 99 99 101 104 104 105 106 108 109 109 108 107 105 105 106 107 106 105 103 104 105 105 105 105 105 105 105 105 106 106 105 103 101 100 99 99 99 101 103 104 101 98 97 98 100 102 104 106 106 107 107 106 107 107 107 106 104 102 102 103 101 98 98 100 102 102 98 93 89 90 94 95 92 91 94 92 86 83 82 83 85 88 89 90 91 93 94 93 92 89 86 87 90 90 88 88 88 90 91 90 90 89 89 89 89 88 86 84 83 81 83 85 85 84 82 81 81 81 80 80 79 79 78 77 75 75 76 78 79 80 80 80 80 80 81 82 82 82 84 86 88 88 85 84 84 83 84 86 90 93 93 90 87 87 90 92 94 94 94 93 92 90 88 85 85 88 89 89 90 89 87 83 80 79 80 80 80 82 86 88 90 91 93 94 96 98 99 100 102 102 102 102 102 103 104 102 101 101 101 102 102 102 101 99 98 97 96 96 95 95 95 94 95 96 97 95 94 94 94 93 93 95 96 97 97 96 95 95 96 97 97 97 98 97 97 98 98 98 99 99 99 100 100 101 100 100 99 98 97 96 96 96 97 99 101 102 102 102 102 102 101 100 98 97 97 96 95 94 93 92 91 91 93 95 97 98 96 95 95 95 95 96 95 92 90 89 87 86 86 87 89 90 91 92 93 94 95 95 93 91 88 89 91 93 95 97 96 94 94 95 97 97 98 96 92 89 90 91 92 92 93 94 93 91 88 87 87 88 89 88 87 87 88 89 90 91 91 90 86 82 79 79 79 79 79 79 80 80 80 81 82 82 82 84 84 85 86 88 89 90 93 97 99 99 98 97 96 95 94 93 92 92 93 93 96 99 102 102 100 99 99 102 105 105 102 100 102 106 107 106 105 104 103 104 104 105 105 106 106 106 107 107 107 106 105 104 105 106 106 104 102 100 99 96 95 93 93 93 94 95 94 94 96 99 99 96 90 86 85 83 81 81 81 83 87 91 94 95 96 97 97 97 97 98 97 95 94 95 95 95 96 96 97 97 97 96 96 95 94 93 93 94 92 90 89 89 89 88 87 86 87 87 87 87 87 87 87 86 86 85 85 85 85 85 84 83 82 81 81 81 80 80 79 79 78 78 77 77 78 76 75 75 75 75 74 73 72 71 71 73 73 69 68 68 69 68 68 66 64 63 65 69 67 70 71 73 74 74 74 74 73 73 74 74 74 75 74 74 74 72 67 62 59 63 68 72 71 72 73 74 74 75
138 139 140 142 143 145 146 145 145 144 143 142 141 139 138 136 134 135 136 137 138 139 141 143 143 143 142 141 140 139 138 136 135 133 132 130 130 130 131 133 134 134 134 134 133 132 130 128 126 123 120 120 120 121 122 122 122 123 124 125 126 127 127 126 124 125 128 130 131 132 133 134 135 137 138 137 137 136 135 135 133 133 132 132 132 133 133 132 131 129 128 127 126 125 123 121 117 115 113 114 116 119 120 117 118 120 122 121 115 112 111 110 108 109 112 115 117 117 116 118 120 122 122 121 119 116 113 109 108 109 112 115 117 116 112 113 115 116 112 108 109 111 112 112 113 114 115 115 116 117 118 118 118 118 118 118 119 120 121 121 120 120 119 118 117 116 115 114 114 114 114 115 115 115 117 118 118 119 120 120 120 120 121 121 121 122 123 125 126 128 129 130 131 131 130 130 131 131 131 131 131 131 131 131 130 129 128 127 126 124 123 122 121 121 120 119 118 117 115 115 115 115 115 117 119 120 120 119 118 116 114 114 114 115 114 114 114 116 118 119 120 120 121 122 123 124 124 124 124 125 125 124 124 124 125 124 124 123 122 121 120 119 119 118 118 118 117 117 116 115 115 116 116 116 116 115 113 111 111 111 112 110 107 105 103 101 100 100 100 101 103 104 104 104 105 106 107 107 106 105 105 106 108 110 111 112 112 111 110 111 111 112 112 111 110 107 105 103 101 98 97 99 101 102 103 105 106 107 106 106 104 103 104 106 107 106 105 106 107 108 108 108 107 106 105 105 106 106 105 104 102 100 100 100 100 101 103 105 105 101 98 99 100 102 104 105 107 107 107 106 105 106 107 107 107 106 105 104 101 100 100 102 104 104 101 97 94 91 92 97 96 93 93 95 94 89 85 82 82 83 85 86 88 89 91 93 92 91 88 85 85 88 88 88 88 88 89 90 89 88 88 88 88 88 88 86 84 81 81 83 85 84 83 81 79 78 79 79 79 79 79 78 77 76 75 76 77 78 78 79 79 78 78 79 79 80 82 85 87 86 85 82 81 82 83 86 89 91 93 91 87 86 88 91 93 94 93 92 90 90 89 87 85 85 86 85 85 85 84 83 81 79 79 81 81 81 81 82 83 85 87 89 91 94 96 98 99 100 101 102 103 104 105 105 105 104 103 103 103 102 101 99 99 98 97 96 94 94 94 94 94 94 94 95 94 93 93 92 92 94 95 97 98 98 96 93 93 95 96 96 96 97 96 96 97 97 97 97 98 98 98 99 99 99 99 99 98 97 97 98 99 99 100 102 103 103 103 103 102 101 100 98 97 97 96 96 96 95 93 91 91 91 94 96 97 95 93 92 92 93 93 93 92 91 89 87 85 85 85 87 88 89 90 91 92 93 93 92 90 87 89 92 94 95 95 93 93 95 96 97 98 97 96 92 89 88 89 90 92 95 97 96 94 90 87 86 86 87 87 86 86 86 87 89 90 91 90 87 83 81 79 79 79 79 79 79 79 79 80 80 80 82 83 84 85 88 90 90 91 93 95 97 98 98 97 95 94 93 92 92 92 93 94 96 98 100 100 98 96 98 102 103 102 99 97 99 102 104 105 105 105 104 105 105 105 106 106 107 107 107 107 107 106 104 103 104 105 105 104 102 100 97 94 94 93 93 95 97 97 96 96 97 98 99 96 90 86 84 83 81 81 81 82 86 89 92 93 93 93 95 96 97 97 97 96 94 92 92 93 94 95 95 96 96 96 96 96 94 94 94 94 93 91 91 91 90 90 89 88 87 88 88 88 88 88 88 87 87 86 86 86 86 85 84 83 82 81 81 81 80 80 79 79 78 78 78 78 79 78 76 73 72 72 73 73 72 71 75 76 75 73 75 74 72 71 73 72 70 66 66 65 68 66 67 69 72 73 73 72 72 72 73 73 74 74 73 73 73 72 68 63 60 59 63 69 67 71 72 73 74 74
139 140 142 142 143 145 146 145 144 143 142 140 139 138 137 135 134 134 135 136 138 139 141 143 143 142 141 140 139 138 137 136 135 133 131 130 130 130 131 132 133 134 133 133 132 131 129 127 125 122 120 120 120 120 121 121 121 122 124 125 126 126 126 125 124 126 129 131 132 133 133 135 136 137 138 137 136 136 135 134 134 133 133 133 133 134 133 132 130 129 127 126 125 124 122 119 116 115 115 115 117 121 122 120 120 122 122 119 114 112 113 111 110 111 113 116 118 119 118 119 122 123 122 121 118 114 110 108 110 112 115 117 118 116 112 114 117 118 114 110 111 113 114 113 113 114 115 115 115 116 117 118 118 118 118 118 119 120 121 121 120 119 118 117 116 115 114 114 114 115 115 115 115 115 115 117 118 118 119 119 119 120 121 121 122 123 124 126 127 128 129 130 130 131 131 131 131 131 131 131 130 130 131 131 130 129 129 128 127 126 124 123 122 122 121 121 120 118 117 115 115 115 115 116 118 119 120 119 118 115 114 114 114 114 114 114 114 116 118 119 120 120 121 121 123 124 124 124 124 125 125 124 124 124 125 125 125 124 122 121 120 120 119 119 119 118 118 117 117 117 117 117 117 116 116 115 113 112 112 112 112 110 107 104 102 101 100 100 100 101 103 104 103 103 104 105 106 107 106 105 104 106 108 110 111 112 112 111 110 110 111 111 112 111 110 108 106 104 103 100 97 97 99 101 103 105 106 106 105 103 103 103 105 106 107 106 106 107 108 109 109 109 108 107 106 106 105 105 104 103 101 100 100 101 101 102 103 105 105 101 100 101 102 104 105 106 107 107 106 104 104 105 106 107 107 106 106 104 101 102 103 105 106 105 102 99 96 92 93 97 96 96 97 98 96 91 86 83 81 82 84 84 86 88 90 91 91 90 87 85 85 87 88 87 87 88 89 90 89 88 88 88 88 88 88 87 84 80 80 83 85 84 82 80 78 77 78 79 79 79 79 78 77 76 75 75 75 76 78 79 78 78 78 79 79 81 83 85 84 82 81 81 81 82 84 88 90 92 92 89 85 85 88 91 92 93 92 91 90 89 88 87 86 86 85 86 87 86 86 85 83 81 81 84 84 83 85 85 85 86 87 89 90 92 95 97 98 99 99 99 101 104 105 105 104 104 104 103 102 101 100 99 98 98 97 96 95 94 94 94 93 93 93 94 94 93 92 91 92 94 95 96 98 98 96 93 92 92 94 95 96 96 96 96 96 96 96 97 97 97 97 98 98 98 99 99 98 98 99 100 100 101 101 102 103 104 104 103 101 101 100 98 97 97 96 96 96 96 94 92 91 91 93 95 96 94 92 91 90 89 90 90 91 91 89 87 85 85 85 85 87 88 88 89 90 91 92 91 89 87 89 93 94 94 92 91 93 94 96 97 97 95 93 91 88 87 88 90 92 95 97 97 95 91 88 86 86 86 87 85 85 85 87 88 90 91 90 87 85 83 81 80 79 79 79 78 78 79 79 79 81 83 85 85 87 89 90 91 91 92 94 96 97 97 96 95 93 92 91 91 92 93 95 96 98 99 100 97 96 98 100 101 99 96 97 99 102 104 105 106 105 105 105 105 106 106 107 107 107 107 107 107 106 104 103 103 105 105 103 101 100 96 94 94 94 93 97 98 99 99 99 98 98 96 94 89 86 84 83 81 81 81 81 84 86 89 90 90 91 96 96 96 96 97 96 94 92 91 92 93 94 94 95 96 96 96 96 95 95 95 94 94 92 92 92 91 91 90 90 89 88 89 89 89 89 89 88 88 87 87 86 86 85 84 84 82 82 81 81 80 80 79 79 79 79 79 80 80 79 76 74 72 72 72 72 72 73 76 77 76 75 76 75 73 73 74 74 73 71 68 65 68 63 63 66 70 72 73 71 69 71 72 73 74 73 73 72 71 69 66 63 61 58 59 64 65 68 69 71 73 76
140 142 143 144 144 146 146 145 144 143 141 138 136 136 135 134 133 133 134 136 138 139 141 141 142 142 141 140 139 138 137 136 134 133 131 130 129 129 130 131 132 132 132 132 131 130 128 126 124 122 120 120 120 120 120 120 121 122 124 125 125 125 125 124 124 128 130 131 132 133 134 135 136 137 137 137 136 135 134 134 134 134 134 134 134 133 133 132 130 128 127 125 124 122 120 117 116 117 117 116 118 122 124 123 122 122 120 115 114 114 115 113 113 113 115 118 120 121 121 121 123 123 122 121 116 111 108 110 112 115 117 119 118 116 112 116 119 119 115 111 113 115 115 116 116 115 115 115 115 116 117 117 117 118 118 118 119 120 120 119 119 118 117 116 115 115 114 114 115 116 117 117 117 116 116 117 118 118 118 118 119 120 121 122 123 125 125 127 127 128 128 130 130 131 130 129 129 129 129 129 129 129 129 130 130 130 129 128 128 127 126 124 123 123 123 122 121 119 117 115 115 115 115 115 117 118 119 118 117 115 114 114 114 114 114 115 116 118 119 119 120 120 121 121 121 122 123 124 124 125 125 125 125 125 125 125 125 124 123 121 121 121 121 121 121 119 118 118 118 118 118 118 118 117 115 115 114 113 113 113 112 110 106 103 102 101 100 100 100 100 102 102 103 103 103 104 105 106 105 104 104 106 108 110 111 112 111 110 109 109 110 111 112 111 111 109 108 106 104 101 98 97 97 100 102 104 105 104 103 102 102 103 105 106 106 106 106 107 108 109 110 109 109 109 108 106 105 104 103 102 100 100 100 102 103 103 104 105 104 102 102 103 104 105 107 107 106 106 105 103 102 103 105 106 107 107 106 105 104 105 106 106 106 105 103 100 96 94 96 99 99 99 100 99 97 92 88 84 81 81 81 83 85 87 89 90 90 89 86 84 85 86 87 87 87 88 89 88 88 87 87 87 87 87 87 86 84 80 80 83 83 82 80 78 76 75 75 75 76 77 78 79 78 76 75 74 74 74 74 75 76 77 78 79 80 81 81 81 80 80 80 81 82 83 85 88 90 91 91 88 85 85 88 90 91 90 90 89 88 88 88 87 87 86 85 84 85 87 87 86 86 82 84 88 88 88 89 89 89 89 89 89 90 91 93 95 96 96 96 98 101 103 104 103 102 102 102 102 101 100 99 99 98 97 97 96 96 96 95 94 93 91 91 92 93 92 91 91 91 93 94 96 97 97 95 92 91 91 93 94 94 94 94 94 94 94 95 96 97 97 97 97 97 99 99 99 99 99 100 100 101 102 103 103 103 103 103 102 100 100 100 99 98 97 97 97 97 97 95 93 91 90 92 93 94 93 91 89 88 87 87 88 89 89 88 86 85 84 84 84 85 86 86 88 89 90 91 90 88 87 89 92 93 92 90 91 93 94 94 95 96 94 92 91 88 87 87 90 91 94 96 97 95 92 88 85 85 85 85 85 85 85 86 87 89 91 91 89 88 86 83 81 79 79 78 78 78 78 78 79 81 83 85 87 87 88 88 89 89 91 92 94 96 96 94 93 92 91 90 90 93 94 96 98 99 99 98 96 95 96 98 97 96 97 99 102 104 105 105 106 105 105 105 105 105 106 106 106 106 106 106 106 105 103 102 102 104 104 103 100 98 97 96 95 95 95 98 100 100 100 100 99 97 95 93 88 87 85 84 82 80 80 80 81 82 84 86 89 93 96 95 93 95 96 96 95 93 91 91 92 93 94 95 95 95 95 95 95 95 95 94 94 93 93 92 92 92 91 91 90 90 90 90 90 90 89 89 88 88 87 87 86 85 84 84 83 82 81 81 80 79 79 79 79 80 81 81 80 79 76 75 75 74 72 72 72 75 77 78 77 76 76 76 74 74 75 75 74 72 69 67 67 60 59 64 68 72 71 67 69 72 72 72 73 72 71 70 69 67 66 67 65 59 56 59 64 67 70 73 73 72
141 143 144 145 145 145 145 145 144 142 140 137 135 134 134 133 133 133 134 136 138 139 140 141 141 141 140 139 138 137 136 135 133 132 130 129 129 129 129 130 130 131 131 130 129 128 126 124 123 121 121 121 121 119 120 120 120 122 124 125 125 124 124 124 125 129 131 131 132 133 134 134 136 137 137 136 135 134 134 134 134 134 134 134 134 133 132 130 129 127 126 124 122 121 120 119 119 121 121 118 119 123 124 124 124 121 117 114 115 117 117 116 116 116 117 119 122 123 123 124 124 123 122 117 112 109 109 112 115 118 120 120 118 116 114 117 119 118 114 111 113 116 117 117 117 117 117 117 116 116 117 116 116 117 117 118 119 119 119 119 118 117 116 115 115 114 114 115 116 117 117 118 118 118 117 118 118 119 119 119 120 121 122 123 125 126 127 127 128 128 128 130 130 130 129 128 128 128 128 127 127 127 128 129 129 130 129 129 128 128 127 126 125 124 124 123 121 121 119 117 115 115 115 115 115 116 117 117 116 114 114 114 114 115 117 119 120 120 119 119 120 120 121 121 121 122 123 123 124 124 125 125 125 125 126 126 125 124 123 123 123 123 122 122 121 120 119 119 119 119 119 119 118 117 117 116 114 113 112 111 110 107 104 103 103 104 103 101 100 100 100 100 101 102 102 103 104 104 103 103 104 106 108 109 109 109 109 108 108 108 109 110 111 112 111 111 110 109 106 103 100 97 97 99 101 103 104 103 102 101 101 103 105 106 106 106 106 106 107 108 109 109 110 109 108 106 105 104 103 102 100 100 101 103 104 104 105 106 105 103 104 105 105 106 107 107 105 104 103 101 99 99 101 104 106 107 106 106 107 107 107 105 103 102 102 100 97 97 99 100 100 100 100 99 95 91 89 87 84 81 80 81 83 85 88 89 88 87 85 84 85 85 86 87 87 88 88 88 87 86 86 86 86 86 86 86 84 81 79 79 80 78 76 75 75 75 75 75 75 75 76 77 76 74 74 75 75 74 74 74 75 77 78 79 80 81 80 79 79 79 79 81 82 84 86 87 88 88 88 87 84 84 86 89 90 90 89 88 88 88 88 87 86 84 83 82 82 84 83 82 80 80 84 88 89 90 91 91 91 91 91 90 90 90 91 92 94 96 97 99 102 103 103 102 101 101 101 101 100 100 99 99 98 98 98 97 97 97 96 94 93 91 91 91 91 91 91 91 91 93 94 96 97 96 94 92 91 91 91 92 93 94 94 94 94 94 95 96 97 97 97 97 98 99 100 100 100 100 100 101 101 102 103 103 103 103 102 101 100 100 99 99 98 98 98 98 97 97 95 94 91 89 90 92 93 91 88 87 87 87 87 85 85 85 85 85 85 84 84 84 84 84 84 86 87 88 89 88 86 86 89 91 91 89 89 91 93 92 92 93 94 94 94 92 89 87 87 88 90 92 95 96 95 92 88 85 85 85 85 85 84 84 85 87 89 90 91 91 90 88 85 82 80 79 78 78 78 78 78 80 83 84 85 85 85 86 87 88 89 90 91 93 96 95 92 91 89 88 88 91 95 97 98 99 99 98 95 93 93 95 96 97 98 99 101 103 105 106 106 106 105 105 105 105 105 105 105 105 105 105 105 105 104 103 101 101 103 104 102 99 98 98 98 97 97 98 99 100 101 101 100 99 97 95 92 89 88 87 86 82 80 80 80 80 81 82 85 90 93 95 92 92 93 95 95 95 93 91 91 91 92 93 94 95 95 95 95 95 95 95 94 94 94 93 93 93 93 92 92 91 91 91 91 91 91 90 89 89 88 87 87 86 85 85 84 83 82 82 81 80 79 79 79 80 81 81 81 80 79 77 77 76 75 74 75 76 76 78 78 78 78 77 76 75 75 75 75 74 70 69 70 66 60 57 61 67 69 65 66 70 71 69 70 71 70 70 73 73 72 72 71 67 60 56 58 64 68 70 73 72 70
