ncols         913
nrows         32
xllcorner     -71.7220722222
yllcorner     42.50577
cellsize      1.0E-5
NODATA_value  -9999
120 123 125 126 125 120 115 111 108 108 107 107 109 112 112 111 109 106 105 102 102 103 105 106 106 106 106 105 105 105 105 105 105 104 104 104 103 103 103 103 103 103 103 103 104 104 105 106 106 105 105 104 100 94 92 91 91 91 91 91 92 92 90 90 90 90 90 90 90 90 90 90 90 90 90 90 90 90 90 90 90 90 90 90 90 90 90 90 91 91 92 90 90 94 99 103 105 107 108 108 107 106 106 107 108 107 106 105 101 97 96 97 100 97 97 97 97 97 97 97 97 98 99 102 108 115 122 124 124 128 131 132 133 132 127 122 117 112 107 103 105 106 104 101 100 100 98 98 98 102 103 103 99 98 95 95 96 99 102 106 112 117 117 120 121 122 123 123 123 122 122 124 125 125 124 124 124 123 123 122 119 118 117 117 117 115 114 113 114 114 115 116 117 118 118 117 117 118 122 127 130 132 130 122 113 102 99 97 96 96 93 91 88 85 85 84 83 82 79 78 77 76 74 74 74 75 75 74 74 75 75 75 74 74 74 73 72 76 80 80 81 81 81 81 80 78 74 74 74 72 70 70 71 71 71 71 69 68 67 67 67 66 68 74 76 73 70 70 68 68 68 66 66 66 66 66 69 71 67 64 64 64 63 63 63 63 63 63 62 62 63 63 63 63 65 68 71 74 77 79 80 80 78 74 71 70 70 70 70 69 67 65 64 63 64 64 62 62 63 63 63 64 66 67 66 65 66 66 66 67 68 69 69 69 68 66 65 64 64 65 65 65 65 68 69 70 72 73 74 74 74 75 76 76 77 79 82 81 79 78 77 77 78 81 86 90 94 100 104 105 105 103 102 99 94 91 87 83 80 77 74 73 71 70 69 69 69 69 69 69 69 69 69 72 75 82 85 85 86 86 85 83 82 81 81 81 81 79 78 75 73 74 74 72 69 69 69 69 69 69 69 69 69 69 69 69 69 70 70 71 71 70 69 69 69 69 69 69 69 69 69 69 69 69 69 69 71 71 72 72 72 72 72 72 72 72 72 72 72 72 72 72 72 72 72 72 72 72 72 72 72 72 72 72 72 72 72 72 72 72 72 72 71 71 71 71 71 71 71 71 72 72 71 70 70 69 69 69 69 69 69 68 68 68 66 66 66 65 65 65 65 65 65 65 65 65 65 65 64 64 64 65 65 65 65 64 63 63 63 63 63 63 64 64 65 65 65 66 67 66 68 71 73 75 75 75 76 76 75 75 75 75 75 75 75 79 82 83 83 82 82 83 83 82 82 81 79 77 74 74 73 72 72 73 73 73 73 73 73 73 73 74 75 75 75 75 75 73 73 73 73 73 72 72 72 71 71 71 71 71 71 70 70 70 70 70 69 69 69 69 69 69 70 70 71 72 74 76 79 81 83 84 84 86 86 87 89 89 90 89 87 85 83 81 80 79 79 77 77 76 75 75 74 71 70 69 67 66 64 63 63 62 62 62 62 62 62 62 62 62 62 62 62 62 62 62 62 63 63 63 64 65 65 65 65 65 65 65 65 65 65 65 65 65 64 64 64 63 63 63 63 63 62 62 62 62 62 62 62 63 64 65 66 67 68 69 71 72 72 74 74 74 76 76 77 78 80 81 81 81 82 82 80 77 77 77 79 80 82 82 80 80 82 83 84 84 84 86 88 92 94 96 102 109 114 117 118 118 117 116 113 110 107 101 94 88 83 82 81 80 79 77 77 77 77 78 78 77 77 77 77 77 77 77 77 77 77 77 75 75 74 73 72 71 71 71 71 70 70 70 71 72 72 72 72 70 69 69 70 70 68 69 70 72 73 73 72 71 71 70 70 69 67 67 67 67 67 67 68 68 68 70 76 80 80 80 80 80 78 73 71 71 71 71 71 71 71 70 70 69 68 68 68 68 68 67 67 67 66 66 66 67 67 66 65 64 62 62 62 63 64 64 66 66 68 68 68 66 66 65 64 64 64 64 64 64 64 64 64 64 64 64 64 64 63 63 63 63 63 61 61 61 61 61 61 69 78 81 80 79 77 77 77 75 74 71 70 68 66 65 65 64 63
120 123 126 127 126 121 116 111 108 107 107 107 107 110 110 109 107 105 105 103 103 105 106 107 107 107 107 106 106 106 105 105 105 104 104 104 103 103 103 103 103 103 103 103 104 104 105 105 105 104 104 102 97 95 93 91 91 91 91 91 92 92 91 90 90 90 90 90 90 90 90 90 90 90 90 90 90 90 90 90 90 90 90 90 90 90 90 90 90 92 94 91 90 92 97 104 107 108 109 108 107 107 107 108 109 109 108 108 104 99 96 97 98 97 97 97 97 97 97 97 97 98 99 103 110 119 127 129 128 130 134 136 138 136 129 123 118 114 109 104 101 102 101 100 100 100 100 98 98 101 102 101 99 96 95 95 97 100 103 106 112 116 117 119 120 121 122 122 121 120 121 124 125 125 124 124 123 122 122 122 119 119 118 117 117 115 114 114 114 115 116 117 119 121 120 118 118 120 123 128 130 131 128 122 114 102 99 96 95 95 95 92 88 85 85 85 83 82 80 79 79 78 75 74 74 74 74 74 74 74 74 74 73 73 74 75 74 75 78 79 80 81 81 81 80 79 78 78 78 75 72 71 71 71 72 71 71 69 67 67 66 66 67 73 76 74 70 70 69 68 68 66 66 66 66 66 69 68 65 64 64 64 63 63 63 63 63 63 62 62 62 62 62 63 63 64 67 71 76 80 80 81 77 73 71 70 70 69 69 69 65 62 62 63 63 63 62 62 63 63 65 66 68 68 67 66 66 66 67 68 69 69 69 69 68 67 66 65 65 66 66 66 66 68 69 69 71 71 72 73 73 75 75 75 74 76 79 78 76 75 74 75 77 81 85 90 93 98 102 103 103 102 102 99 94 91 87 82 79 76 73 72 71 70 69 69 69 69 69 69 69 69 69 72 74 80 84 84 85 84 83 81 79 78 78 78 78 77 76 74 72 72 72 70 69 69 69 69 69 69 69 69 69 69 69 69 69 70 70 71 71 71 70 70 69 69 69 69 69 69 69 69 69 69 69 70 72 72 72 72 72 72 72 72 72 72 72 72 72 72 72 72 72 72 72 72 72 72 72 72 72 72 72 72 72 72 73 72 72 72 72 71 71 71 71 70 70 71 71 71 71 71 71 70 70 70 69 69 69 69 69 68 68 68 66 66 66 65 65 65 65 65 65 65 65 65 65 65 64 64 64 65 65 65 64 64 63 63 63 63 63 63 65 65 66 66 66 66 66 65 68 70 72 74 74 75 75 75 75 75 75 75 75 75 76 79 82 84 85 84 84 85 85 84 84 83 81 79 76 74 72 72 72 72 72 72 73 73 73 73 73 74 75 75 75 74 74 73 73 73 72 72 72 72 72 71 71 71 71 70 70 70 70 70 70 70 69 69 69 69 69 69 70 70 71 72 74 77 80 81 83 83 83 86 86 87 90 90 89 87 85 84 82 81 79 78 77 76 76 76 75 74 73 71 69 67 65 65 64 63 63 62 62 62 62 62 62 62 62 62 62 62 62 62 62 63 63 63 63 63 65 65 65 65 65 65 65 65 65 65 65 65 65 65 65 65 65 64 64 64 63 63 62 62 62 62 62 62 62 62 63 64 65 66 67 68 71 72 72 73 73 74 75 75 76 77 78 79 80 80 80 80 78 76 76 76 79 80 82 81 80 80 81 83 83 82 82 84 86 90 92 94 98 105 111 115 116 116 116 114 112 109 105 99 91 86 83 82 81 80 77 77 77 77 77 78 78 78 78 78 78 78 78 77 77 77 76 76 75 75 74 72 71 69 71 72 71 70 70 71 72 72 72 72 71 70 69 69 68 68 68 68 70 73 73 73 71 71 71 70 70 69 67 67 67 67 67 67 68 68 68 70 75 80 80 81 81 80 77 73 71 71 71 71 71 71 71 69 69 69 68 68 68 68 68 66 66 66 66 66 66 66 66 66 65 64 62 62 62 64 64 65 66 66 68 70 70 68 66 66 65 65 64 64 64 64 64 64 64 64 64 64 64 64 63 63 63 63 63 61 61 61 61 61 61 70 79 82 82 81 79 78 78 76 74 73 72 70 67 65 65 64 63
120 123 126 127 126 122 116 112 108 107 106 106 106 107 108 107 104 104 104 104 105 106 107 108 107 107 107 107 107 107 107 107 106 105 104 104 103 103 102 102 102 103 103 103 104 104 105 105 105 104 102 100 98 97 94 91 91 91 92 94 93 92 92 90 90 90 90 90 90 90 90 90 90 90 90 90 90 90 90 90 90 90 90 90 90 90 90 90 90 92 94 92 90 91 97 104 107 108 109 109 108 108 108 109 111 111 110 109 106 102 98 97 97 97 97 97 97 97 97 97 97 98 99 105 111 121 128 131 131 131 136 138 140 137 130 124 118 115 110 106 100 98 99 99 100 100 101 98 98 99 101 100 98 95 95 96 98 101 104 106 111 116 117 119 119 121 122 122 120 119 122 124 125 125 124 124 123 122 122 122 119 119 117 117 117 115 115 115 115 116 118 119 122 124 122 120 119 121 124 128 130 129 126 121 114 102 99 96 95 95 95 93 89 86 86 85 83 83 80 80 80 78 76 74 74 74 74 74 75 75 75 75 76 76 77 78 77 76 78 78 79 80 80 81 80 80 80 79 79 76 73 72 72 72 71 72 73 71 69 69 69 67 67 71 76 75 71 70 69 69 69 67 67 66 66 66 67 66 65 64 63 63 63 63 63 63 63 63 62 62 62 62 62 63 62 62 63 67 73 78 79 80 76 73 71 70 69 68 67 67 63 61 61 62 62 63 63 63 63 64 66 68 68 69 67 66 66 66 67 68 69 69 69 69 68 67 66 65 65 66 67 67 67 68 69 69 71 71 71 72 73 74 74 74 73 74 75 74 73 73 73 74 77 80 84 88 91 95 99 100 101 101 101 99 94 92 87 82 79 75 73 72 71 71 69 69 69 69 69 69 69 69 69 72 74 78 82 83 83 82 81 79 78 78 77 77 77 76 75 74 72 72 70 69 69 69 69 69 69 69 69 69 69 69 69 69 70 71 71 71 71 71 71 71 70 69 69 69 69 69 69 69 69 69 69 70 72 72 72 72 72 72 72 72 72 72 72 72 72 72 72 72 72 72 72 72 72 72 72 72 72 72 72 72 72 72 73 72 72 72 72 71 71 71 70 70 70 70 71 71 71 71 70 70 70 70 69 69 69 69 69 68 68 68 66 66 66 65 65 65 65 65 65 65 65 65 65 65 65 65 65 65 65 65 65 65 64 64 63 63 63 64 65 65 65 65 64 65 65 65 68 71 72 73 74 75 75 75 75 75 75 75 75 75 76 79 82 85 86 87 87 87 88 87 86 86 84 81 76 74 72 72 72 72 72 72 73 73 73 73 73 74 74 74 74 74 74 73 73 73 72 72 72 71 71 71 71 71 70 70 70 70 70 70 70 70 70 69 69 69 70 70 70 70 71 73 75 78 80 81 83 83 83 86 86 87 89 89 89 86 84 83 81 80 78 77 77 76 76 75 74 74 73 71 69 65 63 63 63 63 63 62 62 62 62 62 62 62 62 62 62 62 62 62 63 63 63 63 63 63 65 65 65 66 67 67 67 66 65 65 65 65 65 65 65 65 65 64 64 64 64 64 63 62 62 62 62 62 62 62 62 63 64 66 67 68 71 72 72 73 73 74 75 75 75 77 77 79 79 79 79 78 77 76 76 76 79 80 82 81 81 80 80 81 82 81 81 81 83 87 89 91 93 99 105 110 113 113 113 112 110 107 102 94 87 84 83 81 80 78 77 77 77 77 77 78 78 79 79 79 79 79 78 77 77 76 76 75 74 75 75 71 69 68 70 72 70 70 70 72 73 73 72 71 71 69 68 68 68 68 68 69 72 74 73 73 71 71 71 69 69 68 67 67 67 67 67 67 68 68 68 69 74 79 80 81 81 80 77 73 71 71 71 71 72 72 71 69 69 68 68 68 67 67 67 66 65 65 65 65 66 66 66 66 64 63 62 62 62 64 64 65 66 66 68 71 71 68 67 66 65 65 65 64 64 64 64 64 64 64 64 64 64 64 63 63 63 62 62 61 61 61 61 61 61 69 78 82 83 83 81 79 79 76 75 74 73 72 69 66 65 64 63
119 123 126 127 127 122 117 112 107 107 105 105 105 105 105 104 104 104 104 106 106 107 109 110 109 109 108 108 109 110 111 110 108 107 105 104 103 103 102 102 102 102 102 102 103 103 104 105 105 103 101 101 100 97 93 92 93 94 97 99 97 93 91 90 90 90 90 90 90 90 90 90 90 90 90 90 90 90 90 90 90 90 90 90 90 90 90 90 90 90 93 92 91 91 98 105 106 109 112 112 110 110 110 112 114 115 113 112 108 105 100 98 98 97 97 97 97 97 97 97 97 98 100 105 112 121 128 131 131 132 134 136 138 135 130 125 119 115 111 107 101 97 97 98 100 101 101 99 98 97 99 98 97 94 93 96 99 102 105 107 110 114 116 118 119 120 121 120 119 119 123 125 125 125 124 124 124 124 123 122 121 120 117 116 116 115 115 117 118 118 120 123 126 127 126 122 120 121 125 129 129 127 124 120 113 103 98 95 94 93 93 91 88 86 86 85 83 82 80 80 81 79 78 76 75 74 72 74 77 77 78 79 79 80 80 80 79 78 78 78 79 80 80 80 79 79 79 77 77 76 74 74 74 73 72 73 74 73 71 72 73 71 67 69 74 76 73 70 69 68 68 68 68 67 66 66 66 65 65 65 64 63 63 63 63 63 63 63 63 63 62 62 62 63 62 62 62 63 69 74 76 78 74 73 71 70 69 67 65 63 61 61 62 63 63 63 64 65 65 66 68 69 69 69 67 66 66 66 67 68 68 68 69 69 69 68 68 67 67 67 68 68 68 68 69 69 70 70 71 71 72 72 73 72 72 72 73 73 72 72 72 74 76 79 83 86 88 91 93 95 97 98 98 96 94 92 87 82 78 75 73 72 71 70 69 69 69 69 69 69 69 69 69 71 74 77 80 80 80 80 79 78 78 77 76 76 76 75 74 72 71 70 69 69 69 69 69 69 69 69 69 69 69 70 70 70 71 71 71 71 71 71 71 71 71 70 70 70 69 69 70 70 70 70 71 71 72 72 72 72 72 72 72 72 72 72 72 72 72 72 72 72 72 72 72 72 72 72 72 72 72 72 72 72 72 72 73 72 72 72 72 71 71 71 70 69 69 70 70 70 70 70 70 69 69 69 69 69 69 69 69 68 68 68 66 66 66 65 65 65 65 65 65 65 65 65 65 65 65 65 65 65 65 65 64 64 64 64 64 64 64 64 64 64 64 64 64 64 64 64 67 69 72 72 72 74 75 75 75 75 75 75 75 75 77 81 83 85 87 88 89 89 90 89 88 88 86 83 78 74 72 72 72 72 72 72 73 73 73 73 73 74 74 74 74 73 73 73 73 72 72 72 72 71 71 71 71 71 70 70 70 70 70 70 70 70 70 70 70 70 70 70 70 70 71 73 75 78 81 81 82 82 83 84 86 87 87 88 87 84 82 81 80 79 77 76 76 75 74 74 73 73 73 71 69 64 63 63 63 63 63 62 62 62 62 62 62 62 62 62 62 63 64 64 64 64 64 64 64 64 65 65 65 67 69 69 68 67 66 67 66 65 65 65 65 65 65 65 65 65 65 65 64 63 63 62 62 62 62 62 62 63 63 65 67 68 70 72 72 73 73 74 74 74 75 76 76 78 78 78 77 77 76 75 75 77 79 80 80 80 81 79 79 79 80 80 80 80 81 84 86 87 88 92 98 104 109 111 109 108 105 101 96 89 85 83 82 81 78 77 77 77 77 77 77 78 78 79 79 79 79 79 78 76 75 75 75 74 73 73 73 69 68 68 69 71 69 70 71 73 73 73 72 71 70 69 68 68 68 68 68 70 73 74 73 73 72 72 71 69 68 68 68 68 67 67 67 67 68 68 68 69 74 78 79 81 81 80 77 73 70 69 70 73 73 72 71 69 69 68 68 68 67 67 67 65 65 65 65 65 66 66 66 66 63 63 63 63 64 65 65 66 66 67 68 70 70 68 66 66 65 65 65 64 64 64 64 64 64 64 64 64 64 64 63 63 63 62 62 61 61 61 61 61 61 67 76 80 82 82 81 80 79 77 76 75 73 72 70 67 65 64 63
119 123 126 127 127 123 118 112 108 108 107 105 105 105 104 104 104 104 106 107 108 109 111 112 113 111 110 110 112 113 114 113 112 110 107 104 103 103 102 102 102 102 102 102 102 103 104 105 105 102 102 102 100 97 95 96 98 99 101 101 98 93 91 90 90 90 90 90 90 90 90 90 90 90 90 90 90 90 90 90 90 90 90 90 90 90 90 90 90 90 92 92 91 93 101 105 107 112 115 115 114 112 113 116 119 120 118 115 110 106 103 101 100 98 98 97 97 97 97 97 97 98 101 106 112 120 126 129 130 130 131 133 134 132 130 125 119 116 111 108 103 98 95 96 98 100 101 99 97 96 96 97 95 93 93 96 99 103 105 107 108 111 115 117 118 119 120 119 118 119 123 126 125 125 125 125 125 125 125 124 123 121 118 116 116 116 117 120 122 122 124 126 129 130 129 125 121 122 125 128 127 125 123 119 112 103 98 94 93 93 91 90 88 86 86 85 83 82 81 81 82 81 80 79 77 74 72 73 77 79 80 81 81 82 82 80 80 79 78 79 79 80 80 79 79 79 77 77 76 75 75 75 75 75 74 74 75 74 73 73 75 74 69 66 70 75 74 71 68 68 68 68 68 68 67 66 66 66 66 65 64 63 63 63 63 63 63 63 63 63 63 63 63 63 62 62 62 62 65 70 73 74 73 71 70 69 68 67 65 62 61 61 64 65 65 64 65 66 67 68 68 69 69 68 66 66 66 66 67 68 68 68 69 69 69 69 69 68 68 68 68 69 69 69 69 69 70 70 70 71 71 72 72 72 72 72 73 74 72 71 71 72 74 77 79 82 83 85 87 89 91 93 94 93 92 90 86 81 77 75 73 72 71 70 69 69 69 69 69 69 69 69 69 69 74 76 77 77 77 77 77 77 77 77 76 76 75 74 73 71 69 69 69 69 69 69 69 69 69 69 69 69 70 70 71 71 72 71 71 71 71 71 71 71 72 72 72 71 70 70 71 72 72 72 72 72 72 72 72 72 72 72 72 72 72 72 72 72 72 72 72 72 72 72 72 72 72 72 72 72 72 72 72 72 72 72 72 72 72 72 72 71 71 71 69 69 69 69 70 70 70 70 70 69 69 69 69 69 69 70 70 69 68 68 66 66 66 65 65 65 65 65 66 65 65 65 65 65 65 65 65 65 65 65 64 64 64 64 65 65 65 65 64 64 64 64 64 64 64 64 64 65 70 73 72 74 75 75 75 75 75 75 75 76 79 82 85 87 88 90 91 92 92 92 91 89 87 84 79 75 73 72 72 72 72 72 72 72 73 73 73 73 74 74 74 73 73 72 72 72 72 72 72 72 72 72 71 71 70 70 70 70 70 71 71 71 71 70 70 70 70 70 71 71 71 73 75 78 80 80 81 82 82 83 84 85 86 85 84 82 80 79 78 77 76 75 75 74 74 73 73 73 72 70 67 64 63 63 63 63 63 62 62 62 62 62 62 62 62 63 64 64 65 65 65 65 65 65 65 65 65 65 65 67 69 69 68 67 68 68 67 66 65 65 65 65 66 65 66 67 67 66 64 64 64 62 62 62 62 62 62 62 63 65 66 67 70 72 72 74 74 74 74 74 75 76 76 77 77 77 76 76 74 74 76 77 79 79 78 78 80 79 78 78 79 79 79 80 81 83 85 85 86 88 92 98 104 107 105 103 98 93 89 87 84 83 81 79 77 77 77 77 77 77 78 79 79 79 80 80 79 79 78 75 74 74 74 73 72 72 71 68 68 68 68 68 68 71 72 74 73 73 71 70 70 68 68 68 68 68 68 70 73 74 73 73 72 72 72 68 68 68 68 68 68 67 67 67 68 68 68 68 73 76 78 81 80 79 76 72 69 69 71 74 73 72 71 69 69 68 68 68 66 66 66 65 65 65 65 65 66 66 66 65 65 64 64 64 65 66 66 66 67 67 68 69 69 68 66 66 65 65 65 65 65 64 64 64 64 64 64 64 64 64 63 63 63 62 62 61 61 61 61 61 61 66 73 78 81 81 81 81 80 79 77 75 72 72 70 68 66 64 63
118 123 126 128 128 124 118 112 109 110 108 105 105 104 103 103 104 104 108 109 110 111 113 116 117 115 113 113 114 117 117 117 115 113 110 106 103 103 102 102 102 101 101 101 102 102 103 104 104 102 102 102 101 100 100 101 103 102 101 100 96 93 91 90 90 90 90 90 90 90 90 90 90 90 90 90 90 90 90 90 90 90 90 90 90 90 90 90 90 90 91 92 93 96 102 104 109 115 116 117 116 115 116 119 123 124 122 118 112 107 106 104 101 98 98 97 97 97 96 97 97 98 102 106 112 118 123 124 126 128 130 131 131 130 130 125 119 116 112 108 104 100 96 95 96 98 99 98 97 96 96 96 94 92 92 96 99 102 104 106 108 111 113 117 118 119 120 119 117 119 123 126 126 126 126 126 125 126 126 126 125 123 120 117 116 118 121 124 126 126 128 129 131 133 132 127 122 122 125 127 126 124 121 117 112 103 98 93 91 91 91 90 88 86 86 85 83 83 83 83 83 82 80 80 77 75 72 71 74 77 79 80 81 82 82 81 80 80 80 80 80 80 80 79 79 79 77 77 76 76 76 75 75 75 74 74 74 74 73 72 73 72 68 66 67 71 72 69 68 68 68 69 69 69 67 67 67 66 66 65 64 63 63 63 63 63 63 63 63 63 63 63 63 63 63 63 63 62 62 64 68 69 69 68 66 65 67 67 67 63 61 61 63 65 65 65 65 67 69 69 69 68 68 67 66 66 66 66 66 68 68 68 69 69 69 69 69 69 69 69 68 68 67 68 69 69 70 70 70 71 71 72 72 72 72 72 73 75 73 71 71 71 72 74 76 77 78 79 81 83 85 87 89 89 89 88 84 79 76 74 72 72 70 70 69 69 69 69 69 69 69 69 69 69 72 75 75 76 76 76 76 76 75 75 74 74 74 73 72 70 69 69 69 69 69 69 69 69 69 69 69 69 70 71 71 71 72 72 72 72 72 72 72 72 72 72 72 71 71 71 72 72 72 72 72 72 72 72 72 72 72 72 72 72 72 72 72 72 72 72 72 72 72 72 72 72 72 72 72 72 72 72 72 72 72 72 72 72 72 72 72 71 70 70 69 69 69 69 69 69 70 70 70 69 69 69 69 69 68 70 71 70 69 68 67 66 66 65 65 65 66 67 67 67 68 68 68 68 66 65 65 65 65 64 64 64 64 65 66 66 65 65 64 64 64 64 64 63 63 63 63 63 66 72 74 74 76 76 74 74 74 73 74 78 81 83 85 88 90 92 93 94 95 95 93 91 88 85 80 77 75 72 72 71 72 72 72 72 73 73 73 73 73 73 73 73 73 72 72 72 72 72 72 72 72 71 71 71 70 70 70 70 70 71 71 71 72 71 71 70 70 70 71 71 71 73 75 78 79 79 79 80 81 81 82 83 84 83 82 80 78 76 76 75 74 73 73 73 73 73 72 71 70 68 65 63 63 63 63 63 63 62 62 62 62 62 62 62 63 63 65 66 66 67 67 67 67 67 66 65 65 65 65 66 67 67 68 68 68 68 67 66 66 66 66 66 66 67 68 69 69 67 65 64 63 62 62 62 62 62 62 62 62 64 65 67 70 72 73 75 74 74 74 74 75 75 75 76 76 75 75 75 74 75 77 78 79 79 77 76 77 77 77 77 79 79 80 81 83 84 85 85 85 86 88 94 99 102 99 95 91 88 86 85 84 83 80 78 77 77 77 77 77 77 78 79 80 80 80 80 80 79 77 74 72 72 72 71 71 71 69 68 68 68 68 69 71 72 73 73 73 72 70 70 70 68 68 68 68 68 68 69 72 72 72 72 71 71 71 68 68 68 68 68 68 68 68 68 68 68 68 68 72 76 78 81 80 79 74 70 68 68 71 74 73 72 70 69 68 68 68 68 66 65 65 65 65 65 66 66 66 67 67 67 67 66 67 66 67 67 67 67 67 67 67 67 68 67 66 65 65 65 65 64 64 64 64 64 64 64 64 64 64 64 63 63 63 62 62 61 61 61 61 61 61 64 71 76 79 81 82 81 81 79 78 75 72 72 70 68 67 64 63
117 122 126 128 128 125 119 113 110 110 109 106 105 103 103 103 104 106 110 111 112 113 117 120 120 118 115 115 118 123 123 121 118 116 113 109 105 105 103 102 102 101 101 101 101 101 103 103 102 102 102 102 101 101 100 102 103 103 102 100 96 93 90 90 90 90 90 90 90 90 90 90 90 90 90 90 90 90 90 90 90 90 90 90 90 90 90 90 90 91 93 95 96 99 103 104 109 115 116 117 117 117 118 121 124 125 124 118 112 108 107 106 102 100 99 98 97 97 96 97 97 98 102 106 112 115 118 120 123 128 129 128 128 128 128 123 118 116 113 109 105 101 97 95 94 95 97 97 96 95 95 94 92 91 92 95 98 101 104 105 108 111 112 116 118 119 120 118 116 119 122 124 125 125 126 126 126 126 126 127 126 124 122 119 118 120 124 128 130 131 132 133 133 132 131 126 121 121 125 126 125 123 119 115 111 103 98 93 90 90 90 90 89 86 85 85 84 84 84 84 84 82 80 80 78 75 72 71 71 74 78 79 81 81 81 81 81 81 79 79 80 80 80 79 79 79 77 76 76 75 75 75 74 73 74 73 72 72 72 72 72 71 68 67 67 67 68 68 69 69 69 70 70 70 68 68 67 66 66 64 63 63 63 63 63 63 63 63 63 63 63 63 63 63 64 64 63 63 62 61 62 63 63 63 62 62 65 66 66 63 61 61 63 64 64 65 66 69 69 68 68 68 68 67 66 66 66 66 66 68 68 68 69 69 69 69 69 69 69 69 68 67 66 68 69 69 69 69 70 71 71 72 72 72 72 72 73 75 75 74 72 71 71 73 74 74 75 75 77 78 79 81 83 85 85 84 81 78 75 73 72 72 70 69 69 69 69 69 69 69 69 69 69 69 70 73 73 74 74 74 74 74 74 73 72 72 71 71 70 69 69 69 69 69 69 69 69 69 69 69 69 70 71 71 72 72 72 72 72 72 72 72 72 72 72 72 72 72 72 72 72 72 72 72 72 72 72 72 72 72 72 72 72 72 72 72 72 72 72 72 73 73 73 73 73 73 73 73 72 72 72 72 72 72 72 72 72 72 72 72 72 71 70 70 69 69 69 69 69 69 70 70 70 70 70 70 71 69 68 70 71 70 69 69 68 67 66 65 65 67 67 68 68 69 71 73 73 71 66 65 65 65 65 64 64 64 66 67 69 69 67 67 67 65 66 66 66 64 63 63 63 63 63 70 75 75 75 75 73 73 72 73 75 78 82 85 87 89 92 93 94 95 96 96 94 91 89 85 82 80 77 74 72 71 71 71 72 72 73 73 73 73 73 73 73 72 72 72 72 72 72 72 72 72 72 71 71 71 71 71 71 71 71 71 71 73 74 74 73 72 70 70 70 70 70 72 75 77 78 78 78 79 79 80 80 81 82 81 80 79 76 74 73 73 73 72 72 72 71 71 70 69 67 66 65 63 63 63 62 62 62 62 62 62 62 62 62 63 64 65 67 68 68 68 69 69 69 69 68 67 66 65 65 66 66 66 68 68 68 67 67 67 67 67 67 67 67 68 69 70 69 68 65 64 63 62 62 62 62 62 62 62 62 62 64 66 69 72 73 75 74 73 73 73 73 73 74 75 75 74 74 74 74 77 79 79 79 78 76 74 74 75 77 79 79 79 81 83 84 86 86 85 85 86 86 89 93 94 92 89 87 86 86 84 83 82 80 78 77 77 77 77 77 78 80 81 81 80 80 80 79 78 75 73 71 71 71 71 70 70 68 68 68 68 69 71 73 73 73 73 72 71 70 70 70 68 68 68 68 68 68 68 70 70 71 71 71 71 70 68 68 68 68 68 68 68 68 68 68 68 68 69 72 76 78 81 80 78 73 69 68 68 71 73 73 70 68 67 67 67 67 67 66 65 65 65 65 65 66 66 67 67 67 68 69 70 70 70 69 69 68 67 67 67 67 67 67 66 66 65 65 65 65 64 64 64 64 64 64 64 64 64 64 63 63 63 62 62 62 61 61 61 61 61 61 62 67 74 77 79 81 81 81 80 78 75 72 71 70 68 67 64 63
117 122 126 128 129 126 119 113 111 111 109 106 104 103 103 103 105 108 112 113 114 116 120 123 123 120 116 118 124 129 130 127 123 120 117 114 110 107 105 103 102 101 101 101 101 101 103 103 102 102 102 102 101 101 101 102 103 103 102 99 95 92 90 90 90 90 90 90 90 90 90 90 90 90 90 90 90 90 90 90 90 90 90 90 90 90 90 90 90 92 96 100 98 99 103 103 107 113 116 117 117 117 119 121 124 125 124 118 111 109 108 107 105 102 101 100 97 97 96 97 97 98 102 106 112 114 116 119 123 128 128 126 124 125 123 118 116 115 113 111 106 101 97 95 93 93 94 95 95 94 93 92 90 90 91 95 97 101 104 106 109 111 112 116 118 119 119 117 115 119 121 122 123 124 125 125 126 127 127 127 127 126 124 122 120 123 128 132 135 136 137 137 135 132 128 126 121 121 124 126 124 121 117 113 109 103 99 93 90 89 90 90 88 86 84 84 84 84 83 83 83 82 81 80 78 76 74 71 71 72 77 79 81 81 81 81 80 79 77 77 78 79 80 79 78 77 76 74 73 73 74 74 73 73 73 72 71 72 74 76 76 72 68 67 67 68 69 70 71 71 70 70 70 69 68 68 67 66 66 64 63 63 63 63 63 63 63 63 63 63 63 63 63 64 65 65 64 63 62 61 61 61 61 61 61 61 63 63 62 62 61 63 65 65 65 66 66 68 69 68 68 68 68 67 66 66 66 66 66 68 68 68 69 69 69 69 70 70 70 70 68 67 66 67 69 69 69 69 69 71 71 72 72 72 73 74 74 76 76 77 74 73 72 73 73 74 74 74 74 75 75 77 78 80 81 80 78 76 74 72 71 70 69 69 69 70 70 70 69 69 69 69 69 69 69 70 70 70 70 70 72 72 71 71 70 69 69 69 69 69 69 69 70 70 71 71 71 70 70 70 70 71 71 73 74 73 72 72 72 72 72 72 72 72 72 72 72 72 72 72 72 72 72 72 72 72 72 72 72 72 72 73 73 73 72 72 72 72 72 72 73 73 73 73 73 73 73 73 72 72 72 72 72 72 72 72 72 72 72 72 72 71 70 70 69 69 69 69 69 69 70 70 71 71 71 71 72 70 68 70 71 70 70 70 68 68 66 65 65 66 67 67 67 69 72 72 70 68 65 64 64 65 65 65 65 67 69 70 72 72 69 71 71 69 70 69 68 65 64 64 64 64 63 70 75 73 74 74 72 71 71 73 76 79 83 86 88 90 92 94 95 95 96 95 94 91 89 87 85 82 79 76 72 71 71 71 72 72 72 72 72 73 72 72 72 72 72 72 72 72 72 72 72 71 71 71 71 71 71 71 71 71 71 72 72 75 77 78 76 74 72 71 69 68 69 72 74 75 76 76 77 77 77 78 79 80 79 79 78 76 74 71 70 71 71 70 70 70 69 68 67 67 67 66 66 65 65 64 62 62 62 62 62 62 62 62 62 63 65 67 69 70 70 70 71 72 72 72 71 69 68 67 67 67 66 66 68 68 68 67 67 67 67 67 68 69 69 69 69 69 68 67 65 64 63 62 62 62 62 62 62 62 62 62 63 66 69 71 72 73 72 72 72 72 71 71 72 73 73 72 73 74 74 78 79 79 78 76 75 74 74 75 77 79 80 80 81 83 84 85 86 85 85 85 85 87 88 89 88 87 87 86 85 84 83 81 79 77 77 77 77 78 79 80 82 83 82 80 79 78 77 77 75 72 71 71 70 70 69 69 68 68 69 70 71 72 73 74 74 73 72 70 68 69 69 68 68 68 68 68 68 68 69 70 71 73 72 72 71 69 68 68 68 68 68 68 68 68 68 68 69 69 72 76 80 83 81 78 73 69 68 67 69 71 71 68 66 66 66 66 66 65 65 65 65 65 65 65 66 66 67 68 68 69 73 75 74 73 72 71 70 68 67 67 67 67 67 66 66 65 65 65 65 64 64 64 63 63 63 63 63 63 63 63 62 62 62 62 62 61 61 61 61 61 61 62 64 70 75 77 79 81 82 81 78 75 71 70 70 68 66 64 63
117 121 126 128 129 126 120 114 111 111 109 106 104 104 104 105 108 111 114 115 116 118 123 125 125 121 118 122 129 135 137 134 129 125 121 119 116 111 107 105 103 102 102 101 101 101 104 103 103 102 103 103 102 103 105 104 101 101 100 97 93 91 90 90 90 90 90 90 90 90 90 90 90 90 90 90 90 90 90 90 90 90 90 90 90 90 90 90 91 94 98 101 98 99 104 104 107 112 115 116 116 116 118 121 124 125 124 118 111 110 110 108 106 104 104 102 98 97 97 97 99 99 102 106 112 115 117 119 124 129 127 125 120 119 117 113 113 114 114 112 107 101 98 95 93 93 93 94 94 93 92 91 90 90 91 95 97 101 104 106 109 111 112 116 118 119 119 116 115 118 120 121 122 123 123 125 125 127 127 128 127 127 126 124 123 126 131 137 140 141 140 138 136 132 128 126 122 120 122 124 123 119 115 111 108 103 99 94 90 88 88 89 88 85 84 84 84 84 83 83 83 82 81 81 79 78 76 73 71 71 75 79 80 80 80 80 80 79 77 77 76 76 79 79 79 77 76 75 73 74 74 74 73 73 73 71 71 74 78 79 79 74 69 68 69 72 73 73 72 71 71 69 68 68 67 67 67 66 66 64 63 63 63 63 63 63 63 63 63 63 63 63 63 65 66 66 64 64 63 61 61 61 61 61 61 61 61 61 61 61 61 64 66 66 66 67 67 68 70 69 69 68 68 68 67 67 67 67 67 68 68 68 69 69 69 70 70 71 70 70 67 66 66 67 69 69 69 69 69 71 71 73 73 73 74 75 75 76 76 76 75 74 73 73 73 74 74 74 74 74 74 74 75 76 77 77 76 74 74 72 71 69 69 69 69 72 74 73 70 69 69 70 70 69 69 69 69 69 69 69 69 69 69 69 69 69 69 69 69 70 71 72 73 73 74 74 74 73 72 72 72 72 72 73 74 74 72 72 72 72 72 72 72 72 72 72 72 72 72 72 73 73 73 72 72 72 72 72 72 72 72 73 73 73 73 73 73 73 73 73 73 73 73 73 73 73 73 73 72 72 72 72 72 72 72 72 72 72 72 72 72 72 71 71 69 69 69 69 69 69 71 71 71 72 72 72 73 72 70 70 71 71 70 70 68 68 67 65 65 65 65 65 66 69 70 67 65 64 64 64 64 65 66 68 68 70 72 73 74 73 72 73 73 72 71 70 69 65 64 64 64 64 63 69 74 71 70 72 71 70 72 74 77 79 84 86 88 91 92 94 95 95 95 94 93 91 89 88 86 83 79 76 73 70 70 70 72 72 72 72 72 72 72 72 72 72 72 72 72 72 72 72 72 71 71 71 71 71 72 72 72 72 73 73 72 75 80 81 79 77 75 73 71 68 68 70 72 74 74 74 75 76 76 77 77 78 77 76 75 74 71 68 68 68 68 68 68 68 67 66 65 65 67 68 68 68 67 66 65 64 63 62 62 62 62 62 62 65 67 69 71 72 72 73 75 77 77 77 75 73 71 70 69 68 68 67 68 68 68 68 68 69 69 69 69 69 69 69 69 69 67 67 64 63 62 62 62 62 62 62 62 62 62 62 62 65 67 69 70 71 71 71 71 70 69 69 71 71 71 71 72 73 74 78 79 77 76 74 74 74 74 75 77 78 81 81 81 83 83 83 84 84 84 85 85 87 87 88 87 87 87 87 85 83 82 81 79 77 77 77 78 78 81 83 83 83 82 80 78 77 76 76 75 71 70 70 70 70 68 68 68 68 69 70 71 72 72 74 74 72 70 68 68 68 68 68 68 68 68 68 68 68 68 70 73 75 76 75 72 70 68 68 68 68 68 68 68 68 68 68 69 70 73 78 83 85 81 77 72 69 68 67 67 69 68 65 65 65 65 65 65 65 65 65 65 65 65 65 66 66 66 66 67 72 78 81 80 78 76 75 72 69 68 68 68 67 67 67 66 66 65 65 64 64 64 63 63 63 63 63 63 63 63 62 62 62 62 62 62 61 61 61 61 61 61 62 62 67 73 75 77 80 82 82 79 76 72 70 69 68 66 64 63
116 121 126 129 129 126 120 114 111 110 108 104 104 104 104 107 111 114 116 117 118 121 125 127 126 122 121 125 133 140 142 141 136 132 127 123 121 116 111 107 104 103 102 101 101 102 104 104 104 103 103 103 104 107 109 105 102 101 99 97 94 92 91 91 92 91 91 90 90 90 90 90 90 90 90 90 90 90 90 90 90 90 90 91 90 92 92 93 94 97 101 101 97 101 104 104 107 112 113 114 113 112 115 119 123 125 124 117 110 111 111 108 107 106 105 103 100 97 97 97 100 102 103 106 112 115 117 120 124 128 127 124 117 113 111 110 112 114 114 112 107 102 98 95 93 93 92 92 92 92 91 90 89 89 92 95 98 101 105 106 109 111 112 116 117 119 118 116 115 116 119 121 121 122 122 124 125 126 127 128 128 128 128 126 125 129 134 140 144 143 141 138 136 133 129 126 123 119 119 121 121 117 113 110 107 103 99 94 90 88 87 87 87 85 84 84 83 83 83 82 82 82 81 81 80 80 78 75 72 71 72 76 78 78 80 80 80 80 79 79 78 78 80 80 80 79 78 77 77 77 76 74 73 73 73 71 71 77 79 79 79 75 70 69 73 77 76 74 72 71 71 68 68 68 67 66 66 65 65 64 63 63 63 63 63 63 63 63 63 63 63 63 63 65 65 65 64 64 62 62 62 61 61 61 61 61 61 61 62 63 64 66 67 67 69 69 69 70 72 71 70 68 68 68 68 67 67 67 67 68 67 67 68 68 69 70 70 72 72 70 66 66 66 67 69 69 69 69 69 69 70 72 74 74 74 75 75 75 75 75 75 75 74 74 74 74 74 74 74 74 74 74 74 74 74 74 74 73 73 72 70 69 69 69 70 75 77 77 73 70 70 72 72 70 69 69 69 69 69 69 69 69 69 69 69 69 70 70 71 72 74 76 75 76 76 75 75 75 74 74 73 72 72 73 73 73 72 72 72 72 72 72 72 72 72 73 73 73 73 73 73 73 73 72 72 72 72 72 72 72 72 73 73 73 73 73 73 73 73 73 73 73 73 73 73 73 73 73 72 72 72 72 72 72 71 71 71 71 71 71 71 71 70 70 70 69 69 69 69 69 70 71 71 73 73 73 73 72 71 72 72 71 70 69 68 67 67 65 65 64 64 64 67 69 67 64 64 64 63 63 63 66 69 71 72 74 75 75 75 74 74 74 74 73 71 70 68 67 68 67 65 65 64 68 70 67 66 68 68 69 73 76 78 81 84 86 88 90 92 93 93 94 93 93 92 90 89 88 86 83 79 75 71 69 68 70 71 71 71 72 72 72 72 72 72 72 72 72 72 72 72 72 72 71 71 71 72 72 73 73 73 75 75 75 74 76 81 84 82 80 78 76 73 70 68 68 71 72 74 74 74 74 75 75 76 76 75 74 73 72 70 67 67 67 67 67 66 66 65 65 65 66 69 71 71 72 70 68 68 67 64 62 62 62 62 62 64 67 69 72 74 76 76 78 81 82 83 83 81 78 75 73 71 70 69 69 68 68 68 69 69 71 72 71 70 69 68 68 68 68 67 66 64 62 62 62 62 62 62 62 62 62 62 62 62 63 65 67 68 69 70 70 69 69 68 68 69 69 69 70 72 73 74 76 77 76 75 74 73 74 74 74 76 78 80 81 81 82 82 83 83 83 84 85 85 87 87 86 85 84 85 86 83 81 80 80 79 77 77 78 78 79 82 83 84 83 82 80 78 77 76 75 74 71 70 70 69 69 68 68 68 68 69 70 71 71 72 73 72 69 68 68 68 68 68 68 68 68 69 69 69 69 70 72 76 79 81 78 73 70 68 68 68 68 68 68 68 68 68 69 70 70 74 80 84 85 81 76 72 69 68 66 65 66 65 65 65 65 65 65 65 65 65 65 66 65 65 65 65 65 66 66 67 73 82 87 86 84 81 79 76 71 68 68 68 68 68 68 66 66 65 65 64 64 64 63 63 63 62 62 62 62 62 62 62 62 62 62 62 61 61 61 61 61 61 62 62 66 71 74 76 78 81 82 80 77 73 70 68 68 66 64 63
116 120 125 129 130 126 120 114 111 109 106 104 104 105 106 109 113 116 119 119 121 124 128 130 128 123 122 126 135 143 147 146 143 138 133 127 124 121 115 111 106 103 102 102 101 102 104 104 104 104 104 105 106 110 110 105 103 101 98 96 96 94 93 93 93 92 92 91 90 90 90 90 90 90 90 90 90 90 90 90 90 90 90 92 92 92 92 94 97 99 101 99 96 101 104 102 106 110 111 110 109 107 110 115 121 124 123 116 110 110 111 108 106 106 106 104 101 99 97 98 100 103 104 107 112 115 117 118 123 126 125 122 115 109 107 108 111 113 113 112 107 102 98 95 93 93 91 91 91 91 90 90 89 89 92 96 98 102 105 106 109 111 112 116 117 118 117 116 116 116 119 121 121 121 122 122 123 124 126 128 129 129 128 127 128 131 137 142 144 143 139 137 136 133 130 126 123 121 117 117 117 115 111 108 106 102 99 94 90 88 86 86 85 83 83 83 83 83 82 82 82 82 81 81 81 81 80 78 74 70 70 71 74 76 78 80 80 81 80 80 80 80 80 81 80 80 79 79 78 77 77 76 74 73 71 69 71 77 79 79 78 77 73 73 76 78 77 74 72 71 69 68 67 67 67 66 65 64 63 63 63 63 63 63 63 63 63 64 63 63 63 63 63 64 64 64 63 63 62 62 62 62 62 62 62 63 63 64 65 67 67 68 68 69 70 71 71 73 74 73 70 70 70 69 68 67 67 68 68 68 68 67 66 68 69 70 71 73 74 70 66 66 66 67 69 69 69 69 69 68 68 70 72 74 75 75 75 75 74 74 75 75 75 75 75 74 74 74 74 74 74 74 74 74 74 74 73 73 73 71 70 70 69 69 71 76 77 77 75 73 72 73 75 74 71 69 69 69 69 69 69 69 69 69 69 70 73 74 74 75 76 76 76 76 76 76 76 76 74 74 74 73 73 73 73 73 72 72 72 72 72 72 72 72 73 73 73 73 73 73 73 72 72 72 72 72 72 72 72 72 72 72 73 73 73 73 73 73 73 73 73 73 73 73 73 73 73 73 72 72 72 72 72 71 71 71 70 70 70 70 70 70 70 70 69 69 69 69 69 69 69 70 71 72 72 72 71 71 72 72 72 71 70 69 67 67 67 65 65 64 64 64 67 69 65 64 64 63 63 63 64 68 71 72 74 77 75 74 74 74 74 75 74 74 73 71 69 70 72 70 66 66 65 66 66 66 65 66 66 68 72 76 78 83 84 84 87 88 90 91 91 92 92 91 90 88 87 86 84 81 77 73 70 68 68 69 70 70 71 72 72 72 72 72 72 72 72 72 72 72 72 72 72 71 71 72 73 75 76 77 77 79 79 78 76 77 82 86 85 83 81 79 75 71 68 67 69 71 74 74 74 74 74 74 74 74 73 72 72 70 69 67 66 66 66 66 66 65 65 65 65 68 71 72 72 72 71 69 69 67 63 62 62 62 62 63 66 70 73 75 78 80 81 83 86 88 89 88 86 83 79 75 73 71 70 70 69 69 70 70 71 72 73 72 70 69 68 68 68 67 66 66 64 62 62 62 62 62 62 62 62 62 62 62 62 62 63 65 67 68 69 69 68 68 68 68 68 68 69 69 72 73 73 75 76 75 74 73 73 74 74 74 75 78 80 81 81 82 82 83 83 83 84 85 85 86 85 84 83 82 82 83 82 80 79 79 78 76 76 76 77 79 82 83 84 82 80 78 77 77 75 73 72 70 70 70 69 68 68 68 68 69 69 69 70 71 71 71 70 68 68 68 68 68 68 68 68 70 71 71 70 72 73 75 79 82 84 79 74 70 69 68 68 68 68 68 68 69 69 71 72 71 74 81 84 85 81 76 71 69 68 65 65 65 65 65 65 65 65 65 65 65 65 65 66 65 65 65 65 65 66 66 66 73 84 90 91 90 88 84 79 73 69 68 67 67 67 69 67 66 65 65 64 63 63 63 63 63 62 62 62 62 62 62 62 62 62 62 62 61 61 61 61 61 61 62 62 66 71 73 74 76 79 81 80 78 75 70 68 66 65 64 63
115 120 125 128 130 126 120 113 110 108 106 105 105 106 107 111 115 118 120 121 122 126 131 133 128 124 123 127 135 145 151 150 148 144 139 133 127 124 119 114 109 104 103 102 101 101 104 104 104 104 105 107 109 110 108 104 101 98 96 95 96 96 95 94 93 93 92 92 91 90 90 90 90 90 90 90 90 90 90 90 90 90 90 92 92 91 90 91 94 97 99 96 95 100 103 101 103 107 108 106 104 103 105 110 117 122 121 115 109 109 110 108 105 105 105 104 101 99 96 98 100 103 105 109 113 115 115 116 120 122 121 119 112 106 105 108 111 112 112 110 107 102 98 96 93 92 90 89 90 90 89 89 89 89 92 96 99 103 105 106 109 111 112 116 116 118 117 117 116 116 118 119 120 120 120 121 121 123 125 126 127 128 128 128 128 132 137 141 143 141 137 135 135 133 130 127 123 121 118 113 112 111 109 108 105 101 99 95 90 87 84 85 84 82 82 82 82 81 81 81 81 81 81 81 80 80 80 79 76 72 70 69 69 72 76 79 79 80 79 79 79 79 79 79 79 78 78 78 77 77 75 75 72 70 69 67 68 74 77 77 77 77 77 77 77 78 77 75 70 68 67 68 67 65 65 64 64 63 62 63 63 63 63 63 63 63 63 64 63 63 63 63 63 63 63 64 63 63 63 64 62 62 62 63 64 66 67 67 67 68 69 69 68 70 70 72 74 76 77 75 73 73 73 71 68 67 67 69 70 70 69 67 66 67 68 70 71 72 72 68 66 66 66 67 69 69 69 69 69 68 68 69 70 71 73 74 75 75 73 73 74 74 75 75 75 75 75 75 74 74 74 74 74 74 74 74 73 72 72 71 71 71 71 70 72 75 75 75 74 74 73 74 75 76 74 70 69 69 69 69 69 69 69 69 69 72 75 76 76 76 76 76 76 76 76 75 75 75 74 74 74 73 73 73 73 73 73 72 72 72 72 72 72 72 73 73 73 73 73 73 72 72 72 72 72 72 72 72 72 72 72 72 72 72 73 73 73 73 73 73 73 73 73 73 73 73 73 73 72 72 72 71 71 71 71 71 70 69 69 69 69 69 69 69 69 69 69 68 68 68 68 69 69 70 70 70 70 70 70 71 71 71 70 69 67 66 66 65 65 64 64 64 65 66 64 63 63 63 63 63 66 69 72 74 76 77 74 74 73 74 74 75 76 77 76 73 72 71 71 69 67 66 66 67 69 69 67 66 66 67 69 73 77 82 83 82 84 85 86 88 89 90 90 89 88 86 85 84 81 78 75 72 69 68 68 68 69 70 70 71 71 72 72 72 72 72 72 72 72 72 71 71 72 72 73 75 78 81 82 82 82 83 82 82 80 79 82 87 87 85 84 82 78 73 70 67 68 70 72 73 74 74 74 73 73 72 71 71 70 69 68 67 66 66 65 65 65 65 65 65 65 67 70 72 72 72 71 68 66 65 62 62 62 62 62 64 69 73 76 78 81 84 86 88 91 93 94 93 91 88 83 79 76 73 72 71 71 71 71 71 72 72 72 71 70 69 68 68 68 67 66 66 63 62 62 62 62 62 62 62 62 62 62 62 62 62 62 63 65 66 67 67 66 67 67 67 67 68 69 69 73 74 74 73 74 74 73 73 73 73 73 74 75 77 80 80 81 81 82 82 83 83 84 84 84 84 84 83 82 82 82 82 82 79 79 78 76 76 75 74 75 77 80 81 82 81 78 76 75 75 72 71 69 70 70 70 69 68 68 68 68 68 68 68 68 69 69 69 68 68 68 68 68 68 68 69 70 71 72 72 72 73 76 78 80 82 83 79 74 71 70 69 68 68 68 68 68 69 70 71 74 72 74 81 83 83 80 76 71 69 68 67 66 65 65 65 66 65 65 65 65 65 65 65 66 65 65 65 65 65 66 66 66 71 82 91 93 94 92 89 83 76 71 68 67 67 67 68 68 66 65 65 65 63 63 63 63 63 62 62 62 62 62 62 62 62 62 62 62 62 61 61 61 61 61 62 62 65 70 72 73 75 78 80 80 79 75 71 68 65 63 62 62
114 119 124 128 130 126 119 113 109 107 107 108 107 106 108 112 116 120 121 122 124 127 132 134 129 124 124 127 135 145 152 153 152 149 144 138 133 128 123 118 111 105 103 102 101 101 102 104 104 104 106 109 111 110 106 102 99 95 94 94 95 94 93 93 93 93 93 93 91 90 90 90 90 90 90 90 90 90 90 90 90 90 90 92 92 90 90 90 90 92 95 94 95 101 103 100 101 103 104 102 101 100 102 105 112 118 118 114 109 108 108 106 103 104 105 104 101 97 96 98 100 103 106 111 114 115 113 114 117 118 118 116 109 104 104 108 110 111 111 110 106 102 99 96 93 91 90 89 89 89 89 88 88 89 92 96 99 103 105 106 109 111 112 115 116 117 117 117 116 116 116 118 119 119 119 119 120 121 123 124 125 127 127 126 128 132 136 139 140 138 135 134 134 133 130 128 124 121 119 114 110 108 107 106 104 101 99 95 90 87 83 83 82 81 81 81 81 81 81 81 81 81 80 80 79 79 79 79 78 76 74 71 69 68 72 76 77 77 77 77 77 77 77 77 77 76 76 76 75 75 72 71 69 69 69 67 66 69 72 74 74 75 77 77 76 77 76 72 67 65 66 67 67 65 64 63 63 62 62 63 63 63 63 63 63 63 63 64 64 64 63 63 63 63 63 63 63 63 63 64 63 63 64 65 65 66 67 66 67 68 69 69 70 71 72 73 77 78 79 79 78 76 73 71 68 67 67 70 73 74 72 68 66 66 66 68 70 69 68 66 66 66 66 67 69 69 69 69 68 68 68 68 68 69 69 71 73 73 71 71 72 73 74 75 75 75 75 75 74 74 74 74 74 74 74 74 73 72 72 72 72 72 71 71 72 73 74 74 74 74 74 74 75 76 75 72 69 69 69 69 69 69 69 69 71 74 75 76 76 76 76 76 76 76 76 75 75 75 74 74 74 73 73 73 73 73 73 73 73 72 72 73 73 73 73 73 73 73 72 72 72 72 72 72 72 72 72 72 72 72 72 72 72 72 73 73 73 73 73 74 74 74 74 74 74 73 73 73 73 73 72 71 71 71 71 71 70 69 69 69 69 69 69 69 69 68 68 68 68 68 68 68 68 68 68 68 68 68 69 70 71 71 70 69 67 66 65 65 65 65 65 65 64 64 64 63 63 63 63 66 69 71 74 76 76 76 74 73 73 74 75 77 79 79 77 74 73 71 69 69 67 67 67 71 74 72 69 66 66 66 67 69 74 78 80 80 80 81 83 85 86 87 87 87 86 84 83 82 79 76 73 71 69 68 68 68 69 69 69 71 71 71 72 72 71 71 71 72 72 72 71 71 72 73 76 80 83 86 87 88 88 88 86 86 84 81 83 88 90 89 88 86 82 77 74 70 69 69 70 72 73 73 73 73 71 70 70 69 69 68 68 67 66 66 65 65 65 64 64 63 63 65 67 69 70 70 69 65 63 62 62 62 62 62 62 66 72 76 79 81 84 88 90 93 95 97 97 97 95 92 86 82 78 76 74 73 72 72 72 72 72 71 71 71 70 69 68 68 68 67 67 65 63 62 62 62 62 62 62 62 62 62 62 62 62 62 62 62 63 65 65 65 66 66 66 67 67 68 69 69 74 75 74 72 73 73 73 73 73 73 73 74 75 78 80 80 80 81 81 82 83 82 83 83 83 83 83 83 82 82 82 82 82 79 78 77 76 75 75 73 74 76 78 79 80 78 76 74 73 72 69 69 70 71 69 68 68 68 68 68 68 68 68 68 68 68 68 68 68 68 68 68 69 69 70 71 72 72 73 73 73 75 77 79 80 81 81 78 75 72 71 69 69 69 69 69 69 69 71 71 74 72 74 80 82 82 79 76 71 70 70 69 68 67 67 67 68 67 66 65 65 65 65 65 65 65 65 65 65 65 66 66 66 69 79 90 94 96 95 93 87 79 73 69 67 67 67 67 67 65 65 65 65 64 64 64 63 63 62 62 62 62 62 62 62 62 62 62 62 62 62 62 62 62 62 62 62 64 69 71 72 74 76 78 79 77 75 71 67 64 62 61 61
113 119 123 126 128 125 118 112 107 106 108 109 108 107 109 113 117 121 122 123 124 128 134 134 129 125 124 128 136 144 151 154 155 153 149 143 138 132 128 122 114 107 104 104 103 102 101 102 102 103 106 109 111 109 104 99 97 94 94 94 93 91 91 92 92 92 93 93 92 90 90 90 90 90 90 91 91 90 90 90 90 90 90 92 92 90 90 90 90 90 92 93 96 103 103 98 99 100 100 99 100 100 99 103 109 113 113 112 109 106 104 102 100 102 105 104 100 96 95 98 100 103 107 112 114 114 112 111 114 115 114 112 107 103 103 106 109 111 111 108 104 100 98 96 92 89 89 89 89 90 89 88 88 90 93 96 99 102 105 106 109 111 112 115 116 116 117 117 116 115 115 116 118 119 118 117 118 119 121 122 124 125 125 125 126 129 134 137 137 135 133 132 132 131 128 127 125 122 119 114 110 106 105 105 103 101 99 95 91 87 83 83 82 81 81 80 80 80 79 80 81 81 80 80 78 77 77 77 78 80 79 75 71 69 68 71 73 72 72 72 73 73 73 73 72 72 72 72 71 71 71 70 72 74 72 69 66 65 66 67 69 71 74 74 73 74 72 68 65 65 65 66 65 64 63 62 62 62 62 63 63 63 63 63 63 63 63 63 64 64 63 63 63 62 63 63 63 63 64 65 65 65 65 65 65 65 65 66 68 69 70 71 72 73 74 76 79 80 81 82 80 76 72 70 67 67 67 70 74 75 75 71 67 66 66 66 67 66 66 66 66 66 66 67 69 69 68 68 68 68 68 68 68 68 68 68 69 69 69 69 72 73 74 76 76 76 75 75 74 74 74 74 74 74 74 74 73 72 72 72 72 72 72 72 72 72 73 73 73 73 73 74 74 75 74 73 71 70 69 69 69 70 71 72 73 74 75 76 76 76 76 76 75 75 75 75 75 75 74 74 74 73 73 73 74 74 73 73 73 73 73 73 73 73 73 73 73 72 72 72 72 72 72 72 72 72 72 72 72 72 72 72 72 72 73 73 74 74 74 74 74 74 74 74 74 74 74 73 73 73 73 73 73 73 73 72 72 70 69 69 69 69 69 69 68 68 68 68 68 68 68 68 68 68 68 66 66 66 67 68 69 69 69 69 67 66 65 65 65 64 64 64 64 64 64 63 63 63 66 71 73 75 76 76 76 75 72 71 72 74 77 80 80 79 77 74 72 71 71 71 69 68 68 71 76 74 69 67 66 66 66 68 71 75 77 77 78 78 80 82 83 84 84 84 83 82 81 80 77 74 72 70 69 68 68 68 68 68 69 70 70 70 70 70 71 71 71 72 72 72 72 72 73 75 80 85 87 90 92 94 94 95 93 92 89 85 85 89 92 92 91 90 86 81 77 75 72 69 69 70 71 71 71 71 70 69 69 68 68 68 68 67 66 66 65 64 64 64 63 63 63 63 64 65 65 65 64 62 62 62 62 62 62 62 64 70 74 78 80 83 87 91 94 97 99 100 100 100 98 95 89 85 80 77 76 75 73 73 73 72 72 71 71 72 72 71 69 67 67 67 67 65 63 62 62 62 62 62 62 62 62 62 62 62 62 62 62 62 62 63 63 63 64 64 65 66 66 67 68 69 73 74 74 72 71 71 72 72 73 74 74 75 77 78 79 79 80 81 81 82 81 80 81 81 82 82 82 82 82 82 81 81 80 78 77 76 74 75 74 72 72 74 76 77 77 75 74 73 72 71 68 68 71 70 68 68 68 68 68 68 68 68 68 68 68 68 68 68 68 68 69 70 71 71 73 74 73 73 74 73 74 76 77 79 79 79 79 78 76 73 71 70 69 69 69 69 69 70 70 71 73 71 74 80 81 81 78 75 71 70 71 70 69 70 70 70 70 69 68 66 65 65 65 65 65 65 65 65 65 65 65 66 66 67 76 87 93 96 97 95 91 83 76 71 67 66 66 66 66 65 65 65 65 65 65 66 65 63 62 62 62 62 62 62 62 62 62 62 62 62 62 62 62 62 62 62 62 63 67 70 71 73 75 77 76 75 73 69 66 63 61 60 59
112 117 122 125 127 124 117 111 106 106 107 109 108 108 110 113 118 121 122 124 125 129 134 134 129 126 125 129 136 143 149 154 156 157 154 148 142 137 132 126 118 110 106 106 105 102 101 101 101 101 104 108 111 109 104 98 95 94 95 95 94 92 91 92 92 92 93 93 93 90 90 90 90 90 91 92 92 91 90 90 90 90 91 93 91 90 90 90 90 90 91 94 98 104 101 96 96 97 97 98 100 98 98 102 106 109 109 110 108 103 100 98 97 100 104 103 99 95 94 98 100 103 107 112 115 115 111 109 110 111 111 109 104 101 102 103 107 109 108 106 101 97 96 95 92 89 89 90 91 92 90 89 89 91 94 97 98 102 104 106 109 111 112 114 115 116 117 117 116 115 114 114 116 117 117 116 116 117 118 120 122 124 124 123 124 128 131 134 134 133 131 130 130 128 126 125 125 124 119 114 111 106 103 103 102 100 98 95 91 88 83 83 83 81 81 79 78 78 77 78 80 80 80 78 77 77 77 77 78 80 80 78 73 71 69 69 69 68 68 68 68 68 69 69 69 68 68 69 70 71 73 75 77 77 74 69 67 64 64 64 65 66 67 68 67 67 66 64 64 65 65 64 63 62 62 62 62 62 62 63 63 63 63 63 63 63 63 64 65 65 64 64 63 62 63 64 64 65 65 66 66 66 65 65 65 66 67 68 69 70 72 74 75 76 77 79 82 83 84 83 81 75 72 70 67 67 67 69 73 76 76 73 68 66 66 66 66 66 66 66 66 66 66 67 69 69 68 68 68 68 68 68 68 68 68 68 68 68 68 69 72 72 74 76 76 76 76 76 75 75 75 75 75 75 74 74 73 72 72 72 71 71 71 71 71 72 72 72 73 73 73 74 74 74 74 74 72 71 71 71 71 73 74 74 75 75 75 76 76 76 76 76 75 75 75 75 75 75 74 74 74 74 74 74 74 74 74 74 74 73 73 73 74 74 74 73 73 72 72 72 72 72 72 72 72 72 72 72 72 72 72 72 72 72 73 73 74 74 74 74 74 74 74 74 74 74 74 74 74 74 74 74 75 75 75 75 74 72 70 69 69 69 69 69 69 70 70 71 70 69 69 70 70 70 69 67 65 64 64 65 67 68 68 67 66 66 65 65 65 64 64 64 64 64 64 64 65 66 71 74 75 77 77 76 75 72 70 69 71 75 80 81 80 79 77 75 73 72 72 72 69 69 68 69 73 72 69 68 66 66 66 68 70 73 76 76 77 78 79 79 80 81 81 80 80 80 79 78 75 73 71 70 69 68 68 68 68 68 69 70 70 69 69 69 71 71 71 72 72 73 74 74 76 79 84 88 91 94 96 99 99 101 99 97 94 90 87 89 93 94 93 92 89 84 80 78 75 69 68 68 69 69 69 69 68 68 68 68 68 67 67 67 66 66 65 64 64 63 63 63 63 63 63 63 63 62 62 62 62 62 62 62 62 64 67 73 77 80 82 84 88 94 97 100 102 103 103 103 101 98 92 87 82 79 77 76 75 74 74 73 73 73 73 73 73 72 69 67 67 66 65 64 63 62 62 62 62 62 62 62 62 62 62 62 62 62 62 62 62 62 62 62 62 63 64 65 66 67 68 68 71 73 73 72 71 71 71 73 73 75 75 77 78 78 78 79 80 81 81 82 80 80 80 80 81 81 81 81 82 82 80 79 78 77 76 75 74 74 72 71 71 72 74 74 74 73 73 72 71 70 68 68 69 68 68 68 68 68 68 68 68 68 68 68 68 68 68 68 68 69 71 74 75 75 75 74 74 75 76 75 75 77 77 79 78 78 78 78 77 73 72 71 69 69 69 69 69 69 69 70 71 70 73 78 80 80 77 74 70 70 71 70 70 71 71 71 71 70 69 67 65 65 65 65 65 65 65 65 65 65 65 66 66 66 72 83 91 95 97 96 93 87 79 73 68 66 66 66 66 65 65 65 66 66 66 66 65 64 63 62 62 62 62 62 62 62 62 62 62 62 62 62 62 62 62 62 62 62 66 69 71 72 74 76 74 73 71 69 66 64 62 60 59
110 115 120 123 125 122 115 109 106 106 107 107 107 108 109 111 117 121 122 124 126 130 134 134 130 128 127 131 137 142 147 152 155 158 157 152 147 142 136 130 123 114 110 109 107 104 101 100 100 100 102 105 108 107 104 100 97 97 97 98 98 96 94 94 93 93 93 93 93 90 90 90 90 90 91 91 91 91 90 90 90 90 94 95 90 90 90 90 90 90 92 97 101 103 98 94 94 93 94 96 98 97 98 102 105 106 107 108 106 100 96 95 94 97 101 101 97 93 93 96 100 103 107 112 115 115 111 106 106 108 108 106 102 99 100 102 104 105 104 102 98 94 93 93 90 89 90 93 94 94 92 91 91 93 95 96 97 101 104 105 108 110 111 114 115 116 117 117 117 115 114 113 114 115 115 115 115 116 117 119 121 122 122 122 123 127 129 131 131 129 128 128 127 124 123 123 125 124 121 116 111 106 102 101 101 99 98 95 92 88 84 83 81 81 81 79 77 77 76 77 78 79 78 77 77 77 77 77 78 79 79 79 74 71 70 68 68 68 68 67 67 69 72 73 72 71 70 71 73 76 77 78 78 78 74 69 67 65 64 64 65 65 64 63 63 62 62 61 62 63 63 62 62 63 64 63 62 62 62 63 63 63 63 63 63 63 63 64 65 65 65 65 65 64 65 65 64 64 65 66 66 67 66 65 65 67 69 69 70 71 73 74 76 77 77 81 85 85 85 83 79 74 71 69 68 68 68 69 71 75 76 73 68 66 66 66 66 66 66 66 66 66 66 67 69 70 68 68 68 68 68 68 68 68 68 68 68 68 69 69 71 72 75 77 77 76 76 76 75 75 75 75 75 75 74 74 74 73 72 72 71 71 71 71 71 72 72 72 72 72 72 73 73 74 74 74 74 73 74 74 74 74 75 75 75 75 76 76 76 76 75 75 75 75 75 74 74 74 74 74 74 74 74 74 73 73 73 74 74 74 74 74 74 74 74 73 73 73 72 72 72 72 72 72 72 72 72 72 72 72 72 72 72 72 73 73 74 74 74 74 74 74 74 74 74 74 74 74 74 75 75 76 77 78 77 77 76 74 71 70 70 69 69 69 71 73 74 75 74 73 74 75 76 75 73 70 68 65 64 64 65 66 66 66 66 66 65 65 65 64 64 64 63 63 63 66 68 68 72 73 76 77 76 75 73 69 68 69 72 77 81 81 81 81 79 77 75 74 72 70 68 68 68 68 68 68 68 68 66 66 66 68 70 73 76 77 79 79 78 77 77 77 77 76 76 76 77 76 74 73 70 69 69 68 68 68 68 68 68 69 69 69 69 69 70 70 70 72 72 75 77 78 80 84 88 91 94 97 99 103 104 106 106 104 99 95 91 90 93 95 95 94 92 86 82 80 77 71 68 68 68 68 68 68 68 68 68 68 68 67 67 66 66 66 64 64 64 63 63 63 63 63 63 62 62 62 62 62 62 62 62 62 63 66 70 75 79 82 85 86 91 96 100 102 104 105 106 107 105 102 96 90 85 81 79 77 75 74 74 74 73 74 74 74 73 72 69 67 66 66 64 64 62 62 62 62 62 62 62 62 62 62 62 62 62 62 62 62 62 62 62 62 62 63 64 65 66 67 68 68 69 71 73 72 71 72 71 73 74 75 75 76 76 76 77 79 80 81 81 81 80 80 79 79 79 80 80 81 82 82 81 78 78 76 76 75 73 72 70 70 70 70 71 71 71 71 71 71 70 69 68 68 68 68 68 68 68 68 68 68 68 68 68 68 68 68 68 68 68 71 75 79 80 78 76 75 75 77 77 76 75 77 77 77 76 77 78 78 77 73 72 71 69 69 69 69 69 68 68 68 68 68 71 76 78 78 77 73 70 70 70 71 71 72 72 72 72 71 70 68 67 66 66 65 65 65 65 65 65 65 65 65 65 65 69 79 87 92 95 96 94 90 83 76 70 66 66 66 66 66 66 66 68 67 67 67 65 65 64 63 63 63 63 63 62 62 62 62 62 62 62 62 62 62 62 62 62 62 65 68 70 72 74 76 74 71 70 68 67 65 64 61 59
110 113 118 120 123 120 112 108 106 106 106 107 107 109 109 110 115 120 122 124 126 130 134 134 132 131 130 133 138 142 147 150 153 156 157 154 150 145 140 133 125 117 113 111 110 107 103 101 100 99 99 101 104 105 103 102 101 99 97 100 100 97 96 95 93 93 93 93 93 90 90 91 91 91 91 90 91 90 90 90 90 91 94 94 90 90 90 90 90 90 94 99 99 97 94 91 91 90 91 93 95 96 97 100 102 103 104 105 102 97 94 92 92 94 97 97 94 92 92 95 99 103 107 112 115 115 110 105 103 104 104 103 99 98 99 102 102 102 101 99 96 92 90 91 89 89 92 95 96 96 95 94 93 94 95 96 96 100 103 105 108 110 111 113 114 115 117 117 117 116 114 113 113 114 114 114 115 115 116 117 119 120 120 120 122 125 126 127 127 126 125 125 124 121 120 121 123 123 122 117 111 106 101 101 99 98 97 94 92 89 85 83 81 80 80 79 78 78 77 78 78 77 77 77 77 77 77 77 78 78 78 77 73 71 70 69 69 68 69 69 70 74 77 78 77 76 76 75 76 76 76 76 76 76 72 69 67 66 65 65 66 66 65 64 63 63 64 62 61 61 61 61 62 64 65 64 63 63 63 63 63 63 63 63 63 63 63 64 65 65 65 65 65 65 65 63 63 63 64 66 67 68 68 67 67 68 69 70 70 71 73 73 76 77 77 80 84 85 85 81 75 72 70 69 69 69 69 69 71 74 76 73 67 66 66 66 66 66 66 66 66 66 66 68 69 70 69 68 68 68 68 68 68 68 68 68 68 69 69 69 71 72 75 77 77 77 77 77 76 76 75 75 75 75 75 75 74 74 73 73 72 71 71 71 71 71 71 72 72 72 72 72 73 73 73 73 74 74 74 74 74 74 74 74 75 75 75 75 75 76 75 75 75 74 74 74 74 74 74 74 74 73 73 74 73 73 73 74 74 74 74 74 74 74 74 74 74 73 73 73 72 72 72 72 72 72 72 72 72 72 72 72 72 72 73 73 74 74 74 74 74 74 75 75 76 76 76 76 76 78 79 79 80 81 80 80 78 75 72 70 70 70 70 70 72 74 77 78 79 79 81 82 83 82 79 74 71 67 65 64 64 65 66 66 66 66 66 65 65 64 64 64 63 63 64 68 70 69 72 74 77 77 76 73 70 69 69 72 75 79 81 83 83 83 81 79 77 75 72 70 69 69 68 67 67 67 68 68 66 66 66 68 70 73 74 76 78 77 76 75 74 74 74 73 73 73 74 74 73 73 70 69 69 68 67 67 68 68 68 69 69 69 69 69 70 70 70 72 74 77 81 82 83 87 92 94 96 99 102 105 107 109 111 109 104 100 95 92 93 95 96 95 93 89 84 81 78 74 69 68 68 68 68 68 68 68 68 68 67 66 66 66 65 65 64 64 64 63 63 63 63 63 62 62 62 62 62 62 62 62 62 63 63 66 72 77 81 84 86 89 94 98 103 105 107 108 109 110 108 105 100 94 88 84 81 78 76 75 75 74 74 74 74 74 73 72 70 68 67 66 65 64 63 62 62 62 62 62 62 62 62 62 62 62 62 62 62 62 62 62 62 62 63 63 64 66 67 68 68 68 69 71 72 72 72 72 71 72 73 74 74 74 74 74 76 78 79 80 80 81 80 80 79 79 79 79 80 81 82 82 82 79 78 77 75 74 72 70 68 69 69 69 69 69 69 69 69 69 68 68 68 68 68 68 68 69 68 68 68 68 68 68 68 68 68 68 68 68 68 73 79 82 81 79 77 76 77 78 77 76 76 76 75 75 76 77 78 78 77 74 72 71 70 70 69 69 69 68 68 68 68 68 69 73 75 76 75 72 70 70 70 70 70 73 73 73 73 71 70 69 68 67 66 65 65 65 65 65 65 65 65 65 65 65 68 76 83 90 94 96 95 93 87 79 73 68 66 65 65 65 66 67 68 68 68 67 65 65 64 64 64 63 63 63 62 62 62 62 62 62 62 62 62 62 62 62 62 62 64 67 69 71 74 77 74 70 69 66 65 65 63 61 59
110 111 115 118 119 116 110 107 106 106 106 107 107 109 109 109 113 118 121 123 126 130 133 133 135 135 134 136 139 142 147 149 151 154 155 154 151 147 143 135 127 120 115 113 113 110 105 103 101 99 98 98 99 101 101 102 102 97 95 97 97 96 95 94 93 93 92 92 92 92 92 92 92 93 91 90 90 90 90 90 90 91 94 91 90 90 90 90 90 92 96 97 94 92 91 90 90 90 90 90 93 95 95 96 98 97 98 99 98 96 95 92 91 91 93 93 91 90 91 95 99 103 107 111 114 114 110 104 101 99 100 99 97 96 99 100 100 100 99 97 93 89 88 89 90 91 94 96 97 96 96 95 95 95 95 95 96 99 103 105 107 110 111 113 114 115 117 117 118 116 114 113 113 113 114 114 114 115 115 116 117 118 118 118 120 121 122 123 123 122 122 122 121 118 117 119 120 121 120 117 110 104 101 100 99 98 97 94 91 90 86 84 82 80 79 79 80 80 80 80 80 80 78 77 77 77 77 76 76 76 76 74 71 70 70 70 70 70 70 71 73 74 78 78 79 79 79 77 76 74 74 74 75 74 72 71 69 68 67 67 66 66 66 65 64 64 66 66 63 61 61 61 62 64 66 65 64 63 63 63 64 64 64 64 64 62 62 64 65 65 65 65 64 64 63 62 63 64 65 66 67 68 69 69 68 69 70 70 71 73 75 75 76 78 79 80 83 86 84 77 72 71 70 69 69 69 69 70 70 72 75 72 66 66 66 66 66 66 66 66 66 66 66 68 67 68 68 68 67 66 67 69 68 68 68 68 68 69 69 69 71 72 75 76 76 76 76 76 76 76 76 76 76 76 75 75 75 74 74 74 73 72 71 71 71 71 71 71 71 71 71 71 71 72 72 72 72 72 73 74 74 74 74 74 75 75 75 75 75 75 75 75 74 74 74 73 73 73 74 74 74 73 73 74 73 73 74 74 74 74 74 74 75 75 75 75 74 74 74 74 74 73 73 74 74 74 74 73 73 72 72 72 72 73 74 74 74 74 74 74 76 77 78 79 80 80 80 78 79 81 82 82 84 84 83 82 81 77 74 72 72 71 71 71 72 74 77 80 82 84 86 89 90 89 86 79 73 70 68 66 65 65 66 66 66 66 66 65 65 65 65 64 63 63 66 71 73 72 74 76 77 76 74 72 71 71 73 75 76 78 80 82 83 84 83 81 79 77 75 73 72 71 70 68 67 67 67 67 67 67 67 68 68 70 72 73 73 74 75 74 72 72 72 72 71 71 72 73 73 72 70 69 68 68 67 67 67 67 68 69 69 69 69 71 72 71 71 73 75 80 84 86 86 90 93 96 99 101 104 107 108 111 114 113 109 104 99 95 94 95 97 96 94 90 86 82 79 75 70 69 69 69 69 68 68 68 68 68 67 66 66 65 65 65 64 63 63 63 62 62 62 62 62 62 62 62 62 62 62 62 62 63 63 66 72 77 82 85 88 91 95 99 104 107 109 111 111 111 109 107 103 97 91 87 82 79 77 76 76 75 75 74 74 74 74 73 71 69 69 68 66 65 64 63 63 64 63 63 62 62 62 62 62 62 62 62 62 62 62 62 62 62 62 63 64 66 67 68 69 69 69 70 71 72 72 72 72 70 70 72 72 72 73 73 75 77 78 79 80 80 80 80 79 78 78 78 80 80 81 82 82 80 79 77 75 74 72 69 68 68 68 68 68 68 68 68 68 68 68 68 68 68 68 69 69 69 70 69 69 69 69 69 68 68 68 68 68 68 70 74 80 82 82 80 78 77 77 78 77 75 74 74 73 73 75 77 76 77 77 74 72 71 70 70 69 68 68 68 68 68 68 68 68 70 72 73 73 72 69 69 69 70 71 74 74 73 73 71 70 69 68 66 65 65 65 65 65 65 65 65 65 65 65 65 67 73 80 88 92 94 95 95 90 83 77 72 68 66 65 65 66 67 68 68 68 67 65 65 65 64 64 64 64 63 62 62 62 62 62 62 62 62 62 62 62 62 62 62 63 66 68 70 74 77 75 70 66 65 64 63 62 60 59
110 110 113 115 115 113 108 107 105 105 106 106 108 111 112 112 113 116 120 122 124 128 132 133 136 138 137 138 140 142 146 148 149 151 153 153 150 148 143 137 129 122 117 114 113 111 107 105 105 104 101 99 98 98 99 100 100 96 95 95 95 95 95 94 93 93 92 92 92 93 93 94 94 94 91 90 90 90 90 90 90 91 93 90 90 90 90 90 90 92 97 94 90 90 90 90 90 90 90 90 91 95 94 93 93 93 94 96 96 95 95 93 91 90 90 90 89 89 90 94 99 102 105 109 113 113 108 103 99 96 97 96 94 94 97 98 98 98 96 93 89 87 89 92 93 95 96 97 97 97 97 96 96 96 95 95 95 98 101 104 107 109 110 112 113 115 117 117 118 116 114 113 113 113 113 113 114 114 114 115 116 117 117 117 117 118 118 119 119 119 119 120 118 116 116 117 118 118 118 115 108 102 100 99 98 97 96 94 91 90 86 84 82 80 79 78 79 79 79 80 81 81 80 78 77 77 77 77 76 74 73 71 70 70 72 73 74 73 72 71 72 73 75 76 77 79 79 78 76 75 74 74 74 74 73 73 72 71 69 69 67 67 67 65 65 64 64 67 66 64 63 62 63 65 67 66 65 64 64 64 65 65 66 66 66 63 62 63 64 64 64 64 64 63 63 63 63 64 65 66 68 68 70 70 69 70 70 71 72 75 78 78 78 80 82 81 83 85 81 73 72 71 71 70 70 70 70 70 70 72 74 71 66 66 66 66 66 66 66 66 66 66 66 68 66 66 66 66 66 66 66 68 69 69 68 68 68 69 69 69 71 71 73 74 75 76 76 76 76 76 76 76 76 76 76 76 75 75 75 74 74 73 71 71 71 71 71 71 71 71 71 71 71 72 72 71 71 71 72 74 74 74 74 74 74 74 74 75 75 75 74 74 74 73 73 73 73 73 73 73 74 74 74 74 74 74 74 74 74 75 75 76 77 77 77 76 75 75 75 75 75 75 75 75 75 75 75 75 74 72 72 72 73 73 74 74 74 74 74 74 78 80 82 83 84 84 83 81 81 83 84 85 87 87 86 84 83 81 77 75 74 72 72 72 72 74 78 82 84 87 90 94 96 94 90 83 76 72 69 68 66 66 66 66 66 66 66 66 66 66 65 65 64 64 68 73 74 74 75 75 74 74 74 72 72 73 75 74 74 77 79 81 83 84 85 84 82 79 78 76 74 73 72 70 68 67 67 67 67 67 67 68 68 68 69 70 70 72 74 73 71 70 70 71 69 69 71 72 72 72 70 68 68 67 67 67 67 67 68 68 68 69 70 73 74 72 71 73 76 83 87 89 89 91 94 97 100 102 106 109 110 113 114 116 113 109 104 100 95 95 97 97 94 91 87 82 80 75 71 70 70 70 70 69 69 68 67 67 67 66 66 65 64 64 63 63 63 62 62 62 62 62 62 62 62 62 62 62 62 62 62 63 63 66 71 77 82 86 88 91 95 99 104 107 110 112 112 112 110 108 105 99 93 87 83 80 77 77 76 76 76 75 75 75 74 73 71 70 70 69 67 66 65 64 65 64 63 63 62 62 62 62 62 62 62 62 62 62 62 62 62 62 62 64 64 66 67 69 69 69 70 70 71 70 70 70 70 69 68 69 71 71 72 73 75 76 77 79 79 80 80 80 79 78 77 77 78 79 80 81 81 80 79 76 75 75 72 68 68 68 68 68 68 68 68 68 68 68 68 68 68 68 68 69 69 70 70 70 70 69 69 69 68 68 68 68 68 69 73 76 80 82 82 80 78 78 78 77 76 74 72 72 72 72 74 76 75 75 75 74 73 71 70 70 69 68 68 68 68 68 68 68 68 69 69 70 70 71 69 68 68 69 71 74 74 73 72 70 70 68 67 65 65 65 65 65 65 65 65 65 65 65 65 65 66 70 78 86 90 92 95 95 92 86 80 75 71 68 65 65 66 66 68 69 69 66 65 65 65 65 65 64 64 63 62 62 62 62 62 62 62 62 62 62 62 62 62 62 63 65 67 69 73 77 77 72 67 65 64 62 61 59 59
110 110 110 112 113 111 107 106 105 105 105 106 110 115 117 118 117 118 120 122 123 127 131 134 138 139 139 139 141 143 146 148 147 148 149 149 148 147 143 138 131 124 118 115 113 111 107 107 109 109 108 104 100 98 98 97 97 96 95 95 95 96 96 94 93 93 92 92 94 94 93 93 92 92 90 90 90 90 90 90 90 91 91 90 90 90 90 90 90 92 95 91 90 90 90 90 90 90 90 90 90 92 94 91 91 91 93 95 94 93 94 93 92 90 90 90 89 89 89 92 97 101 103 107 110 110 106 100 96 95 95 94 91 91 94 95 95 94 92 90 87 88 93 95 96 97 97 97 97 97 97 97 95 95 95 95 95 97 99 102 106 108 109 111 113 115 117 117 117 116 114 113 113 113 113 113 113 114 114 114 115 116 116 116 116 117 116 117 117 118 118 118 116 114 114 115 115 116 115 112 106 100 98 98 96 95 95 94 91 90 86 84 82 80 78 76 76 76 76 77 79 80 80 79 78 78 78 79 77 72 70 71 73 73 75 78 79 77 74 71 71 72 73 73 75 77 78 78 78 77 75 75 74 74 75 75 75 73 72 71 69 68 68 67 66 65 64 65 67 69 66 63 64 66 67 67 65 65 65 66 67 67 66 66 66 63 62 62 63 63 64 64 64 63 63 63 64 64 65 67 68 69 70 70 70 71 72 73 74 78 81 81 82 84 86 84 82 82 78 72 72 71 71 71 70 70 70 70 70 70 71 69 66 66 66 66 66 66 66 66 66 66 66 68 67 66 66 66 66 66 66 68 69 69 68 68 68 69 69 69 70 71 72 73 74 75 75 75 76 76 76 76 76 76 76 76 76 75 75 74 74 73 71 71 71 71 71 71 71 71 70 70 70 71 71 70 70 70 71 73 73 73 73 73 73 73 74 74 74 74 74 74 73 73 73 73 73 73 73 73 74 74 74 74 74 74 74 74 75 76 77 78 79 79 79 78 77 77 77 77 77 77 77 76 76 76 76 76 74 73 72 72 73 74 75 75 75 75 75 76 79 82 84 86 87 87 86 84 83 85 87 88 90 90 89 88 86 85 83 79 76 74 72 72 73 76 80 84 87 90 93 97 99 96 91 85 77 72 69 68 67 66 66 66 66 66 66 66 66 66 66 66 64 65 69 71 71 71 73 71 71 73 73 73 73 73 74 74 75 77 78 81 83 86 87 86 84 80 78 77 75 74 73 70 68 67 67 67 68 68 68 68 68 68 69 69 69 70 71 71 69 68 68 69 68 68 69 71 71 71 70 68 67 67 67 67 67 68 68 68 68 69 71 74 77 76 73 73 77 85 90 92 92 92 94 98 100 102 107 111 112 114 116 117 116 113 109 103 97 95 97 97 94 92 87 82 80 75 73 71 70 70 70 69 69 69 67 67 67 66 66 65 64 63 63 62 62 62 62 62 62 62 62 62 62 62 62 62 62 62 62 63 63 66 70 75 80 84 87 90 94 99 104 108 110 112 112 112 112 110 106 101 94 89 85 82 78 77 77 77 77 76 75 75 74 73 72 71 70 69 68 67 66 66 66 66 64 63 62 62 62 62 62 62 62 62 62 62 62 62 62 62 63 65 65 67 67 69 69 69 69 69 69 68 67 67 67 68 68 68 69 70 71 72 73 75 76 78 78 79 80 80 78 77 76 76 76 77 78 79 81 80 78 76 75 75 72 70 68 68 68 68 68 68 68 68 68 68 68 68 68 68 68 69 69 70 71 71 70 70 70 69 68 68 68 68 70 73 76 79 81 82 82 81 80 78 77 75 75 72 71 70 70 71 73 76 75 74 74 74 73 72 70 70 69 68 68 68 68 68 68 70 70 68 68 69 69 70 69 68 68 69 71 74 74 73 72 70 69 67 65 65 65 65 65 65 65 65 65 65 65 65 65 65 65 69 76 83 88 90 93 94 92 88 83 77 73 70 66 65 66 68 69 69 69 66 65 65 65 65 65 64 64 63 62 62 62 62 62 62 62 62 62 62 62 62 62 62 64 65 67 68 71 75 78 75 70 66 64 62 61 59 59
110 110 110 111 111 110 107 106 105 105 105 107 112 120 122 124 124 123 123 123 125 127 131 135 139 141 141 141 142 143 146 146 145 144 146 145 145 145 142 138 132 125 119 115 113 111 107 107 108 111 112 111 106 101 99 96 96 96 96 96 96 96 96 94 93 93 93 94 95 95 93 91 90 90 90 90 90 90 90 90 90 90 90 90 90 90 90 90 90 92 92 90 90 90 90 90 90 90 90 90 90 90 91 91 91 91 92 94 92 91 92 92 91 90 90 89 88 88 88 89 95 99 102 104 106 106 103 97 94 93 93 92 90 89 90 91 92 92 90 87 86 89 95 96 97 97 96 96 96 96 95 95 94 94 94 94 95 97 98 100 104 106 108 111 112 114 117 117 117 116 115 112 112 112 112 112 113 113 113 113 113 114 114 114 115 115 114 114 115 116 116 116 114 112 111 112 112 113 112 109 104 99 97 96 94 93 93 92 91 89 85 83 82 79 77 74 73 74 74 74 76 78 79 79 78 78 78 79 76 71 70 74 78 78 79 80 80 79 75 71 71 72 72 73 75 76 78 78 79 77 76 76 76 76 77 77 77 76 75 74 73 72 72 72 71 71 69 66 67 70 70 65 66 68 68 68 67 66 67 67 67 67 65 64 64 62 62 62 63 63 64 64 64 63 63 63 64 64 65 67 68 69 70 70 71 73 76 77 77 81 84 85 86 88 89 87 83 79 75 72 72 72 72 72 70 70 70 70 70 69 68 67 66 66 66 66 66 66 66 66 66 66 66 68 67 66 66 66 66 66 66 69 68 68 68 68 68 69 69 69 70 70 70 71 72 73 74 75 75 75 76 76 76 76 76 76 75 75 75 74 73 73 71 71 71 71 71 71 70 70 69 69 70 71 71 69 69 70 71 72 72 72 72 72 72 72 73 73 73 73 73 73 72 72 72 72 72 72 72 73 73 74 74 74 74 74 74 75 76 78 79 81 82 82 82 81 81 80 80 80 80 80 79 78 78 78 77 77 76 74 73 73 74 74 75 75 75 75 76 76 80 83 85 88 90 90 89 87 85 86 89 91 93 94 93 92 91 90 88 85 81 77 74 73 74 79 84 88 90 94 98 99 100 96 92 87 77 71 68 68 68 67 66 66 66 66 66 66 66 66 66 66 65 66 67 68 69 68 69 68 69 74 74 72 71 71 73 75 76 77 78 81 84 87 89 87 85 82 79 78 76 75 74 70 68 68 68 68 68 68 68 68 68 68 68 68 68 68 68 68 68 68 68 68 68 68 68 70 71 71 69 68 67 67 67 67 69 69 68 68 68 70 72 75 79 80 75 74 78 86 93 94 94 93 94 97 98 102 108 112 112 115 117 118 118 116 112 107 101 97 98 98 95 92 87 82 79 77 75 75 73 72 71 69 68 68 67 67 67 65 65 64 63 63 62 62 62 62 62 62 62 62 62 62 62 62 62 62 62 62 63 63 65 68 71 76 79 83 86 88 94 99 105 108 110 112 113 114 113 111 107 102 96 91 87 83 79 77 77 77 78 77 76 76 74 73 72 72 71 70 69 68 68 68 69 68 65 63 62 62 62 62 62 62 62 62 62 62 62 63 63 63 64 65 66 65 66 68 68 68 68 68 66 65 64 65 66 66 66 67 67 69 70 71 73 74 76 77 78 79 79 78 77 76 75 75 75 75 76 77 79 79 78 76 75 75 72 70 69 68 68 68 68 68 68 68 68 68 68 68 68 68 68 70 71 71 72 72 71 70 70 68 68 68 68 68 72 75 77 80 82 82 82 81 81 78 76 73 73 71 69 69 69 70 73 75 75 74 74 73 73 72 70 70 69 69 69 68 68 68 69 70 70 68 68 67 67 68 68 68 68 70 71 74 73 73 71 69 67 65 65 65 65 65 65 65 65 65 65 65 65 65 65 65 65 68 76 83 87 90 91 92 92 89 84 80 76 72 68 65 67 69 69 69 69 67 66 65 66 65 65 64 64 63 62 62 62 62 62 62 62 62 62 62 62 62 62 62 64 65 67 68 70 74 78 77 74 69 64 63 61 59 59
110 110 110 110 110 108 107 106 105 105 106 109 115 123 127 130 130 128 127 126 127 129 132 137 140 142 142 142 142 144 145 145 142 141 142 142 141 141 139 136 133 125 119 115 114 112 108 106 107 111 114 115 111 105 100 98 97 97 97 96 96 96 96 94 94 94 94 95 96 95 91 90 90 90 90 90 90 90 90 90 90 90 90 90 90 90 90 90 90 90 91 90 90 90 90 90 90 90 90 90 90 90 90 91 91 91 91 92 92 92 91 90 90 90 90 89 89 88 88 88 92 97 100 102 103 103 100 94 93 91 91 91 89 87 86 88 90 90 88 86 86 89 94 95 96 95 93 93 93 93 92 92 92 93 94 93 94 96 97 99 101 104 107 109 112 114 116 116 116 116 114 112 112 112 111 111 112 112 112 111 112 113 113 113 114 114 114 113 113 114 114 114 112 110 110 110 110 110 109 106 102 98 96 95 93 91 90 90 90 87 84 82 81 79 76 73 73 73 74 74 74 77 78 77 76 75 75 76 74 71 72 78 81 79 79 78 78 77 74 71 71 72 73 75 75 76 76 77 78 77 77 77 77 78 79 80 80 79 78 77 77 76 76 77 74 75 74 73 70 71 72 68 68 69 69 69 68 67 67 65 65 64 64 63 63 63 63 63 63 63 64 64 64 64 63 63 64 64 65 67 68 69 70 70 72 76 80 80 81 83 87 89 90 92 92 90 83 78 73 71 71 72 72 72 71 71 71 71 71 70 69 67 67 69 68 67 66 66 66 66 66 66 67 67 66 66 66 66 66 66 66 69 68 67 67 68 68 69 69 69 69 69 69 70 70 71 72 73 75 75 76 76 76 76 76 76 75 75 75 74 73 73 72 72 72 70 70 70 70 69 69 69 69 69 69 69 69 70 71 72 72 72 72 72 72 72 72 72 72 72 72 72 72 72 72 72 72 72 72 72 72 74 74 74 74 74 74 75 78 80 82 84 85 85 85 85 84 83 83 83 83 83 82 82 81 80 79 79 78 76 74 74 74 74 74 75 76 76 76 77 81 83 86 89 91 92 92 90 88 88 91 94 97 98 98 98 98 97 95 91 86 81 76 73 74 79 87 92 95 99 103 103 100 95 92 86 76 69 68 68 68 67 67 66 66 66 66 66 66 66 66 66 65 65 67 70 69 68 68 68 69 72 72 71 71 72 75 77 75 76 78 81 85 88 89 88 86 84 81 79 77 76 74 71 70 68 68 68 68 68 68 69 69 69 68 68 68 68 68 68 68 68 68 68 68 69 69 69 71 71 69 68 67 67 67 70 71 68 68 69 70 73 75 78 81 82 77 74 79 87 95 97 96 94 94 96 98 101 107 111 112 115 117 120 119 117 114 110 103 98 98 98 96 92 87 81 79 78 78 78 77 75 72 68 67 67 67 67 66 65 63 63 63 63 62 62 62 62 62 62 62 62 62 63 63 63 62 62 63 63 63 64 66 70 74 78 80 83 85 88 93 99 104 108 110 112 113 114 114 112 109 104 99 94 89 84 80 78 78 78 78 77 76 76 74 74 73 72 72 71 70 69 69 70 70 68 65 63 62 62 62 62 63 63 63 63 63 63 63 64 64 64 64 64 63 63 65 66 67 67 67 66 65 63 62 63 64 65 66 66 67 68 70 70 72 74 75 76 77 78 78 78 76 75 74 74 74 74 74 75 76 77 78 77 75 75 72 68 68 68 68 68 68 68 68 68 68 68 68 68 68 68 69 70 71 72 72 72 71 70 70 68 68 68 68 70 72 76 79 81 82 82 82 81 80 78 76 72 71 69 68 68 68 68 71 74 75 74 74 73 73 72 71 71 70 70 70 68 68 68 68 68 68 68 68 67 67 67 68 68 70 72 72 72 72 71 69 67 66 65 65 65 65 65 65 65 65 65 65 65 65 64 64 64 65 68 74 82 87 89 90 91 91 90 84 81 78 74 69 67 68 69 70 69 69 68 66 66 66 65 65 64 64 62 62 62 62 62 62 62 62 62 62 62 62 62 62 62 63 64 67 68 69 74 78 78 75 70 65 63 62 60 60
111 111 110 109 108 107 106 105 105 105 106 111 118 126 130 135 135 132 130 130 131 132 135 139 141 143 143 143 143 144 144 143 139 138 139 139 138 137 136 135 132 126 120 116 114 113 108 106 107 112 115 116 112 107 101 99 100 100 99 96 95 96 98 97 96 95 95 95 96 93 90 90 90 90 90 90 90 90 90 90 90 90 90 90 90 90 90 90 90 90 90 90 90 90 90 90 90 90 90 90 90 90 90 90 94 93 92 91 95 98 94 90 90 91 91 91 91 90 89 88 89 93 98 100 100 101 97 92 91 90 89 90 89 86 86 86 87 87 86 86 86 87 90 92 93 92 90 89 90 90 89 90 91 92 92 93 93 96 97 98 100 102 106 108 111 113 115 116 115 115 114 112 111 111 111 111 111 112 111 110 110 111 111 112 113 114 114 113 112 112 112 112 111 109 109 108 108 108 107 105 100 96 95 95 92 89 89 88 88 86 83 82 81 79 75 73 73 74 75 75 76 78 77 74 72 72 72 73 73 72 75 79 81 78 76 75 74 74 72 72 73 74 74 76 77 77 76 76 76 76 77 77 79 79 82 83 84 83 81 80 79 78 77 76 75 75 75 74 72 71 71 69 69 69 68 67 66 66 65 65 64 64 63 63 63 62 62 62 63 63 64 64 64 64 64 64 65 65 66 67 68 69 70 71 74 80 83 83 84 86 90 94 96 96 95 91 83 78 72 71 71 72 72 72 71 71 71 72 73 72 72 72 73 73 70 68 66 66 66 66 66 66 68 66 66 66 66 66 66 66 66 67 67 66 66 66 67 68 68 68 69 69 69 69 69 69 70 71 73 74 75 75 75 76 76 76 75 75 75 74 73 73 72 72 72 70 69 69 69 69 68 68 68 69 69 69 70 71 71 72 72 71 71 71 72 72 72 71 71 71 72 72 71 71 71 71 72 72 72 72 73 74 74 74 74 74 74 76 80 83 85 87 88 89 89 89 88 87 85 86 86 86 86 85 83 82 81 81 80 78 76 75 74 74 74 75 77 76 76 77 80 83 87 90 91 93 94 93 90 90 94 98 101 103 105 105 105 104 103 98 93 86 79 75 74 77 85 92 97 102 105 105 100 93 89 81 73 68 67 67 67 68 67 66 65 66 66 66 66 66 66 66 65 66 70 71 68 67 67 67 68 69 70 70 71 73 76 76 74 75 78 81 86 88 89 88 87 85 83 81 77 74 73 71 71 70 68 68 68 68 68 69 69 69 69 69 69 68 68 68 68 68 68 68 68 69 69 70 71 71 71 69 67 67 67 70 70 68 69 71 74 77 80 82 84 83 78 75 81 89 97 100 99 96 95 96 96 99 105 109 110 114 117 119 118 115 113 110 104 99 97 98 96 92 87 82 81 80 81 82 81 77 72 68 66 66 66 65 65 63 62 62 62 62 62 62 62 62 62 62 62 62 62 63 63 63 63 63 63 63 63 65 67 72 76 79 81 83 87 89 93 97 102 106 109 112 113 114 114 113 110 105 100 95 91 86 82 79 79 79 79 77 77 76 75 75 74 73 73 72 71 70 69 69 68 66 64 64 64 64 64 64 65 65 65 64 64 64 64 63 62 62 62 62 62 62 62 64 65 66 65 64 64 62 62 62 63 64 64 65 66 68 69 70 71 73 74 75 76 77 77 76 75 74 73 73 73 73 72 73 74 75 76 76 75 74 71 68 68 68 68 68 68 68 68 68 68 68 68 68 68 69 70 71 71 72 72 72 71 70 70 68 68 68 69 70 74 78 80 81 81 80 81 81 80 77 75 71 69 68 67 67 67 68 69 72 75 75 75 75 75 74 72 71 70 69 69 68 68 68 68 68 68 68 68 67 67 67 68 69 73 73 71 70 70 68 67 66 66 65 65 65 64 64 64 65 65 65 65 65 64 64 64 64 64 67 72 78 84 87 89 90 90 89 84 81 79 74 70 70 69 69 70 70 70 68 66 66 66 65 65 64 63 62 62 62 62 62 62 62 62 62 62 62 62 62 62 62 63 64 67 68 69 74 78 78 75 70 66 63 63 60 60
114 112 109 109 109 109 107 105 105 105 107 113 120 129 134 139 139 135 134 135 135 135 138 140 142 144 144 144 144 144 142 139 135 135 136 135 135 134 135 133 131 126 121 117 114 113 108 106 107 112 115 115 112 107 103 101 101 101 100 96 95 98 101 99 97 96 96 96 94 91 90 90 90 90 90 90 90 90 91 92 91 91 90 90 90 90 90 90 90 90 90 90 90 90 90 90 90 90 90 90 90 90 90 90 93 98 97 95 99 98 94 89 89 92 92 94 95 92 89 88 88 90 96 98 97 97 95 90 89 88 87 88 88 86 86 86 86 86 86 86 86 86 87 88 89 89 88 88 88 89 89 89 90 91 91 93 94 96 97 98 100 102 104 106 109 112 114 115 115 114 114 112 111 111 111 111 111 111 111 110 110 110 110 111 112 114 114 113 112 111 111 111 110 109 108 107 107 106 105 103 99 95 94 94 92 88 88 87 87 85 82 82 81 78 75 73 74 74 75 76 77 79 76 73 72 73 75 76 75 76 77 79 80 77 75 74 74 74 74 74 75 76 75 75 77 77 77 77 76 76 77 78 80 81 86 88 89 89 86 83 81 80 76 74 73 73 73 72 71 70 69 68 67 66 65 64 63 63 63 63 63 63 62 62 62 62 62 62 63 63 64 64 64 65 65 65 66 66 67 68 68 69 71 72 78 83 86 87 89 91 94 98 101 100 98 91 84 78 71 71 71 73 73 73 73 72 72 73 74 74 75 75 77 75 71 67 67 66 66 66 66 67 68 66 66 66 66 66 66 66 66 66 66 66 66 66 66 66 67 68 68 68 68 67 67 67 67 68 70 73 74 75 75 75 75 75 75 75 75 74 73 72 72 72 72 70 69 68 69 69 68 68 68 69 70 70 71 71 72 72 72 71 71 71 71 71 72 71 71 71 72 72 71 71 71 71 72 72 72 72 73 75 75 75 74 74 74 78 82 85 87 89 91 92 92 92 91 90 88 89 89 89 89 87 86 85 84 84 82 80 79 78 76 74 74 75 78 78 77 78 81 84 87 90 92 94 95 96 93 94 97 101 105 109 112 112 112 111 109 105 99 91 83 79 75 75 80 87 94 99 103 103 98 90 83 76 71 68 67 67 67 68 67 66 66 67 67 66 66 66 66 67 68 70 73 70 67 67 67 67 68 69 69 70 71 72 73 73 73 75 77 81 85 87 88 88 86 84 83 81 76 74 72 72 73 72 69 69 69 69 69 69 69 69 69 69 69 69 69 69 68 68 68 68 68 69 69 70 71 71 71 71 69 67 67 67 68 68 71 74 76 79 82 83 84 83 79 76 83 91 98 101 102 100 96 96 96 97 102 107 109 112 114 114 112 111 110 108 104 99 96 96 95 92 87 84 83 83 84 84 83 79 73 68 66 64 64 63 63 62 62 62 62 62 62 62 62 62 62 62 63 63 63 63 63 63 63 63 63 63 63 65 67 72 77 79 82 83 87 90 93 96 100 104 108 110 112 113 114 113 110 106 101 97 93 89 84 80 80 79 79 78 77 77 76 75 75 74 73 73 71 71 70 68 66 65 65 65 65 66 66 65 65 66 65 65 65 64 63 62 62 62 62 62 62 62 62 62 62 64 64 64 64 63 63 62 62 63 63 64 65 67 68 69 70 72 73 73 75 76 76 75 74 73 72 72 72 72 72 72 72 73 74 75 74 73 70 68 68 68 68 68 68 68 68 68 68 68 68 68 69 69 70 71 72 72 72 72 71 70 70 68 68 68 69 71 74 79 80 81 80 80 79 79 78 76 72 69 68 68 67 67 67 67 68 71 75 76 76 76 78 76 74 72 70 69 68 68 68 68 68 68 68 68 69 68 67 67 67 69 73 73 70 68 68 67 67 66 66 64 64 64 64 64 64 65 65 65 64 64 64 64 64 64 64 66 71 74 79 84 87 89 90 88 84 81 78 74 71 71 70 70 70 70 70 68 66 66 65 65 65 63 63 62 62 62 62 62 62 62 62 62 62 62 62 62 62 62 64 64 67 68 69 74 77 78 76 72 67 63 62 61 61
116 113 111 110 111 112 110 107 106 106 109 115 122 132 137 142 142 139 139 140 140 138 139 141 143 143 143 143 143 144 140 135 132 132 132 132 132 132 133 131 129 125 120 116 114 112 109 106 106 111 114 114 112 107 104 104 102 100 98 96 97 101 101 99 98 97 95 95 93 91 90 90 90 90 90 90 90 90 92 94 93 92 91 90 90 90 90 90 90 90 90 90 90 90 90 90 90 90 90 90 90 90 90 90 90 94 99 101 100 92 91 89 89 92 92 96 97 94 91 88 88 89 94 96 94 92 92 89 89 87 86 86 86 85 85 85 85 85 85 85 85 86 86 86 87 87 88 88 88 88 88 89 90 90 90 93 95 97 98 99 100 101 103 104 107 110 113 114 113 114 114 113 112 111 111 111 111 111 111 110 109 109 109 110 112 113 113 113 111 110 110 110 109 108 107 106 105 104 104 101 97 94 93 93 91 88 87 87 86 84 82 82 81 78 75 73 74 74 75 76 77 79 76 74 73 74 75 77 76 76 76 79 81 79 76 75 77 77 77 77 78 78 76 75 75 76 75 75 75 76 77 78 80 84 89 92 94 94 91 87 85 82 77 73 73 71 71 69 69 68 67 65 63 62 61 61 61 61 61 60 60 61 62 62 62 62 62 63 63 64 65 65 65 65 65 65 66 66 68 69 69 69 71 74 80 86 89 90 94 97 100 101 104 103 100 92 85 78 72 71 73 75 74 74 74 73 73 74 74 75 76 76 77 76 71 66 66 66 66 66 66 67 69 69 67 66 66 66 66 66 66 66 66 66 66 66 68 67 66 66 66 66 66 66 66 66 66 66 68 71 72 73 74 74 74 74 75 75 75 74 74 72 71 71 72 70 69 68 68 68 68 69 69 70 71 71 72 72 72 72 72 71 71 71 71 71 71 72 72 72 72 72 72 71 71 73 74 73 74 73 74 75 75 75 74 74 76 79 83 86 89 92 94 94 95 94 94 93 91 91 92 91 91 89 88 88 87 86 85 84 83 81 78 75 74 75 79 80 78 79 82 85 89 92 94 95 95 98 97 97 100 104 110 115 117 118 119 117 115 111 105 96 88 83 77 75 76 82 87 92 94 94 91 86 79 73 70 68 67 67 67 68 68 68 68 68 67 66 66 66 67 70 72 74 73 68 67 67 67 67 68 69 69 70 71 73 71 72 74 75 76 79 83 85 86 85 84 82 81 79 76 74 72 72 73 73 70 69 69 69 69 69 69 69 69 69 69 69 69 69 69 69 68 68 68 69 69 69 70 70 70 70 69 67 67 67 68 69 71 75 76 79 81 82 83 83 79 77 83 92 99 102 105 104 100 98 96 95 98 103 106 108 108 107 107 109 108 106 103 99 96 95 94 92 89 86 86 85 85 85 83 79 73 67 64 62 62 62 62 62 62 62 62 62 62 62 62 62 62 62 63 63 63 63 63 63 63 63 63 63 64 65 68 73 78 79 81 83 85 88 91 94 98 102 106 109 111 112 113 112 110 107 103 99 95 90 85 81 80 79 79 78 77 77 76 76 75 74 74 73 72 72 70 68 66 66 66 66 66 66 66 65 65 66 66 66 65 64 63 62 62 62 62 62 62 62 62 62 62 63 64 63 63 62 62 62 62 62 63 64 65 66 66 68 69 70 71 72 74 75 74 74 73 72 72 71 71 70 70 70 70 71 72 73 72 71 70 68 68 68 68 68 68 68 68 68 68 68 68 68 70 70 71 72 72 73 73 72 71 70 70 68 68 68 70 71 74 78 80 81 80 79 78 77 76 73 69 68 67 66 66 66 66 67 68 70 74 76 76 76 79 80 77 74 71 68 68 68 68 68 68 68 68 69 69 69 67 67 67 67 72 72 69 67 66 66 66 65 65 64 64 64 64 64 65 64 64 64 64 64 64 64 64 64 64 66 69 72 76 80 85 87 89 87 83 79 77 74 71 71 70 70 70 69 69 67 66 66 65 64 64 63 63 62 62 62 62 62 62 62 62 62 62 62 62 62 62 62 64 65 67 69 70 74 77 77 76 74 68 64 62 61 61
118 115 114 114 114 114 113 112 110 108 111 117 125 135 139 144 144 143 143 144 143 141 140 141 144 143 143 142 143 142 137 132 130 129 127 128 129 130 130 129 127 124 119 115 113 110 108 107 107 111 113 113 111 106 103 104 102 99 96 96 100 101 101 99 100 100 97 96 94 93 92 91 91 91 90 90 90 91 93 94 93 93 92 90 90 90 90 90 90 90 90 90 90 90 90 90 90 90 90 90 90 90 90 90 90 90 93 99 97 90 90 90 90 92 93 95 96 95 93 90 88 88 91 93 91 88 88 88 88 86 85 85 85 85 85 85 85 85 85 85 85 86 86 88 88 88 88 88 88 88 88 88 89 89 90 93 95 99 99 100 101 101 102 104 106 108 111 112 113 113 113 113 112 112 111 111 111 111 111 110 108 108 109 110 111 112 113 111 110 110 109 109 108 107 106 104 103 102 102 99 95 93 92 92 91 87 86 85 84 82 81 81 79 77 75 74 75 75 75 75 76 76 75 75 74 74 74 74 74 74 75 79 81 80 77 77 79 79 79 79 79 78 77 76 75 75 75 75 75 76 77 78 81 84 90 94 98 99 95 91 86 83 78 73 73 71 69 67 65 64 63 62 61 61 62 62 62 62 63 62 62 62 62 62 62 62 63 64 65 66 66 66 65 66 66 65 66 67 68 69 69 70 71 74 81 87 91 93 98 102 104 105 105 104 101 92 85 78 74 72 74 76 75 75 75 74 74 74 74 76 76 76 76 76 73 68 68 68 67 68 68 68 69 71 70 66 66 66 66 66 66 66 66 66 66 67 70 68 66 66 66 66 66 66 66 66 66 66 66 69 70 72 73 73 73 73 74 75 75 75 74 73 71 71 72 70 69 68 68 68 69 71 71 71 71 72 73 73 72 72 72 72 71 71 71 71 72 73 73 74 73 74 73 72 73 75 76 75 75 75 75 75 75 76 75 75 77 80 84 87 90 93 95 96 96 96 96 95 93 93 93 93 93 91 90 90 90 88 88 88 86 83 80 77 76 77 79 80 80 80 83 85 90 93 97 97 97 100 101 99 102 107 114 120 123 124 125 124 121 117 111 102 91 87 80 76 76 77 80 81 81 81 81 79 75 72 69 68 67 67 68 69 69 69 69 68 67 66 66 67 70 73 74 75 72 68 67 67 67 67 68 70 70 71 72 73 72 73 74 74 75 77 80 82 83 82 82 80 78 77 75 74 72 72 72 72 70 69 69 69 69 69 69 69 69 69 69 69 69 69 69 69 69 69 69 69 69 69 69 68 67 67 67 67 67 67 69 69 71 74 75 78 79 80 81 82 79 77 83 93 99 103 107 107 104 101 98 95 95 98 99 101 101 103 106 109 108 105 103 100 98 95 95 93 92 89 88 87 85 85 82 79 72 65 62 62 62 62 62 62 62 62 62 62 62 62 62 62 62 63 63 63 63 63 63 63 63 63 63 64 64 66 68 73 78 79 81 83 83 85 89 92 96 100 104 107 110 112 112 112 110 108 104 99 96 91 87 83 80 79 79 78 77 77 76 76 75 74 74 73 71 71 70 68 67 67 67 67 66 66 66 66 66 66 66 66 66 65 62 62 62 62 62 62 62 62 62 62 62 62 64 63 63 62 62 62 62 62 63 64 65 65 65 66 67 68 70 71 73 73 73 72 72 71 71 71 71 69 68 68 68 69 70 70 70 70 69 68 68 68 68 68 67 67 67 68 68 68 68 69 70 71 71 72 72 73 74 73 71 70 70 69 69 69 70 72 75 78 79 80 79 78 76 74 73 71 69 68 66 66 65 65 66 67 68 69 72 75 74 74 80 83 79 75 72 69 68 68 68 68 68 68 68 69 69 69 68 67 67 67 69 69 67 66 66 66 66 65 64 64 64 64 64 64 65 64 64 64 64 64 64 64 64 64 64 66 68 71 74 77 81 84 87 85 82 78 75 73 71 70 71 71 70 69 68 67 66 66 65 64 64 63 63 62 62 62 62 62 62 62 62 62 62 62 62 62 62 63 64 65 67 69 70 72 75 77 76 75 70 64 62 62 62
120 118 119 119 119 119 116 115 114 110 112 118 127 137 141 146 147 146 146 146 144 142 141 142 144 143 142 141 142 140 135 130 128 126 124 125 126 126 126 125 124 122 118 115 112 109 106 106 107 110 111 111 109 104 101 102 100 97 95 96 101 101 101 100 101 101 99 98 96 94 93 92 92 91 90 90 90 92 93 93 92 93 94 90 90 90 90 90 90 90 90 90 90 90 90 90 90 90 90 90 90 90 90 90 90 90 90 92 92 90 90 90 90 92 93 93 94 94 94 92 89 88 88 89 88 87 87 87 87 86 84 84 84 84 84 84 84 84 84 84 84 86 87 89 89 89 89 88 88 88 88 88 89 89 90 93 96 100 100 100 101 102 102 104 105 107 109 110 111 112 113 113 112 112 111 111 111 110 110 109 108 108 108 109 110 110 111 111 110 110 109 107 106 105 105 104 102 101 100 97 94 92 91 90 90 87 85 83 82 80 80 80 79 77 77 77 76 75 74 75 76 78 77 77 75 75 75 74 74 75 77 79 81 78 75 77 79 79 79 79 79 78 78 78 77 77 77 75 75 76 77 78 80 84 89 94 98 97 92 87 80 77 74 72 71 67 64 62 62 61 61 62 62 63 65 65 65 65 65 63 63 63 62 63 64 64 65 66 67 67 68 68 67 68 66 66 67 68 68 69 69 70 71 74 80 87 92 95 101 105 107 107 105 104 100 91 85 79 77 75 75 76 76 76 76 74 74 74 74 75 76 76 77 77 76 74 74 72 69 69 69 69 69 72 73 69 69 68 66 66 66 66 66 66 66 67 70 70 67 66 66 66 66 66 66 66 66 66 66 66 68 70 71 71 71 72 73 74 74 74 74 72 71 71 71 70 69 68 68 68 70 72 72 72 72 72 73 73 73 73 73 73 72 72 73 73 73 74 75 75 75 75 74 73 74 76 77 77 77 76 76 76 77 77 77 76 78 81 84 88 90 94 96 98 98 98 98 96 95 95 95 95 94 92 91 91 92 91 90 91 89 85 82 80 80 79 80 81 82 82 83 85 89 94 98 99 99 101 103 102 104 110 118 124 128 130 130 129 126 120 114 104 94 89 80 75 75 74 75 75 73 72 73 72 72 70 69 67 67 67 69 71 71 71 71 69 67 66 66 68 71 73 75 74 72 69 68 67 67 67 69 72 72 72 72 72 73 73 73 72 74 76 78 79 80 80 80 79 77 76 74 72 72 71 70 70 69 69 69 69 69 69 69 69 69 69 69 69 69 69 69 69 69 69 69 68 68 68 68 67 68 69 70 69 69 69 70 70 70 72 73 76 77 78 81 81 79 78 83 93 100 105 109 109 107 104 100 95 93 93 94 95 97 100 104 106 106 104 103 102 100 97 97 96 94 92 91 89 85 84 82 77 70 63 62 62 62 62 62 62 62 62 62 62 63 63 63 63 63 63 63 63 63 63 63 63 63 63 64 64 65 66 68 73 78 79 81 83 83 84 86 90 94 98 102 106 108 110 111 110 109 108 105 99 96 92 88 85 82 80 80 78 77 77 76 75 74 74 73 73 71 70 69 68 68 67 66 66 66 66 66 66 66 66 66 66 66 65 62 62 62 62 62 62 62 62 62 63 63 63 64 64 63 62 62 62 62 62 63 63 64 65 65 65 65 67 69 70 71 71 71 70 70 70 70 71 71 69 69 68 68 68 68 68 68 69 68 68 68 68 68 68 67 67 67 67 67 68 69 70 71 71 72 73 73 74 74 73 70 70 70 69 69 69 71 72 75 77 78 78 78 76 74 72 71 70 69 68 67 66 65 65 65 67 68 68 71 73 72 74 80 84 82 77 74 70 68 68 68 68 68 68 69 69 69 69 68 67 67 67 67 66 66 66 65 65 65 64 63 63 64 64 64 64 65 64 64 64 64 64 64 64 64 64 65 65 68 70 73 75 78 81 84 84 81 77 75 73 71 70 70 70 70 68 68 67 66 66 65 64 64 63 63 62 62 62 62 62 62 62 62 62 62 62 62 62 62 63 64 65 67 69 69 71 74 77 76 75 71 66 62 62 62
121 121 124 125 124 122 120 119 118 113 114 120 128 138 142 147 150 149 149 146 145 141 141 142 143 143 140 139 140 137 132 127 124 122 121 122 122 122 122 121 120 119 116 114 111 109 104 103 105 108 110 110 107 104 101 100 98 95 95 98 101 102 102 101 101 101 99 99 97 94 94 93 92 91 90 90 90 90 91 92 92 93 93 90 90 90 90 90 90 90 90 90 90 90 90 90 90 90 90 90 90 90 90 90 90 90 90 90 90 90 90 90 91 92 92 93 93 93 94 94 91 89 87 87 87 87 87 87 87 86 85 84 84 84 84 84 84 84 84 84 84 86 88 89 90 90 89 88 88 88 88 88 89 89 91 93 96 100 101 101 101 102 102 104 105 106 107 109 110 111 113 114 113 112 111 111 110 110 109 108 107 107 108 108 109 110 110 111 110 110 109 106 105 103 103 103 101 99 98 95 93 91 89 89 89 87 85 82 81 80 80 80 79 79 79 77 75 75 77 78 79 81 81 80 79 79 79 77 76 78 79 80 81 78 75 74 76 77 79 79 78 78 78 78 78 78 77 75 75 76 76 77 79 83 87 90 90 86 81 77 73 71 69 67 66 63 61 61 61 61 62 63 64 65 66 65 65 64 64 63 63 63 64 65 66 66 67 67 68 68 69 69 69 68 67 67 68 68 69 70 70 70 71 73 80 87 93 96 102 106 107 107 105 102 97 89 84 81 81 79 77 76 76 76 76 75 74 74 74 75 75 76 77 77 77 77 77 74 71 70 70 70 70 73 74 72 71 70 67 66 66 66 66 66 66 66 68 71 69 66 66 66 66 66 66 66 66 66 66 66 66 67 68 69 70 70 71 72 72 72 72 70 70 70 70 69 69 68 68 68 71 72 72 73 73 73 74 74 74 74 74 73 73 73 75 75 75 75 75 76 76 76 75 74 75 77 78 78 77 77 77 77 77 78 77 77 78 81 84 88 90 94 97 99 100 101 100 98 97 96 96 96 96 94 93 92 93 93 92 92 92 89 84 83 83 82 82 83 84 83 84 86 89 95 98 101 102 103 104 104 106 111 120 126 131 132 131 129 126 120 113 104 93 88 79 75 75 73 73 72 71 71 69 69 69 69 68 67 67 69 71 72 72 72 71 70 69 67 66 68 71 73 74 74 73 72 71 71 71 71 73 74 74 73 73 74 74 73 72 72 72 74 76 77 78 78 77 77 76 75 73 72 71 70 70 69 69 69 69 69 69 69 69 69 69 69 69 69 69 69 69 69 69 69 69 68 68 68 68 69 72 74 75 72 70 72 72 71 71 71 71 73 74 77 79 80 79 79 83 92 99 105 109 111 110 107 102 96 92 90 91 92 95 98 101 102 101 102 101 102 102 100 99 98 97 95 93 89 84 82 79 73 66 62 62 62 62 62 62 62 62 62 63 63 63 63 63 63 63 63 63 63 63 63 63 64 64 64 65 65 65 67 68 73 77 79 82 83 84 84 85 87 91 96 100 104 107 109 110 109 108 107 105 99 96 93 88 86 84 81 80 78 77 77 76 75 74 73 73 73 71 70 70 69 68 68 68 67 67 66 66 66 66 65 65 65 65 64 62 62 62 62 62 62 62 62 62 63 63 63 63 64 63 62 62 62 62 62 62 63 64 65 65 65 65 66 67 69 70 70 70 69 69 70 70 71 71 70 69 69 68 68 68 68 68 68 68 69 69 68 68 68 68 67 67 67 68 69 70 71 72 72 72 73 73 74 74 73 70 70 70 70 70 70 71 72 73 75 76 76 76 74 72 71 71 69 69 67 66 65 65 65 65 66 67 68 69 70 70 73 79 83 83 79 75 71 69 68 68 68 68 69 69 69 69 68 68 68 66 66 65 65 65 65 64 64 64 63 63 63 64 64 64 64 64 65 65 64 64 64 64 64 64 64 65 65 67 68 71 73 75 78 81 82 80 76 74 73 72 70 70 70 70 69 68 66 66 66 65 64 64 64 64 62 62 62 62 62 62 62 62 62 63 63 63 63 63 63 64 65 66 68 69 71 73 76 76 74 72 66 63 62 62
121 124 128 129 127 126 125 123 121 117 116 122 130 138 142 147 151 151 150 146 143 140 140 141 142 141 138 138 138 134 129 124 121 119 118 118 118 117 119 118 117 115 114 112 110 108 103 102 104 106 107 107 105 102 99 97 95 95 97 100 102 102 102 101 101 101 99 99 96 94 94 92 92 90 90 90 90 90 90 90 91 91 90 90 90 90 90 90 90 90 90 91 90 90 90 90 90 90 90 90 90 90 90 90 90 90 90 90 90 90 90 91 92 92 92 92 92 93 96 96 94 89 87 87 87 87 87 87 87 86 86 86 84 84 84 84 84 84 84 84 84 86 88 89 90 90 89 88 88 88 88 88 89 91 92 94 96 99 99 100 101 102 103 104 104 104 106 108 109 111 113 114 114 114 113 111 110 108 108 107 106 106 106 107 108 109 109 110 110 110 110 106 103 101 101 101 101 97 95 94 91 90 88 88 88 87 85 81 80 79 79 79 79 78 77 76 76 78 81 81 82 83 82 82 81 81 81 80 79 81 81 81 81 78 74 72 73 76 78 78 78 78 78 79 79 79 78 76 75 75 75 76 79 81 83 81 78 75 73 72 68 65 65 64 63 61 61 61 61 63 64 63 63 64 64 63 63 63 63 64 65 66 66 67 68 68 68 68 68 69 69 69 69 68 67 67 68 68 69 70 70 70 71 73 80 87 94 97 103 106 107 107 105 101 95 87 85 84 84 81 78 76 76 76 76 75 74 74 74 75 75 75 76 76 77 78 78 74 71 70 70 70 70 72 73 70 69 69 68 66 66 66 66 66 66 66 67 70 67 66 66 66 66 66 66 66 66 66 66 66 66 66 66 67 67 68 68 69 69 69 69 69 69 69 68 68 68 68 68 69 72 72 72 73 73 74 74 74 74 74 74 74 75 75 77 77 78 77 77 77 76 76 76 76 76 77 79 79 77 77 77 78 78 78 78 78 79 82 84 88 92 95 98 100 102 103 103 101 99 98 97 98 98 97 95 94 95 94 94 94 94 92 87 85 85 84 84 84 86 85 86 87 91 95 99 102 104 105 105 105 106 112 120 127 132 132 129 125 120 114 107 99 88 83 77 74 74 74 74 73 73 72 70 69 69 70 69 69 70 72 73 73 73 73 71 71 70 68 68 68 70 73 74 74 74 77 80 78 76 76 76 74 73 72 74 77 77 73 72 72 72 72 74 76 76 76 75 75 75 75 74 75 74 71 69 69 69 69 69 69 69 69 69 69 69 69 69 69 69 69 69 69 69 69 69 68 68 69 70 72 76 78 77 74 72 74 75 74 73 72 71 71 72 75 78 78 77 79 82 90 97 103 109 112 112 109 103 97 92 89 88 90 93 96 98 99 98 98 99 100 101 101 100 100 99 96 93 87 81 78 74 68 63 62 62 62 62 62 62 63 63 63 63 63 63 63 63 64 64 64 64 64 64 64 64 64 65 65 65 65 66 67 68 73 77 79 81 82 83 84 84 84 87 93 98 102 105 107 108 108 107 106 105 100 96 93 89 87 85 82 80 78 77 77 75 75 74 73 73 73 73 72 74 73 71 70 70 69 68 67 66 65 65 64 63 63 64 63 62 62 62 62 62 62 62 63 63 63 63 63 62 63 63 62 62 62 62 62 62 64 65 66 65 65 65 65 66 67 68 68 69 68 69 69 69 70 70 70 70 70 69 68 68 67 68 68 69 69 69 69 69 69 68 68 67 67 69 71 71 72 72 72 73 74 74 74 74 72 70 70 70 71 70 70 71 71 72 74 74 74 74 73 71 71 71 70 69 66 65 65 65 65 65 65 67 68 68 68 68 71 77 81 83 81 77 73 70 68 68 68 69 69 69 68 68 68 67 67 66 65 65 64 64 64 63 63 63 63 63 63 64 64 64 64 64 65 65 65 64 64 64 64 64 64 65 65 67 67 70 71 73 75 78 80 79 75 74 72 72 70 70 70 70 69 69 67 66 66 65 64 64 64 64 62 62 62 62 62 62 62 62 62 63 63 63 62 62 63 64 64 66 68 68 71 73 75 75 74 71 66 64 63 63
122 127 131 132 131 131 130 126 123 119 119 123 130 138 141 147 151 150 149 146 142 139 139 140 140 138 136 137 135 131 126 121 118 116 115 115 114 114 116 116 114 112 111 109 108 106 103 102 103 103 103 102 101 99 97 96 95 95 100 103 103 103 103 102 101 101 99 99 96 94 94 92 91 90 90 90 90 90 90 90 90 90 90 90 90 90 90 90 90 90 90 91 90 90 90 90 90 90 90 90 90 90 90 90 90 90 90 90 90 90 90 92 92 93 92 92 92 93 98 100 97 90 87 87 87 87 87 87 87 86 86 86 84 84 84 84 84 84 84 84 84 86 87 89 90 90 89 89 89 89 89 89 90 92 94 94 95 98 99 99 101 102 103 104 104 104 106 107 108 109 112 113 115 115 114 113 110 108 108 107 105 105 105 106 107 109 109 109 110 110 108 106 103 100 99 99 99 96 94 92 89 88 87 87 87 86 84 81 79 79 78 78 78 78 78 78 78 80 83 83 83 83 82 82 82 82 82 81 81 82 81 81 80 77 74 75 76 78 78 78 78 78 78 79 79 79 79 77 76 75 75 75 76 76 76 73 72 70 68 67 65 63 63 64 63 62 63 63 63 65 65 65 64 64 64 64 65 66 66 66 67 68 68 69 69 69 69 69 69 69 69 69 69 68 68 68 69 69 69 70 70 70 71 73 78 85 94 98 103 105 107 108 106 100 93 86 85 84 84 81 78 76 76 76 75 75 74 74 74 75 75 75 76 76 77 78 78 75 71 71 70 70 70 71 71 69 69 69 69 66 66 66 66 66 66 66 66 67 66 66 66 66 66 66 66 66 66 66 66 66 66 66 66 66 66 66 66 66 66 67 67 68 68 68 68 68 68 69 69 69 71 72 72 74 74 74 75 75 75 75 75 75 77 77 79 79 79 79 79 79 78 78 77 77 77 78 79 79 78 78 78 78 78 79 79 79 80 82 84 89 92 95 99 102 104 106 106 104 101 99 99 99 99 99 97 95 95 95 95 95 95 94 89 86 86 86 85 86 88 89 88 88 92 96 100 103 105 106 106 106 106 111 119 126 130 129 124 119 112 104 98 91 82 78 74 74 74 74 75 75 75 75 73 73 73 73 73 73 73 74 74 74 73 73 71 71 70 69 69 68 69 71 73 74 74 77 81 81 79 79 78 73 71 70 74 77 77 74 72 72 72 72 73 74 75 75 75 75 76 77 77 79 79 73 69 68 69 69 69 69 69 69 69 69 69 69 69 69 69 69 69 69 69 69 69 69 70 72 75 76 78 78 78 74 74 76 78 78 78 76 74 72 72 74 76 76 76 79 81 88 95 101 109 113 113 110 104 97 91 88 87 88 91 94 96 96 95 94 95 96 98 99 99 99 98 95 90 82 76 73 69 64 62 62 62 62 63 63 63 63 63 63 64 64 64 64 64 64 64 64 64 64 64 64 64 65 65 65 66 66 66 68 69 73 76 77 79 80 81 81 82 82 85 90 95 99 103 106 107 107 106 105 103 99 94 90 86 85 83 81 80 78 77 77 76 76 75 74 75 75 76 77 77 76 74 72 71 70 68 68 66 65 65 64 62 62 62 62 62 62 62 62 62 62 63 63 63 63 63 63 62 62 62 62 62 62 62 62 62 64 66 66 66 66 66 66 66 67 67 68 68 68 69 69 69 70 70 70 69 69 69 68 67 67 68 68 68 69 69 69 69 69 68 67 67 68 69 72 72 72 73 73 74 73 73 73 72 71 70 70 70 71 71 71 71 71 71 72 72 73 73 72 70 70 69 69 67 66 65 65 65 65 65 65 67 67 68 68 68 71 76 80 82 80 77 74 71 69 69 69 69 69 68 68 68 68 67 67 66 65 65 64 64 63 63 63 63 63 63 64 64 64 64 64 64 64 64 64 64 64 64 63 63 63 64 65 66 67 69 70 71 73 75 78 78 74 74 72 72 70 70 70 70 69 69 67 66 66 65 65 65 64 64 62 62 62 62 62 62 62 62 62 63 63 63 62 62 62 64 64 65 67 68 70 71 74 75 72 70 66 65 64 64
124 130 134 135 134 135 134 130 125 121 121 124 129 137 140 145 149 149 148 145 140 137 138 139 138 136 134 135 133 129 123 118 114 112 112 112 111 110 112 113 112 110 107 105 105 103 102 101 101 101 100 99 98 96 96 95 95 96 103 106 105 105 104 103 102 100 99 99 96 94 94 91 90 90 90 90 90 90 91 90 90 90 90 90 90 90 90 90 90 90 90 91 91 90 90 90 90 90 90 90 90 90 90 90 90 90 90 90 90 90 90 91 92 94 94 94 95 97 100 101 96 90 87 87 87 87 87 86 86 86 85 85 84 84 84 84 84 84 84 84 84 86 86 88 90 90 89 89 89 88 88 88 89 92 94 95 96 97 98 98 99 101 103 103 103 104 105 106 106 108 111 113 114 114 114 114 112 109 108 107 105 105 105 106 107 108 108 108 108 109 109 106 102 99 97 96 96 94 93 90 89 88 86 85 85 84 83 81 79 78 77 77 78 80 80 80 80 80 83 83 83 83 82 82 82 82 82 82 82 82 81 81 80 78 77 78 80 80 79 78 78 78 78 78 78 78 78 76 75 74 74 73 73 73 72 70 69 68 65 63 64 64 66 67 66 66 67 66 66 67 67 67 68 68 68 68 68 69 69 69 69 69 69 69 69 69 69 69 69 69 69 69 69 69 69 69 69 69 69 69 69 69 71 71 75 83 93 97 101 104 107 108 106 98 90 84 83 82 82 79 77 76 76 76 75 75 74 74 74 75 75 75 75 75 76 77 77 75 71 71 70 70 70 69 69 68 68 68 68 66 66 66 66 66 66 66 66 66 66 66 66 66 66 66 66 66 66 66 66 66 66 66 66 66 66 66 66 66 66 66 66 66 68 68 68 68 68 68 68 68 69 72 73 74 74 75 75 75 75 75 76 76 78 79 80 81 81 81 81 81 81 79 79 79 79 79 79 79 80 79 79 79 79 80 80 80 80 82 84 87 91 95 100 104 107 108 108 107 104 101 101 101 101 101 99 97 97 96 96 96 96 95 92 89 87 87 86 87 90 92 92 90 93 97 101 104 105 106 106 106 106 109 117 124 126 124 120 112 104 96 90 84 77 75 73 74 74 76 76 77 76 76 76 76 76 75 75 75 75 74 74 74 74 73 71 71 70 69 69 68 68 70 72 73 74 75 77 79 82 83 78 73 70 70 71 72 72 71 71 71 71 71 71 73 74 75 77 79 80 80 80 80 80 74 69 68 69 69 69 69 69 69 69 69 69 69 69 69 69 69 70 70 69 69 69 69 71 76 80 79 76 76 76 75 75 78 81 81 82 82 79 76 73 73 74 74 75 78 81 87 93 99 107 112 113 110 104 97 91 87 86 86 88 91 93 93 92 91 92 92 94 95 95 95 94 91 85 77 71 68 64 62 62 62 62 63 63 63 63 63 63 64 64 64 64 64 64 64 64 64 64 64 64 64 64 65 65 65 66 66 66 68 69 72 75 75 76 76 77 78 79 81 85 89 94 97 101 105 105 103 100 99 95 91 88 85 83 82 81 80 80 78 77 77 77 77 76 76 77 78 79 79 78 76 75 73 72 71 69 68 67 66 65 65 64 62 62 62 62 62 62 62 62 62 63 62 62 62 62 62 62 62 62 62 62 62 62 63 64 65 66 66 65 65 66 66 66 67 67 67 68 68 69 69 69 70 70 70 69 68 68 67 67 67 68 68 66 67 67 68 67 67 66 66 67 69 69 72 73 73 73 73 74 73 72 71 70 70 70 70 70 70 69 69 70 70 70 70 71 71 71 71 70 69 69 68 67 66 65 65 65 65 65 66 67 67 67 67 67 71 75 79 80 79 76 74 71 70 70 70 69 68 68 67 67 67 66 65 65 64 64 63 63 63 62 62 62 63 63 64 64 64 64 64 65 65 64 64 64 64 63 63 62 62 63 64 66 66 68 69 70 71 73 75 76 74 74 72 72 71 70 70 70 69 69 68 66 66 65 65 65 65 64 62 62 62 62 62 62 62 62 62 63 63 63 62 62 63 64 64 65 66 68 69 70 73 73 72 70 67 65 64 64
126 133 137 138 137 138 137 132 126 122 122 124 129 136 139 143 147 147 146 143 138 136 138 138 136 133 132 133 131 127 120 115 111 109 109 108 107 107 109 110 110 107 104 102 102 102 102 101 100 99 99 99 98 97 96 95 95 98 104 107 107 107 106 104 102 100 99 99 96 94 94 91 90 90 90 90 90 91 91 90 90 90 90 90 90 90 90 90 90 90 90 89 93 91 90 90 90 90 90 90 90 90 90 90 90 90 90 90 90 90 90 90 92 95 96 96 99 101 100 98 95 92 87 86 86 86 86 86 86 86 85 85 85 84 84 84 84 84 84 84 85 86 87 90 91 90 89 89 89 88 88 88 88 92 94 96 96 97 97 97 99 100 101 102 103 103 104 104 104 106 109 111 113 114 114 114 113 110 109 107 105 105 105 105 105 107 107 108 108 108 109 106 102 98 96 95 93 93 92 90 88 87 85 83 83 82 81 80 78 78 77 77 80 83 82 81 81 81 83 83 83 83 82 82 82 82 82 82 82 81 81 81 80 80 80 80 80 80 79 79 79 78 78 78 77 77 76 76 75 74 74 73 72 71 68 66 65 65 64 63 65 68 71 72 71 70 70 69 69 69 69 69 69 70 70 70 70 70 70 70 70 70 70 70 70 70 70 69 69 69 69 69 69 69 69 69 69 69 69 69 69 69 70 70 73 81 91 95 99 103 107 107 104 96 87 82 80 79 79 78 77 77 77 76 75 75 75 75 75 74 74 74 74 74 75 76 76 75 71 71 71 70 70 68 67 66 66 67 68 66 66 66 66 66 66 66 66 66 66 66 66 66 66 66 66 66 66 66 66 66 66 67 66 66 66 66 66 66 66 66 66 66 68 68 68 68 68 68 68 68 69 72 73 74 74 75 76 76 76 76 76 77 78 79 81 81 82 82 83 83 83 82 82 81 80 80 80 80 80 80 80 80 80 80 81 81 81 82 83 86 90 94 100 104 107 109 109 108 106 104 102 102 102 102 101 98 97 97 97 97 97 96 94 92 90 89 88 88 91 94 95 93 94 98 101 104 105 106 105 104 105 108 113 119 122 120 114 104 96 89 84 79 75 74 74 75 76 77 77 77 77 77 77 77 77 76 76 75 75 74 74 74 74 74 71 71 70 70 69 68 68 69 71 73 74 75 75 78 83 82 76 73 71 70 70 70 70 70 70 70 70 70 70 71 73 75 80 80 78 76 76 76 74 72 69 68 69 69 69 69 69 69 69 69 69 69 69 69 69 70 70 70 70 70 69 70 71 77 81 81 79 78 77 77 77 81 82 83 84 83 82 80 75 73 74 74 74 78 81 85 89 95 103 110 112 110 104 97 92 87 85 84 86 88 90 90 89 87 87 88 89 90 89 89 87 84 78 71 66 63 62 62 62 63 63 63 63 63 63 64 64 64 64 64 65 65 65 65 65 64 65 65 65 65 65 65 65 65 66 66 66 68 69 71 73 73 73 74 75 77 79 82 85 89 93 95 97 99 98 94 90 88 86 83 83 83 82 82 81 80 81 80 79 78 78 78 77 77 78 78 78 78 77 76 75 73 72 71 70 69 68 67 66 66 65 63 62 62 62 62 62 62 62 62 62 62 62 62 62 62 62 62 62 62 62 62 62 64 65 65 65 65 65 65 65 65 66 67 67 67 68 68 69 69 69 69 69 69 68 67 66 66 66 68 68 66 65 65 66 67 66 66 65 65 67 69 69 71 73 73 73 73 73 72 71 70 70 70 70 70 70 69 69 69 69 69 70 70 70 71 70 70 69 68 68 67 66 66 65 65 65 66 66 67 67 67 67 66 66 69 75 78 78 76 74 72 71 70 70 70 68 68 68 67 67 66 65 65 64 63 63 63 62 62 62 62 62 63 63 64 64 64 65 65 65 65 65 64 64 64 63 62 62 62 62 63 66 66 67 68 68 69 71 73 75 74 74 72 72 71 70 70 70 70 70 68 68 67 66 66 66 65 64 63 62 62 62 62 62 62 62 62 63 63 63 63 63 63 64 64 65 66 67 69 69 71 72 71 70 68 66 65 64
