ncols         938
nrows         33
xllcorner     -71.3777777778
yllcorner     42.50412
cellsize      1.0E-5
NODATA_value  -9999
67 67 67 65 65 64 62 62 60 57 57 57 56 55 53 53 53 53 53 53 54 54 55 56 56 56 59 61 61 61 62 62 59 57 53 53 53 53 53 51 50 50 48 48 48 48 48 49 49 50 51 50 50 49 48 48 48 48 48 48 48 49 49 49 50 51 51 51 50 50 50 50 50 50 50 50 50 54 54 55 55 56 59 63 67 68 68 70 70 71 70 70 70 70 70 70 70 70 69 68 65 65 65 64 64 63 62 63 63 65 65 66 68 68 69 70 70 69 69 68 66 63 61 59 57 56 56 56 56 55 55 55 55 55 56 56 56 55 54 54 54 55 54 50 50 50 50 49 50 50 49 48 48 47 46 45 45 44 44 43 40 39 38 38 37 37 37 36 35 35 35 35 35 35 35 35 35 35 35 35 35 35 35 35 35 35 35 35 35 35 35 35 35 35 35 35 35 35 36 36 36 37 37 39 40 40 43 44 44 45 45 45 45 45 44 44 44 44 45 45 44 43 43 41 40 38 37 37 37 37 37 38 38 38 37 37 37 37 37 37 37 37 37 37 37 38 38 38 40 40 43 46 48 51 53 50 50 50 50 50 50 50 52 54 55 58 59 61 63 64 64 63 62 59 58 57 58 58 58 58 58 59 60 60 59 60 61 63 64 65 65 65 62 61 60 57 53 52 50 50 50 49 48 48 47 46 42 38 37 37 37 37 38 39 42 45 47 50 51 51 52 52 52 51 50 48 46 45 44 41 41 41 41 41 41 41 41 42 43 44 45 45 47 47 47 47 47 48 47 46 41 36 31 29 29 29 30 30 30 29 29 29 30 32 33 33 33 32 31 31 30 30 30 30 30 30 31 31 33 36 36 36 36 36 36 36 36 35 35 35 35 35 35 35 35 35 35 35 35 35 35 35 35 35 34 34 34 36 36 36 35 35 35 35 35 35 35 35 35 35 36 36 36 37 37 37 37 37 37 37 37 38 38 38 38 39 39 39 40 41 43 45 49 53 54 56 56 57 58 58 59 59 58 56 53 53 52 52 52 52 53 53 54 53 52 52 51 51 52 51 51 51 51 51 52 52 55 58 62 63 62 61 60 60 56 53 49 45 42 42 41 41 41 40 40 40 40 40 40 40 40 39 39 39 39 39 39 39 39 39 40 42 43 44 46 48 48 49 51 52 53 54 54 56 57 59 61 61 60 60 59 58 58 57 58 60 63 62 60 59 58 56 53 50 47 47 49 52 55 54 53 49 47 45 43 41 42 43 43 43 42 42 39 35 31 30 28 27 26 26 32 36 41 46 49 50 50 50 50 50 50 50 48 45 41 38 37 36 34 33 32 32 32 33 33 33 34 35 37 38 36 35 32 30 27 26 26 25 25 25 23 23 24 25 25 26 26 26 26 26 26 24 23 22 22 21 21 21 21 21 21 20 20 20 20 20 20 19 19 19 20 20 20 22 26 28 23 20 20 20 20 20 20 20 20 20 21 21 21 20 20 20 19 19 19 19 19 20 20 20 23 29 34 37 37 37 38 38 43 53 63 69 68 67 64 61 58 56 54 53 52 51 50 50 50 50 49 49 49 49 49 50 50 50 50 50 50 49 49 49 49 50 53 55 54 53 52 50 46 44 42 40 38 37 36 35 34 33 32 31 29 29 29 29 29 29 29 29 29 29 29 29 28 28 28 27 27 27 27 28 29 31 34 35 35 34 34 33 33 31 28 26 26 26 26 26 26 26 26 26 26 26 26 26 26 26 26 26 26 26 26 26 29 30 28 27 27 26 26 26 26 26 26 25 25 25 25 25 25 25 25 25 25 25 25 25 25 25 25 25 25 25 25 25 25 25 25 25 25 25 25 25 25 25 25 25 26 29 31 32 32 33 33 34 35 35 33 30 28 28 27 26 25 24 24 23 23 23 23 22 22 21 21 21 20 20 20 20 20 20 20 20 21 22 22 22 22 22 23 23 23 25 25 25 28 29 30 31 31 31 31 30 28 27 27 28 29 31 30 30 28 27 27 26 25 24 24 24 24 24 24 24 24 24 23 23 23 23 23 23 23 23 23 23 23 23 23 23 23 23 23 23 23 23 23 23 24 24 24 25 26 27 30 31 33 34 34 34
67 67 67 66 65 65 63 62 60 57 55 54 54 54 52 51 51 51 51 52 53 54 55 56 55 55 58 60 60 59 60 59 58 54 52 52 52 52 52 50 50 50 48 48 48 48 48 48 48 49 49 49 48 48 48 48 48 48 48 48 48 48 49 49 51 51 51 50 50 49 49 49 50 50 50 50 51 55 56 55 55 56 59 64 68 68 69 70 70 70 70 69 68 68 68 69 69 69 68 67 65 64 63 63 63 63 62 62 63 64 65 66 68 68 70 70 71 70 70 69 67 65 62 60 58 58 57 57 56 56 56 56 55 55 56 56 56 55 55 54 53 53 52 50 50 50 50 50 50 50 50 49 49 47 46 46 45 45 45 44 43 41 38 37 36 36 36 35 35 35 35 35 35 35 35 35 35 35 35 35 35 35 35 35 35 35 35 35 35 35 35 35 35 35 35 35 35 35 36 36 36 37 37 38 39 40 42 44 44 45 45 45 44 44 44 44 44 44 45 45 44 44 43 41 40 38 37 37 37 38 38 38 38 38 37 37 37 37 37 37 37 37 37 37 37 38 38 38 40 40 42 46 48 50 51 50 50 49 49 50 50 50 52 54 55 59 60 62 64 65 65 65 64 62 59 58 58 58 58 58 58 58 58 58 58 58 60 62 64 65 65 65 63 61 59 57 53 51 51 52 52 51 50 49 47 44 40 37 36 36 37 37 38 38 41 44 47 50 51 51 52 52 52 53 52 49 46 45 43 41 41 41 40 40 40 41 41 42 42 44 45 45 47 47 46 46 46 45 44 42 37 33 29 29 29 29 30 29 29 29 29 29 31 32 35 35 35 33 32 31 30 30 30 30 30 30 31 31 33 35 35 35 35 35 35 35 35 35 35 35 35 35 35 35 35 35 35 35 35 35 35 35 35 35 34 34 35 36 36 35 35 35 35 35 35 35 35 35 35 35 36 36 36 37 37 37 37 37 37 37 37 38 38 38 38 39 39 39 40 41 43 44 48 52 54 55 55 56 56 56 57 57 56 55 53 53 52 52 52 52 52 53 54 54 54 53 52 53 53 52 52 51 51 50 50 50 53 58 61 63 63 63 62 61 58 55 51 47 43 42 41 41 41 40 40 39 39 39 39 39 39 39 39 39 39 39 39 40 40 40 41 42 44 45 47 49 49 50 52 53 54 55 55 56 56 58 60 61 61 62 62 61 61 60 60 61 63 62 60 60 58 55 53 50 48 50 52 54 56 55 53 49 46 43 43 42 42 43 43 43 42 42 39 33 29 29 28 27 27 29 33 38 45 51 52 54 54 54 53 53 53 52 48 44 40 37 37 36 34 32 32 32 32 32 32 32 32 34 35 35 35 34 32 30 28 26 26 26 28 29 28 26 25 25 25 26 26 26 26 26 26 24 23 22 21 21 21 21 20 20 20 20 20 20 19 19 19 19 19 19 20 20 20 23 25 24 21 21 20 20 20 20 20 20 20 20 20 20 20 20 20 20 19 19 19 19 19 19 20 20 21 25 34 37 37 38 39 39 43 52 61 67 69 68 65 61 59 56 56 55 53 51 51 50 50 50 50 49 49 49 49 49 50 50 50 50 49 49 49 49 49 50 52 55 56 56 55 53 50 46 44 41 39 38 37 36 35 34 34 33 31 29 29 29 29 29 29 29 29 29 28 28 28 28 28 27 27 27 27 27 27 29 33 34 35 35 35 34 34 32 28 26 26 26 26 26 26 26 26 26 26 26 26 26 26 26 26 26 26 26 26 27 30 30 28 26 26 26 26 26 26 25 25 25 25 25 25 25 25 25 25 25 25 25 25 25 25 25 25 25 25 25 25 25 25 25 25 25 25 25 25 25 25 25 25 25 26 29 31 31 31 31 33 33 34 34 33 30 28 28 27 27 26 25 24 23 22 22 22 22 22 21 21 21 20 20 20 20 20 20 20 20 21 22 22 22 22 22 23 23 23 25 25 25 29 30 30 31 31 32 32 31 29 28 28 29 29 31 30 30 28 27 26 25 25 24 24 24 24 24 24 24 24 24 24 24 24 23 23 23 23 23 23 23 23 23 23 23 23 23 23 23 23 23 23 23 23 24 24 25 25 26 29 31 33 34 34 35
67 67 67 66 65 65 63 62 60 56 55 53 53 53 51 49 49 50 51 51 53 54 55 55 54 53 55 57 57 56 57 57 56 53 52 52 52 52 52 49 49 48 48 48 48 48 48 48 48 48 48 48 48 48 48 48 48 48 48 48 48 48 49 49 51 51 51 50 49 49 49 49 50 50 50 50 52 55 56 56 56 56 60 64 67 68 69 69 69 69 69 69 68 68 68 68 68 68 66 65 64 63 63 63 62 62 62 62 62 64 64 66 68 68 70 71 71 71 70 70 68 67 64 61 59 59 58 58 58 58 58 58 58 57 56 56 56 55 55 54 53 53 51 50 50 50 50 50 50 50 50 49 49 47 47 47 45 45 45 44 44 41 38 37 36 35 35 35 35 35 35 35 35 35 35 35 35 35 35 35 35 35 35 35 35 35 35 35 35 35 35 35 35 35 35 35 35 35 36 36 36 37 37 38 39 39 42 44 44 45 45 45 44 44 44 44 44 44 45 45 45 44 43 41 41 38 38 38 38 38 38 38 38 38 37 37 37 37 37 37 37 37 37 37 37 37 38 38 40 40 42 46 48 50 50 50 49 49 49 50 50 52 53 55 56 59 60 62 65 65 66 66 65 64 61 58 58 58 57 57 57 57 57 57 57 57 59 62 64 65 66 66 63 61 58 55 52 50 52 53 53 52 51 50 47 44 39 37 36 36 37 37 38 38 40 43 45 48 51 51 52 53 53 53 53 49 47 45 43 42 42 41 40 40 40 40 40 41 42 43 45 45 46 46 46 45 45 43 41 39 34 30 29 29 30 30 29 29 29 29 30 32 34 36 38 38 38 36 34 32 31 30 30 30 30 30 31 31 32 33 34 34 34 34 35 35 35 35 35 35 35 35 35 35 35 35 35 35 36 36 36 35 35 35 35 35 36 36 36 35 35 35 35 35 35 35 35 35 35 35 36 36 36 37 37 37 37 37 37 37 37 38 38 38 38 39 39 40 40 41 42 44 47 51 53 54 55 55 55 55 55 56 56 55 53 53 52 52 52 52 52 53 55 55 55 55 54 54 53 53 52 51 51 50 50 50 52 57 61 63 63 64 63 61 59 55 52 47 44 42 41 41 41 40 40 39 39 39 39 39 39 39 39 39 39 39 40 40 40 41 42 43 45 46 48 51 52 51 52 53 55 56 56 56 56 57 60 61 62 63 63 63 62 62 62 63 63 63 63 62 58 55 53 51 51 54 55 57 58 55 52 48 45 43 43 43 43 43 43 43 42 42 41 35 29 28 28 28 28 30 34 40 48 54 56 58 57 56 54 54 54 53 47 42 39 37 36 34 33 32 32 32 32 32 32 32 32 34 34 34 33 33 32 32 30 30 29 29 30 34 32 30 28 26 26 26 26 25 25 26 24 23 22 21 21 21 20 20 20 20 20 20 20 20 19 19 19 19 19 19 20 20 20 21 21 19 20 20 20 20 20 20 20 20 20 20 20 20 20 20 20 20 19 19 19 19 19 19 20 20 20 23 32 36 37 38 40 40 43 52 60 66 69 68 65 62 60 58 57 56 55 53 51 51 51 51 50 50 49 49 49 49 50 50 50 50 49 49 49 49 49 49 51 53 55 56 56 54 52 48 45 42 40 40 39 38 37 36 35 35 34 32 30 29 29 29 29 29 29 29 28 28 28 28 28 27 27 27 27 27 27 28 31 33 35 35 35 34 33 31 28 26 26 26 26 26 26 26 26 26 26 26 26 26 26 26 26 26 26 26 26 27 30 30 28 26 26 26 26 26 25 25 25 25 25 25 26 26 25 25 25 25 25 25 25 25 25 25 25 25 25 25 25 25 25 25 25 25 25 25 25 25 25 25 25 25 26 29 30 30 30 30 32 33 34 33 33 30 29 29 28 27 27 25 24 23 22 22 22 21 21 20 20 20 20 20 20 20 20 20 20 20 22 22 22 22 22 22 23 23 23 25 25 26 29 30 31 31 31 32 32 32 30 28 28 29 30 31 30 30 28 27 27 27 26 25 24 24 24 24 24 24 24 24 24 24 24 24 24 23 23 23 23 23 23 23 23 23 23 23 23 23 23 23 23 23 23 23 23 24 24 25 28 30 32 33 34 35
67 67 67 66 65 65 63 62 60 56 55 53 53 53 50 48 48 49 51 51 53 54 54 54 53 52 54 56 56 55 56 56 55 52 52 52 52 52 51 49 48 48 48 48 48 48 48 48 48 48 48 48 48 48 48 48 49 49 49 49 48 48 49 49 51 51 51 49 49 49 49 49 50 50 50 50 53 55 56 56 56 56 60 64 67 68 69 69 69 69 68 68 68 67 67 67 67 67 65 65 64 62 62 62 62 62 62 62 62 64 64 65 68 68 70 71 71 71 71 71 69 68 65 61 60 59 59 59 59 59 59 59 59 58 57 57 57 55 55 54 53 53 52 51 50 50 50 50 50 50 51 50 49 47 46 46 45 45 45 44 44 41 37 37 36 35 35 35 35 35 35 35 35 35 35 35 35 35 35 35 35 35 35 35 35 35 35 35 35 35 35 35 35 35 35 35 35 35 36 36 36 37 37 38 39 39 42 44 44 45 45 45 44 44 44 44 44 45 45 45 44 44 43 41 41 38 38 38 38 38 38 38 38 38 37 37 37 37 37 37 37 37 37 37 37 37 38 38 40 40 43 46 48 50 50 50 49 49 49 50 50 52 54 55 56 59 60 63 65 65 67 66 66 64 62 59 58 58 57 57 57 56 56 56 57 57 58 61 64 65 66 66 63 60 57 54 51 50 52 53 53 53 52 50 47 44 38 36 36 36 37 37 38 38 40 43 44 48 51 51 52 53 53 53 53 50 47 46 44 42 42 41 40 40 40 40 40 41 42 43 44 44 45 46 46 45 44 43 40 38 33 29 29 29 30 30 29 29 29 30 31 32 35 36 38 39 39 37 34 32 31 30 30 30 30 31 31 31 31 33 33 33 34 34 34 34 34 34 34 35 35 35 35 35 35 36 36 36 36 36 36 35 35 35 35 35 36 36 36 35 35 35 36 36 36 35 35 35 35 35 36 36 36 36 37 37 37 37 37 37 37 38 38 38 38 39 39 40 40 40 42 44 47 51 52 54 54 55 55 55 55 55 55 55 53 53 52 52 52 52 52 52 55 55 56 56 55 55 53 53 52 51 51 50 50 50 52 56 60 63 63 64 64 62 59 55 52 47 45 43 41 41 41 40 40 39 39 39 39 39 39 39 39 39 39 39 40 40 40 41 42 43 46 46 48 52 53 52 52 53 55 56 56 56 56 57 61 62 62 63 63 64 63 63 63 64 64 64 64 63 58 55 53 51 51 55 57 58 58 55 52 47 44 43 43 43 43 43 43 43 43 43 41 37 30 28 28 28 29 30 34 41 49 55 57 59 58 57 55 55 55 52 46 41 38 37 35 33 32 32 32 32 32 32 32 32 33 34 34 33 33 33 33 33 31 31 31 30 31 34 33 31 29 26 26 26 26 25 25 25 24 22 22 21 20 20 20 20 20 20 20 20 19 19 19 19 19 19 19 19 19 19 20 21 21 19 20 20 20 20 20 20 20 20 20 20 19 20 20 20 20 20 19 19 19 19 19 19 20 20 20 23 32 36 37 37 40 40 43 53 60 66 68 68 65 62 61 59 57 57 55 54 52 51 51 51 50 50 49 49 49 49 50 50 50 50 49 49 49 49 49 49 51 53 54 56 56 55 52 49 46 42 41 40 39 39 38 37 36 36 36 34 31 30 30 29 29 29 29 29 28 28 28 28 28 27 27 27 26 26 26 28 31 33 35 36 36 34 33 31 28 26 26 26 26 26 26 26 26 26 26 26 26 26 26 26 26 26 26 26 26 28 30 30 27 26 26 26 26 26 25 25 25 25 25 25 27 27 26 25 25 25 25 25 25 25 25 25 25 25 25 25 25 25 25 25 25 25 25 25 25 25 25 25 25 25 27 29 29 30 30 30 32 32 33 33 33 30 29 29 28 27 27 25 24 23 22 22 21 21 21 20 20 20 20 20 20 20 20 20 20 20 22 22 22 22 22 22 23 23 24 25 25 27 29 30 31 32 32 33 33 32 30 29 29 29 30 31 30 30 29 28 28 28 27 26 25 24 24 23 24 24 24 24 24 24 24 24 24 24 24 24 23 23 23 23 23 23 23 23 23 23 23 23 23 23 23 23 23 23 24 25 28 29 31 32 33 34
68 66 66 66 65 65 63 62 60 56 54 51 51 50 48 47 47 49 51 51 54 54 54 54 52 51 52 53 54 54 55 56 53 51 51 51 51 51 49 48 48 48 48 48 48 48 48 48 48 48 48 48 48 48 48 48 49 50 51 51 50 49 49 49 51 51 51 49 49 49 49 49 50 50 50 50 54 55 56 56 56 56 60 65 67 68 68 69 69 68 68 68 67 67 67 66 66 65 65 64 63 62 62 62 62 62 62 62 62 64 64 65 67 68 70 71 71 72 71 71 70 68 65 61 60 60 59 59 59 60 60 60 59 58 57 57 57 56 56 55 54 53 53 51 50 50 50 50 51 51 51 50 50 48 46 46 44 44 44 44 43 41 38 37 36 35 35 35 35 35 35 35 35 35 35 35 35 35 35 35 35 35 35 35 35 35 35 35 35 35 35 35 35 35 35 35 35 35 36 36 36 37 37 38 39 39 41 43 44 45 45 45 44 44 44 44 44 45 45 45 44 43 43 41 41 39 40 40 39 38 38 39 39 38 37 37 37 37 37 37 37 37 37 37 37 37 38 38 40 40 43 46 48 50 50 50 49 49 49 50 51 53 54 56 57 59 60 63 65 66 67 66 66 64 62 59 58 58 57 56 56 55 55 56 56 56 57 59 62 64 65 65 63 60 57 54 50 50 52 54 54 53 53 50 47 43 38 36 36 36 36 36 38 38 39 42 43 48 51 51 52 53 53 54 54 52 49 47 46 44 42 41 40 40 40 40 40 41 41 42 44 44 45 46 46 44 43 41 36 34 30 30 30 30 30 30 30 32 31 31 32 35 37 38 39 39 39 37 33 32 31 30 30 30 30 31 31 31 31 33 33 33 33 33 34 34 34 34 34 35 36 36 36 36 36 37 37 37 37 37 36 35 35 35 35 36 36 35 35 35 35 36 36 37 37 37 36 35 35 35 36 36 36 36 37 37 37 37 37 37 37 38 38 38 39 39 39 40 40 40 42 43 46 50 51 53 53 53 53 53 54 54 54 54 53 53 52 52 52 52 52 52 54 55 56 56 56 56 56 54 52 51 51 50 50 50 52 55 59 63 63 64 64 62 59 55 51 47 45 43 41 41 41 40 40 39 39 39 39 39 39 39 39 39 39 39 40 40 40 41 42 44 46 48 51 53 53 53 52 53 55 56 56 56 56 58 61 62 63 64 64 64 64 64 64 64 64 65 65 63 58 55 53 53 55 58 61 60 58 54 50 45 43 43 43 43 43 43 43 43 43 43 42 41 36 29 28 28 29 30 35 42 49 56 58 59 58 57 56 55 53 49 43 38 37 35 33 32 32 32 31 31 31 31 31 31 33 33 33 33 33 33 34 34 34 34 34 32 32 34 33 33 32 29 27 27 26 26 24 24 22 21 20 20 20 20 19 19 19 19 19 19 19 19 19 18 18 18 19 19 19 19 19 20 19 19 20 20 20 20 20 20 20 20 19 19 19 19 19 20 20 20 19 19 19 19 19 19 20 20 23 28 32 36 37 37 40 40 42 50 59 64 66 66 65 64 62 60 57 57 55 54 53 51 51 51 50 50 49 49 49 49 50 50 50 50 49 49 49 48 48 48 48 49 52 54 56 55 52 48 45 42 42 41 41 40 39 38 37 37 39 38 35 33 32 30 30 30 30 31 30 29 29 28 28 28 27 27 26 26 26 27 30 32 35 36 36 34 32 31 28 26 26 26 26 26 26 26 26 26 26 26 26 26 26 26 26 26 26 26 26 28 30 28 27 26 26 26 26 26 25 25 25 25 25 25 27 27 26 25 25 25 25 25 25 25 25 25 25 25 25 25 25 25 25 25 25 25 25 25 25 25 25 25 25 25 26 28 28 28 28 28 29 31 33 33 33 31 31 30 29 28 28 26 25 23 22 22 21 21 21 20 20 20 20 20 20 20 20 20 20 20 20 21 21 22 22 22 23 23 25 25 26 28 29 30 31 32 32 33 33 32 30 30 29 30 30 30 30 30 29 29 29 29 28 27 26 25 24 23 24 24 24 24 24 24 24 24 24 24 24 24 24 24 24 23 23 23 23 23 23 23 23 23 23 23 23 23 23 23 24 25 28 29 30 31 32 33
68 66 66 66 65 64 63 61 59 55 53 50 49 48 47 46 46 48 49 51 52 52 52 52 50 50 51 52 53 54 55 55 52 50 50 50 50 49 48 48 48 50 49 50 49 48 48 48 48 48 48 48 48 48 48 49 50 52 53 53 52 50 49 49 50 50 50 49 49 49 49 49 50 50 50 51 55 56 57 57 57 57 62 66 68 68 68 69 69 68 68 68 67 66 66 65 65 64 64 63 62 62 62 62 62 62 62 62 62 64 64 65 67 67 69 71 71 72 72 72 71 68 64 62 62 61 61 61 60 60 60 59 59 59 59 58 57 56 56 55 55 55 54 52 50 50 50 50 51 51 51 50 50 48 47 46 44 43 42 42 42 41 38 37 36 35 35 35 35 35 35 35 35 35 35 35 35 35 35 35 35 35 35 35 35 35 35 35 35 35 35 35 35 35 35 35 35 35 35 35 36 37 37 38 38 39 40 42 43 44 44 44 44 44 44 44 44 44 44 44 44 43 43 41 41 40 41 41 40 39 39 40 40 39 38 38 37 37 37 37 37 37 37 37 37 38 38 38 40 40 43 46 48 50 49 49 49 49 49 50 52 53 55 56 57 58 60 63 65 66 65 65 65 62 61 60 57 57 57 55 55 55 55 55 55 55 55 58 60 63 64 64 62 60 56 53 50 50 53 54 55 53 52 49 46 43 39 37 36 36 36 36 37 37 38 41 43 48 50 50 52 53 53 54 54 53 51 48 47 45 42 41 40 40 39 39 39 39 40 42 43 44 45 45 45 44 43 39 33 30 30 30 30 30 30 30 35 36 34 33 33 35 38 39 39 39 38 35 32 32 31 30 30 30 30 31 31 31 31 32 33 33 33 33 32 32 32 33 33 35 36 36 36 37 38 38 38 38 38 37 37 35 35 35 35 36 36 35 36 38 38 38 38 39 39 38 37 35 35 35 35 36 36 36 37 37 37 37 37 37 37 38 38 38 39 39 39 39 39 40 42 42 45 48 51 52 52 52 52 52 52 52 53 53 53 53 52 52 52 51 51 52 53 55 56 56 56 58 58 56 53 52 51 50 50 50 51 54 58 62 63 64 63 60 57 53 50 46 45 43 41 41 41 40 40 39 39 39 39 39 39 39 39 39 40 40 40 41 41 41 43 45 47 50 51 54 55 54 53 53 55 57 57 56 56 58 61 62 62 63 63 65 65 64 65 65 65 66 65 61 58 57 57 57 59 63 63 60 55 50 45 43 43 43 43 43 43 43 43 43 43 43 42 42 40 32 29 31 31 31 36 43 49 54 56 57 56 55 53 52 48 43 39 37 34 32 32 32 31 31 31 31 31 31 31 32 33 33 33 32 32 34 36 36 36 35 35 33 33 34 34 35 33 30 29 28 27 26 24 22 21 20 20 20 20 19 19 19 19 19 19 19 19 19 19 18 18 18 18 18 19 19 19 19 19 19 19 19 19 19 19 19 19 19 19 19 19 19 19 20 20 20 19 19 19 19 19 19 20 20 23 29 32 34 36 37 40 41 42 46 54 61 64 65 64 64 63 61 58 58 56 54 53 52 52 52 51 51 50 49 49 50 50 50 50 50 49 48 48 48 47 47 47 47 50 53 54 54 51 48 45 43 43 43 42 41 40 39 38 38 39 40 38 38 37 33 30 30 31 31 30 29 29 28 28 28 27 27 26 26 26 26 28 31 33 35 35 33 31 30 28 27 26 26 26 26 26 26 26 26 26 26 26 26 26 26 26 26 26 26 26 27 28 27 26 26 26 26 26 26 25 25 25 25 25 25 28 28 27 26 25 25 25 25 25 25 25 25 25 25 25 25 25 25 25 25 25 25 25 25 25 25 25 25 25 25 26 27 27 27 26 27 27 29 31 31 32 32 31 31 29 28 28 27 26 23 22 22 21 20 20 20 20 20 19 19 19 20 20 20 20 20 20 20 20 21 22 22 23 25 26 27 27 28 30 30 31 31 32 31 31 31 30 30 29 29 29 29 29 29 30 30 30 29 29 28 27 26 25 25 26 25 25 24 24 24 24 24 24 24 24 24 24 24 24 24 24 24 23 23 23 23 23 23 23 23 23 23 23 23 24 25 27 28 29 29 30 31
68 66 66 65 65 63 61 60 58 54 52 50 48 47 46 46 46 47 47 48 50 51 50 50 50 50 51 51 53 54 55 52 51 50 50 49 49 48 48 48 52 53 52 51 50 48 48 49 49 49 49 49 49 49 49 50 52 54 55 55 53 50 49 49 49 49 49 49 49 49 49 49 50 50 50 51 56 56 57 57 57 58 63 66 68 68 68 69 69 68 67 67 66 65 65 65 65 64 63 63 62 62 62 62 62 62 63 63 63 64 65 65 67 67 69 71 71 73 73 73 71 68 64 63 64 63 62 62 61 61 61 60 60 59 59 59 58 56 56 56 57 57 56 52 50 50 50 51 52 52 52 50 50 49 48 47 44 42 41 41 40 39 38 37 36 35 35 35 35 35 35 35 35 35 35 35 35 35 35 35 35 35 35 35 35 35 35 35 35 35 35 35 35 35 35 35 35 35 35 35 36 36 36 37 38 38 40 41 42 43 44 44 43 43 43 43 43 44 44 44 44 43 42 41 41 41 42 42 40 40 40 41 41 40 39 38 38 38 38 38 38 38 37 37 37 38 38 38 40 41 44 46 47 49 49 49 49 49 49 50 53 55 55 56 56 58 59 62 64 65 64 63 61 61 60 59 57 57 57 55 55 55 55 55 55 55 55 56 59 62 63 63 61 58 56 52 49 49 53 54 54 53 50 47 46 43 39 37 36 36 36 36 37 37 38 41 42 47 50 50 52 53 53 54 54 54 52 50 48 46 43 41 39 40 38 38 38 39 39 41 42 43 44 44 44 43 40 36 31 29 29 30 30 30 30 35 38 38 35 34 34 34 37 39 39 38 36 35 33 33 31 30 30 30 30 31 31 31 31 32 32 33 33 32 32 32 32 33 33 35 36 36 37 38 38 39 39 39 39 38 37 35 35 35 36 36 36 36 39 39 39 39 40 40 40 38 37 35 35 35 35 36 36 36 37 37 37 37 37 37 37 38 38 38 39 39 39 39 39 40 42 43 45 48 50 52 52 52 52 52 52 52 52 53 53 53 52 52 52 51 50 50 51 54 56 56 57 59 60 60 56 54 52 50 50 50 49 51 56 60 62 60 58 56 54 52 50 46 45 43 41 41 41 40 40 39 39 39 39 39 39 39 39 40 40 40 40 41 41 42 44 46 48 50 51 54 55 55 52 52 55 57 57 56 55 57 59 60 61 62 63 65 65 65 65 65 66 66 63 59 59 61 62 62 63 63 61 56 51 45 43 43 43 43 43 43 43 43 43 43 43 43 43 42 41 35 33 34 34 32 35 40 44 45 47 48 50 49 45 44 41 38 37 35 33 32 32 32 31 31 30 30 30 31 31 32 32 31 31 31 32 35 36 37 36 35 35 34 34 35 36 37 34 32 30 28 26 24 22 21 20 20 20 20 19 19 18 18 18 18 18 19 19 19 18 18 18 18 18 18 19 19 19 19 19 19 18 19 19 19 19 19 19 19 19 19 19 20 20 19 19 19 19 19 19 19 19 19 20 20 21 28 32 33 35 36 37 40 42 43 48 57 62 64 63 63 63 61 58 57 56 55 54 52 52 52 51 51 50 50 50 50 50 50 50 50 49 48 48 48 47 47 47 47 49 51 52 52 50 48 45 44 44 44 43 42 41 40 39 38 39 40 41 41 41 37 33 31 31 31 29 29 29 29 29 29 27 27 26 26 26 26 27 30 31 33 33 32 31 29 27 26 26 26 26 26 26 26 26 26 26 26 26 26 26 26 26 26 26 26 26 28 27 27 26 26 26 26 26 26 26 25 25 25 25 26 28 28 27 26 26 25 25 25 25 25 25 25 25 25 25 25 25 25 25 25 25 25 25 25 25 25 25 25 25 25 25 26 26 26 26 26 27 27 28 30 31 32 31 31 29 28 28 27 26 24 22 22 21 20 20 20 20 20 19 19 19 20 20 20 20 20 20 20 20 21 22 23 24 25 26 28 28 28 29 30 29 29 29 30 30 30 30 30 29 29 29 29 29 29 30 31 31 29 29 28 27 27 26 26 26 26 25 25 24 24 24 24 24 24 24 24 24 24 24 24 24 24 24 24 24 24 24 23 23 23 24 24 24 23 24 25 27 27 28 28 29 30
67 65 64 64 63 62 60 58 56 54 52 50 48 47 45 45 45 45 46 47 49 49 49 50 50 50 51 51 53 53 53 50 50 49 48 48 48 48 48 48 53 53 52 51 50 49 49 50 50 50 50 50 50 49 50 52 54 56 56 56 54 51 49 49 49 50 51 50 50 49 49 49 50 50 50 51 56 56 57 56 56 56 61 64 66 67 67 69 69 68 67 67 65 65 63 63 63 63 62 62 62 62 62 62 62 62 62 62 63 64 65 65 66 67 68 70 71 73 72 72 69 66 65 64 65 65 64 62 62 62 62 62 62 61 59 59 58 56 56 56 58 58 57 52 49 50 51 52 53 53 52 51 50 50 48 46 43 41 40 40 39 38 37 37 36 36 36 35 35 35 35 35 35 35 35 35 35 35 35 35 35 35 35 35 35 35 35 35 35 35 35 35 35 35 35 35 35 35 35 35 35 36 36 37 38 38 39 40 41 42 42 43 43 43 43 43 43 43 44 44 44 43 41 40 40 40 42 42 42 42 42 43 42 41 39 38 38 38 38 39 38 38 37 37 37 38 38 38 40 41 44 47 47 48 48 48 48 48 49 51 53 54 53 54 55 57 59 60 62 62 61 60 60 60 59 58 56 56 56 55 55 55 55 55 55 55 55 55 59 61 62 62 60 57 54 51 48 49 52 53 54 53 50 46 44 41 38 37 36 36 36 36 37 37 38 41 43 46 50 50 52 53 53 54 54 54 53 51 49 46 44 40 39 39 38 38 38 38 38 40 40 41 43 43 43 41 38 33 29 28 29 29 29 30 31 38 41 39 36 34 34 34 36 38 39 37 36 35 33 33 31 30 30 30 30 31 31 31 31 32 32 32 32 32 32 32 33 34 34 34 36 37 38 39 39 40 41 40 39 39 37 37 37 37 37 37 38 39 41 41 41 41 41 41 40 38 36 35 35 35 35 35 35 36 36 36 37 37 37 37 37 38 38 38 38 39 39 39 39 40 42 44 46 49 51 54 55 54 53 53 54 54 53 53 52 52 51 51 51 50 50 50 50 52 54 55 56 58 61 63 61 57 55 51 50 50 49 49 53 56 58 56 55 54 53 51 49 46 44 42 41 41 41 40 40 39 39 39 39 39 39 39 39 40 40 40 41 41 41 43 45 47 49 50 52 53 55 56 53 52 54 57 57 56 54 54 55 56 58 62 63 64 64 65 66 66 66 64 61 59 61 65 64 63 62 59 55 52 48 43 43 43 43 43 43 43 43 43 43 43 43 43 43 42 42 37 36 36 34 33 35 36 38 38 39 41 42 42 40 38 37 36 34 32 32 32 32 31 31 31 30 30 30 30 30 30 29 28 29 31 32 35 36 36 35 34 34 35 36 37 38 38 35 32 30 27 26 24 21 21 20 20 20 19 19 19 18 18 18 18 18 18 19 19 18 18 18 18 18 18 18 18 18 19 19 20 19 18 18 18 18 18 19 19 19 19 19 19 19 19 19 19 19 19 19 19 19 19 20 20 20 24 29 32 33 35 37 39 41 42 44 51 59 62 62 62 61 59 58 57 56 56 54 53 53 52 51 51 50 50 50 50 50 50 50 50 49 49 49 48 47 47 46 46 47 48 49 49 49 47 44 42 44 44 43 43 43 41 40 39 40 41 42 42 42 40 37 34 33 32 30 29 29 29 30 29 28 28 26 26 26 26 27 29 30 30 31 31 30 28 26 26 26 26 26 26 26 26 26 26 26 26 26 26 26 26 26 26 26 26 26 28 27 27 26 26 26 26 26 26 26 26 26 26 26 26 27 27 27 26 26 25 25 25 25 25 25 25 25 25 25 25 25 25 25 25 25 25 25 25 25 25 25 25 25 25 25 25 25 26 27 27 27 27 27 28 29 30 30 30 30 29 29 27 27 24 22 22 22 20 20 19 19 19 19 19 19 20 20 20 20 20 20 20 20 22 23 24 25 27 28 28 28 28 28 28 27 27 27 28 27 28 29 29 29 29 29 29 29 29 31 31 31 29 29 28 28 28 27 27 27 26 26 26 25 25 24 24 24 24 24 24 24 24 24 24 24 24 24 24 24 24 24 24 24 24 24 24 24 24 24 24 25 26 26 26 27 28
67 65 64 63 62 62 59 56 55 53 52 51 49 48 45 44 44 45 45 47 47 48 48 49 49 50 52 52 53 53 52 49 49 48 48 48 48 48 48 49 53 53 51 50 50 50 50 50 51 51 51 50 50 50 52 54 55 56 57 56 55 52 50 51 53 53 54 53 52 51 50 50 50 50 50 51 56 56 57 56 56 56 58 62 64 66 67 69 69 68 67 65 65 63 61 61 62 62 62 62 62 61 61 62 62 62 62 62 62 64 64 65 66 66 68 69 71 72 72 71 66 65 65 65 65 66 64 63 62 63 63 63 62 62 59 59 58 57 57 56 56 57 56 51 49 51 52 53 53 53 52 51 51 50 47 45 42 40 39 39 39 38 36 36 36 36 36 35 35 35 35 35 35 35 35 35 35 35 35 35 35 35 35 35 35 35 35 35 35 35 35 35 35 35 35 35 35 35 35 35 35 36 36 37 37 37 38 40 40 41 41 42 42 42 42 42 42 43 43 43 43 42 41 40 40 40 42 43 43 43 43 44 43 42 40 39 39 39 39 39 40 38 37 37 37 38 38 38 39 41 42 43 45 47 48 48 48 48 49 51 52 52 52 53 54 55 57 59 60 61 60 59 59 59 58 57 56 56 55 55 55 55 55 55 55 55 55 55 57 61 61 60 58 56 54 50 47 48 51 52 52 52 49 46 43 40 37 36 36 36 36 36 37 37 38 40 43 46 50 51 53 53 53 54 54 55 53 52 49 47 45 41 39 39 38 38 38 38 38 38 39 39 41 42 42 40 36 31 28 28 28 29 29 30 35 41 43 41 38 35 35 35 36 39 39 37 37 35 32 32 31 31 31 31 31 31 32 32 32 32 32 32 32 32 32 33 34 35 35 35 37 37 38 40 40 41 41 40 39 38 38 38 38 38 38 39 39 40 42 42 42 42 41 41 39 37 36 35 35 35 35 35 35 36 36 36 37 37 37 37 37 38 38 38 38 39 39 39 41 41 43 46 48 50 53 55 56 55 55 55 55 56 55 54 52 52 51 51 51 50 50 50 50 51 52 53 54 56 62 65 64 61 59 54 50 50 49 49 49 51 53 53 53 53 52 50 48 46 44 42 41 41 41 40 40 39 39 39 39 39 39 40 40 40 41 41 41 41 41 42 44 47 49 51 53 53 54 56 53 51 53 57 57 56 54 52 52 53 57 61 61 61 63 65 66 65 62 60 59 59 62 65 63 60 55 52 50 48 46 43 43 43 43 43 43 43 43 43 43 43 43 43 43 42 42 38 37 37 34 34 34 35 35 35 37 38 38 38 37 36 35 34 32 32 32 32 32 31 31 31 30 30 30 29 29 29 28 28 29 31 32 33 34 34 34 34 34 35 37 38 38 37 34 31 29 27 25 24 24 21 20 20 20 19 19 19 18 18 18 18 18 18 19 19 19 18 18 18 18 18 17 17 17 17 18 20 20 19 18 18 18 18 19 19 19 19 19 19 19 19 19 19 19 19 19 19 19 19 20 20 20 22 28 32 33 34 36 37 39 41 43 46 53 59 62 61 60 58 57 57 57 57 55 53 53 52 51 51 51 50 50 50 49 49 49 49 49 49 49 48 48 48 46 45 45 46 46 47 46 45 42 41 42 43 44 44 44 43 41 40 40 41 42 42 43 42 40 39 36 34 32 29 29 29 30 30 29 29 27 26 26 26 26 28 29 29 29 29 28 27 26 26 26 26 26 26 26 26 26 26 26 26 26 26 26 26 26 26 26 26 29 28 27 26 26 26 26 26 26 26 26 26 26 26 26 26 26 27 27 27 27 26 26 26 25 25 25 25 25 25 25 25 25 25 25 25 25 25 25 25 25 25 25 25 25 25 25 25 26 28 29 29 29 28 28 28 28 29 30 30 30 29 29 27 26 25 22 22 22 21 21 19 19 19 19 19 19 20 20 20 20 20 20 20 20 22 24 26 27 28 29 29 29 29 27 27 26 25 25 25 26 27 28 28 28 28 28 29 29 29 30 30 30 29 29 28 28 28 28 27 27 26 26 26 26 25 25 25 25 24 24 25 24 24 24 24 24 24 24 24 24 24 24 24 24 24 24 24 24 24 24 24 23 23 24 25 26 27
67 65 64 62 60 60 58 56 55 54 53 52 49 47 45 44 44 44 45 46 47 47 48 49 49 50 51 52 53 53 51 49 48 48 48 48 48 48 48 50 51 51 50 50 50 50 50 51 51 51 52 52 52 52 53 55 56 57 57 57 56 53 53 54 56 56 56 56 55 55 55 54 51 50 50 51 56 56 56 56 56 56 57 60 63 65 67 68 67 66 64 63 62 61 59 59 60 60 61 61 61 61 61 61 62 62 62 62 62 64 64 64 65 66 67 68 70 71 72 70 65 65 65 65 65 66 64 64 63 63 64 64 63 62 59 58 58 57 56 56 54 54 54 50 49 52 53 54 53 52 50 50 50 49 47 45 41 38 38 39 39 38 36 35 35 35 35 35 35 35 35 35 35 35 35 35 35 35 35 35 35 35 35 35 35 35 35 35 35 35 35 35 35 35 35 35 35 35 35 35 35 35 35 36 37 37 38 38 40 41 41 42 41 41 41 41 41 41 42 42 41 40 39 39 39 40 42 44 45 45 46 46 45 43 41 40 40 40 40 40 41 40 37 38 38 38 38 38 39 40 41 43 44 44 46 47 47 48 49 50 51 51 51 51 52 53 55 58 59 60 59 59 59 57 57 57 56 56 55 55 55 55 55 55 55 55 55 55 55 60 60 59 57 55 52 48 46 47 50 50 49 49 47 44 42 39 36 35 35 36 36 36 37 37 38 40 42 46 49 51 53 54 54 55 55 55 54 53 51 48 47 44 41 39 38 38 38 37 37 37 37 38 40 40 40 38 34 29 28 28 28 29 29 32 39 45 46 45 40 37 36 36 37 39 39 37 35 33 32 32 31 31 31 31 31 31 32 32 32 32 32 32 32 32 33 35 36 36 36 36 37 37 38 40 40 40 40 40 38 38 38 38 39 40 40 41 41 42 42 43 43 43 42 41 39 37 36 35 35 35 35 35 35 36 36 36 37 37 37 38 38 38 38 38 38 39 39 40 42 43 44 47 49 52 54 56 57 57 58 58 58 58 57 55 53 52 50 50 50 50 50 50 50 50 50 50 52 55 62 65 67 65 63 59 54 50 49 49 48 48 50 50 51 51 51 49 48 45 44 42 41 41 41 40 39 39 39 39 39 39 39 40 40 40 41 41 42 42 41 42 43 46 50 51 53 53 53 55 53 50 52 56 57 57 55 52 50 52 55 57 57 58 61 65 66 63 58 56 57 58 61 62 59 55 50 48 46 43 43 43 43 43 43 43 43 43 43 43 43 43 43 43 43 42 42 38 35 35 34 34 34 34 34 35 36 36 35 35 35 34 34 33 32 32 32 32 32 31 31 31 31 33 31 29 29 29 29 29 30 31 31 32 32 32 32 32 32 35 38 38 36 33 31 29 27 26 24 26 28 22 20 20 20 19 18 18 18 19 19 18 18 18 19 19 19 18 18 18 18 18 17 17 17 17 17 17 18 18 18 18 18 18 19 19 19 19 19 19 19 19 19 19 19 19 19 19 19 19 19 19 20 21 27 30 32 34 36 37 38 40 42 43 48 56 60 60 59 57 57 57 57 57 56 53 53 52 51 51 51 50 50 50 49 49 49 49 49 48 48 48 47 47 46 45 45 44 43 43 43 42 41 40 41 42 42 43 44 43 42 41 41 41 42 42 43 42 41 41 39 35 32 30 29 29 30 30 30 29 27 26 26 26 26 27 28 27 27 27 26 26 26 26 26 26 26 26 26 26 26 26 26 26 26 26 26 26 26 26 26 27 29 28 26 26 26 26 26 26 26 26 26 26 26 26 26 26 26 27 28 27 27 27 27 27 25 25 25 25 25 25 25 25 25 25 25 25 25 25 25 25 25 25 25 25 25 25 25 25 27 29 31 31 30 30 30 29 29 29 30 30 29 29 28 27 26 24 22 22 21 20 20 19 19 19 19 19 21 22 22 20 20 20 20 20 21 23 25 27 29 30 30 30 30 28 26 25 24 23 23 23 24 26 27 28 28 28 28 28 28 28 29 29 29 28 28 28 27 27 27 26 26 25 25 25 25 25 25 25 25 25 25 26 26 26 25 25 25 25 25 25 25 24 24 24 24 24 24 24 24 24 24 24 23 23 23 25 25 27
67 64 63 61 59 58 57 56 55 54 53 51 49 47 45 44 44 44 45 46 48 48 48 49 49 50 51 51 52 51 50 48 48 48 48 48 48 48 48 49 50 50 50 50 50 50 50 51 52 52 52 53 55 54 54 55 56 57 58 57 57 57 57 58 59 59 59 59 58 58 60 60 58 53 50 51 55 56 56 56 56 56 57 59 62 63 66 67 65 64 63 61 59 58 58 58 59 59 60 60 61 61 61 61 62 62 62 63 63 64 64 64 65 65 67 68 69 71 71 70 66 65 65 65 65 65 65 65 64 64 64 65 64 62 59 57 57 56 55 55 54 52 50 49 49 53 53 54 53 50 49 49 48 47 45 42 40 38 38 39 39 37 35 35 35 35 35 35 35 35 35 35 35 35 35 35 35 35 35 35 35 35 35 35 35 35 35 35 35 35 35 35 35 35 35 35 35 35 35 35 35 35 35 36 37 37 37 38 39 40 41 41 41 41 41 41 41 41 41 41 40 39 38 38 38 40 43 45 46 46 47 47 46 44 42 41 41 41 41 41 42 42 40 40 41 41 40 39 39 40 42 45 46 46 46 46 47 48 48 50 50 50 50 50 50 51 53 56 58 59 59 59 59 56 56 56 56 56 55 55 55 55 55 55 55 55 55 55 55 58 59 57 55 53 50 47 45 46 48 49 49 48 46 43 41 38 36 35 35 36 37 37 37 37 38 40 41 46 49 51 54 55 55 56 56 56 55 54 53 51 49 46 43 40 39 38 38 37 37 37 37 37 39 39 38 35 30 29 28 28 28 29 30 35 42 49 51 49 44 40 37 37 38 39 39 37 33 32 32 32 31 31 31 31 31 31 32 32 32 32 32 32 32 32 34 37 37 37 37 37 37 37 38 39 39 40 40 40 39 39 39 40 41 42 42 42 43 43 44 44 44 44 43 42 41 38 37 36 35 35 35 35 35 36 36 36 37 37 37 38 38 38 38 38 39 39 39 42 44 45 47 49 50 53 55 57 58 59 60 61 62 61 59 57 55 51 50 50 50 50 50 50 49 49 49 50 51 54 60 65 68 68 67 64 58 52 49 48 48 48 48 49 49 50 50 48 48 45 45 43 41 41 41 39 39 39 39 39 40 40 40 41 41 41 41 41 43 44 45 43 42 45 49 50 51 52 52 53 52 50 51 53 56 57 55 52 49 49 52 53 54 55 58 62 62 60 56 55 55 56 57 56 52 48 46 43 43 43 43 43 43 43 43 43 43 43 43 43 43 43 43 43 43 42 42 37 35 35 34 34 35 34 34 34 34 35 34 34 34 34 34 33 32 32 32 32 32 32 32 32 32 33 32 31 29 29 29 29 30 31 31 32 32 32 32 32 32 35 37 35 33 31 28 26 24 23 23 27 28 24 21 20 20 19 18 18 18 19 19 18 18 19 19 19 19 18 18 18 18 18 17 17 17 17 17 17 17 17 18 18 18 18 19 19 19 19 19 19 19 19 19 19 19 19 19 19 19 19 19 19 20 21 26 30 31 33 35 36 37 39 41 44 46 51 57 58 58 57 57 57 57 57 56 53 53 52 51 51 51 50 50 49 49 49 49 49 48 48 48 48 48 47 46 45 45 43 42 41 41 41 40 40 41 41 41 42 42 42 41 41 41 41 43 43 44 43 42 41 39 36 33 31 29 29 29 30 30 30 27 26 26 26 26 26 27 27 26 26 26 26 26 26 26 26 26 26 26 26 26 26 26 26 26 26 26 26 26 26 26 27 28 27 26 26 26 26 26 26 26 26 26 26 26 26 26 26 26 27 28 28 28 27 27 25 25 25 25 25 25 25 25 25 25 25 25 25 25 25 25 25 25 25 25 25 25 25 25 25 27 30 31 32 32 32 31 30 29 29 30 30 28 28 27 26 24 23 22 22 21 20 20 19 19 19 19 19 22 23 23 22 21 20 20 22 23 24 26 27 30 30 31 30 30 27 25 25 23 22 22 22 23 25 26 27 27 28 28 28 28 28 29 29 29 28 28 27 26 26 26 25 24 23 24 24 25 25 25 25 25 25 26 26 27 27 26 26 26 26 26 26 25 25 24 24 24 24 24 24 24 24 24 24 24 24 24 24 25 26
67 65 63 60 58 58 56 55 54 53 52 51 48 47 44 44 44 44 45 47 48 48 48 49 49 50 50 51 51 50 48 48 48 48 48 48 48 48 48 49 50 50 50 50 50 50 51 51 52 52 53 54 55 55 55 55 56 57 58 58 60 61 61 62 62 61 61 61 60 61 63 64 61 57 52 50 54 56 55 55 55 56 58 59 61 62 63 64 63 62 61 58 57 57 56 57 58 59 60 60 60 61 61 61 62 62 62 63 63 63 63 64 65 65 66 67 68 70 71 71 68 65 65 65 65 65 65 65 65 65 65 65 64 59 56 56 56 56 54 53 53 51 49 47 48 52 53 52 49 47 47 47 47 46 44 40 38 37 37 37 37 35 35 35 35 35 35 35 35 35 35 35 35 35 35 35 35 35 35 35 35 35 35 35 35 35 35 35 35 35 35 35 35 35 35 35 35 35 35 35 35 35 35 36 36 36 37 38 38 40 40 41 41 41 41 40 40 40 40 39 38 38 38 38 38 40 43 46 47 47 47 47 46 45 43 41 42 42 42 42 43 43 41 41 43 43 42 41 40 41 43 46 46 47 47 47 47 49 49 50 50 50 50 50 50 51 52 56 57 58 59 59 59 56 56 56 56 56 56 55 55 55 56 56 55 55 55 55 55 56 58 56 54 52 49 45 43 45 48 48 49 47 45 42 40 37 35 35 35 36 37 37 38 38 38 40 41 46 49 51 54 55 55 56 56 57 56 55 54 53 51 48 45 42 40 38 38 37 37 36 36 37 38 38 36 32 29 29 28 28 28 29 32 39 47 54 56 53 49 44 40 39 40 40 39 35 32 32 32 32 32 31 31 31 31 31 32 32 32 32 32 32 32 32 33 36 37 37 37 37 37 37 38 39 39 39 39 39 40 40 40 41 41 43 43 44 45 45 45 46 46 46 44 43 42 40 38 37 35 35 35 35 35 36 36 36 37 37 37 38 38 38 38 38 39 39 39 43 45 46 49 50 52 53 56 59 60 61 62 64 64 64 62 60 56 52 50 50 50 50 49 49 49 49 49 50 50 53 58 65 68 69 68 66 62 56 50 48 47 47 47 48 48 48 49 47 47 45 44 44 42 41 41 39 39 39 39 39 40 40 40 41 41 41 41 41 44 46 47 46 42 42 45 48 50 51 51 51 51 50 50 51 55 56 53 51 49 49 50 50 51 52 54 57 58 57 55 54 53 54 52 51 48 43 43 43 43 43 43 46 45 43 43 43 43 43 43 43 43 43 43 43 43 42 42 37 35 35 35 35 35 34 34 34 34 34 33 33 33 33 33 33 32 32 32 32 32 32 32 32 32 32 33 32 30 29 29 29 30 31 31 31 31 31 31 31 32 35 36 34 32 29 26 23 23 23 23 27 26 24 22 20 20 19 18 18 18 18 18 19 19 19 19 19 19 19 19 18 18 18 17 17 17 17 17 17 17 17 17 17 17 18 19 19 19 19 19 19 19 19 19 19 19 19 19 19 19 19 19 19 20 21 27 30 31 32 34 35 36 38 41 44 46 49 53 56 57 57 57 57 57 57 56 53 53 52 51 51 51 50 50 49 49 49 48 48 48 47 47 48 48 48 46 46 45 43 42 42 41 41 40 39 40 40 41 41 41 41 41 41 41 41 43 43 44 43 43 41 39 37 33 31 29 29 30 30 30 30 27 26 26 26 26 26 26 26 26 26 26 26 26 26 26 26 26 26 26 26 26 26 26 26 26 26 26 26 26 26 26 27 27 27 26 26 26 26 26 26 26 26 26 26 26 26 26 26 27 27 28 28 28 27 26 25 25 25 25 25 25 25 25 25 25 25 25 25 25 25 25 25 25 25 25 25 25 25 25 25 26 30 32 33 33 33 33 32 30 29 29 29 28 27 26 25 24 23 22 21 21 20 20 19 19 19 19 19 21 23 23 23 23 23 24 23 24 25 26 27 30 30 31 30 28 26 24 24 22 21 21 22 23 24 26 26 27 28 28 28 28 28 29 28 28 27 27 27 26 26 25 24 23 23 23 24 25 25 25 25 25 25 25 25 26 26 26 27 27 27 26 26 26 25 25 24 24 24 24 24 24 24 24 24 24 24 24 22 21 20
66 66 64 60 57 56 54 54 53 52 51 50 48 45 44 44 44 44 44 46 47 47 48 49 49 50 49 49 48 48 48 48 48 48 48 49 50 50 49 49 50 50 50 50 50 51 52 52 53 53 53 54 54 55 55 57 57 58 59 61 62 64 65 65 66 65 65 64 64 63 64 64 62 60 54 50 52 54 54 54 55 57 59 59 59 59 60 60 60 59 58 56 56 56 56 56 57 58 60 60 60 61 61 61 61 61 62 62 62 63 63 63 65 65 66 67 67 69 70 70 69 67 65 65 65 65 65 65 65 65 65 65 63 58 55 55 56 55 52 51 51 50 48 47 47 49 50 50 49 47 45 44 45 44 42 39 37 36 35 35 35 35 35 35 35 35 35 35 35 35 35 35 35 35 35 35 35 35 35 35 35 35 35 35 35 35 35 35 35 35 35 35 35 35 35 35 35 35 35 35 35 35 35 35 35 35 36 37 38 39 40 40 41 41 41 39 39 38 38 38 37 37 37 38 38 40 44 46 47 48 48 48 47 46 44 43 44 44 44 44 44 44 43 42 44 45 44 43 42 42 44 46 47 47 48 48 48 49 49 50 50 50 50 52 52 52 52 55 56 57 59 59 59 58 56 56 56 56 56 57 55 55 56 56 55 55 55 55 55 54 55 54 52 51 49 44 43 44 46 48 48 47 45 42 39 37 35 35 35 37 37 37 38 39 39 40 41 45 49 51 54 55 55 57 57 57 57 57 56 55 53 49 46 44 41 39 39 37 37 35 35 36 36 36 35 30 28 28 29 29 29 30 35 42 51 57 59 57 53 47 43 42 41 40 37 34 32 33 33 33 32 31 31 31 31 31 32 32 32 32 32 32 32 32 33 33 36 37 37 37 37 37 38 39 39 38 38 39 41 42 42 42 43 44 45 46 47 48 48 48 49 48 47 46 45 43 41 39 38 36 35 35 35 36 36 36 36 36 37 38 38 38 38 38 39 39 39 42 45 47 51 53 54 55 57 60 62 63 65 65 66 66 64 62 58 55 52 50 50 49 49 49 48 48 48 49 49 51 54 60 66 68 68 67 64 59 52 48 47 46 46 47 47 47 47 47 47 45 44 44 42 42 41 39 39 39 39 39 40 40 40 41 41 41 41 43 44 47 47 46 44 42 43 45 47 49 49 50 51 51 50 50 51 51 50 50 49 49 49 48 48 48 50 51 53 53 54 53 52 51 48 44 43 43 43 43 43 43 46 46 45 43 43 43 43 43 43 43 43 43 44 46 46 44 43 40 37 36 35 35 35 35 34 34 33 33 32 32 32 32 32 32 32 32 32 32 32 32 32 32 32 32 33 32 31 29 29 29 30 31 31 31 31 30 30 30 33 36 34 31 30 28 25 23 23 23 25 24 22 21 20 20 20 19 18 18 18 18 19 20 20 20 20 20 19 19 19 19 18 18 18 18 17 17 17 17 17 17 17 17 17 18 18 19 19 19 19 18 18 18 18 18 18 18 18 19 19 19 19 19 19 21 27 30 31 32 33 34 36 38 39 42 45 47 50 54 56 57 57 57 56 56 56 54 53 52 51 51 50 50 50 49 48 48 48 48 48 47 47 47 47 47 48 47 46 45 45 43 42 41 39 38 38 40 40 40 41 41 41 41 41 42 43 43 44 43 43 41 39 37 33 31 30 31 31 31 30 29 27 26 26 26 26 26 26 26 26 26 26 26 26 26 26 26 26 26 26 26 26 26 26 26 26 26 26 26 26 26 26 27 27 27 26 26 26 26 26 26 26 26 26 26 26 26 26 26 27 27 28 28 28 27 25 25 25 25 25 25 25 25 25 25 25 25 25 25 25 25 25 25 25 25 25 25 25 25 25 25 25 27 32 34 35 35 35 33 32 30 29 29 27 26 26 24 24 23 21 21 20 20 20 19 18 18 18 18 20 22 23 23 24 24 24 24 24 25 26 27 29 29 29 27 26 23 22 21 21 20 20 21 23 24 25 26 26 27 27 28 28 28 28 28 28 27 27 27 25 25 24 23 23 23 23 23 24 24 24 24 24 24 24 24 24 24 24 25 25 26 26 26 27 26 26 26 25 24 23 23 22 22 22 22 22 23 22 21 20 18
66 66 64 60 57 54 53 52 52 51 50 49 46 44 44 44 44 44 44 45 47 47 48 49 49 50 49 49 48 48 48 48 48 48 50 50 51 51 51 50 50 50 50 52 53 53 53 53 53 54 54 55 55 56 58 60 61 61 62 63 65 67 68 69 69 69 68 66 65 64 64 64 63 60 55 51 51 53 53 54 54 57 58 58 58 58 58 58 59 58 57 56 56 56 56 56 58 59 60 60 60 61 61 61 61 61 62 62 62 62 62 63 64 64 66 67 67 69 69 70 69 68 65 65 65 65 66 66 65 65 65 64 62 58 53 54 55 53 51 51 50 48 47 47 47 47 48 49 49 46 44 41 42 42 41 39 36 35 35 35 38 37 37 37 36 35 35 35 35 35 35 35 35 35 35 35 35 35 35 35 35 35 35 35 35 35 35 35 35 35 35 35 35 35 35 35 35 35 35 35 35 35 35 35 35 35 36 37 37 39 39 40 41 41 41 39 39 37 37 37 37 37 37 38 39 41 44 46 48 49 49 49 49 47 45 44 45 46 46 46 46 46 44 43 45 47 46 44 43 43 45 47 47 48 48 48 49 49 49 50 50 50 52 53 53 53 54 55 56 57 59 60 60 59 57 56 56 56 57 58 58 56 57 57 55 55 55 54 54 53 54 53 51 50 49 44 42 43 45 47 47 47 45 42 38 36 35 35 37 38 40 40 40 41 41 41 42 45 49 51 54 55 56 57 57 58 58 58 57 57 54 51 49 46 43 41 39 37 37 35 35 35 36 35 33 28 28 28 29 29 29 32 38 45 53 60 63 61 57 50 45 43 41 39 36 35 34 34 34 33 32 31 31 31 31 31 32 32 32 32 32 32 32 32 33 33 35 37 37 37 37 37 38 38 38 38 38 40 43 43 43 43 44 46 47 49 49 50 50 50 50 49 49 47 47 45 43 41 40 37 35 35 35 36 36 36 36 36 37 38 38 38 38 38 39 39 39 42 46 49 53 55 56 57 58 61 63 64 66 66 67 67 66 63 61 58 55 51 50 49 49 49 48 48 48 48 49 50 52 55 62 66 67 67 65 61 54 48 46 45 45 46 46 46 46 46 46 45 44 43 42 41 41 39 39 39 40 40 40 41 41 41 41 41 42 44 44 46 47 46 45 43 43 43 45 47 48 49 51 51 50 50 50 50 50 50 49 49 48 47 47 47 47 48 49 50 51 53 51 48 43 43 43 43 43 43 43 46 46 45 43 43 43 43 43 43 43 43 43 46 50 51 51 48 46 43 38 37 36 36 36 36 35 34 34 33 32 32 32 32 32 32 32 32 32 32 32 32 32 32 32 33 33 32 31 29 29 29 30 30 30 31 31 30 29 29 33 35 31 28 28 27 25 23 23 24 24 22 20 20 20 19 19 19 18 18 18 18 20 21 21 21 20 20 20 20 20 19 18 18 18 18 17 17 17 17 17 17 17 17 17 18 18 18 19 19 19 18 18 18 18 18 18 18 18 19 19 19 19 19 19 21 26 30 31 31 32 33 34 36 38 40 43 46 47 51 54 55 56 56 56 56 56 54 53 52 51 51 50 50 50 48 48 48 47 47 48 47 47 47 47 47 48 47 47 46 46 44 42 41 39 38 38 40 40 40 41 41 41 42 42 42 43 43 43 43 43 41 39 37 34 32 31 32 32 31 29 29 27 26 26 26 26 26 26 26 26 26 26 26 26 26 26 26 26 26 26 26 26 26 26 26 26 26 26 26 26 26 26 27 27 27 26 26 26 26 26 26 26 26 26 26 26 26 26 26 27 27 28 28 28 27 25 25 25 25 25 25 25 25 25 25 25 25 25 25 25 25 25 25 25 25 25 25 25 25 25 25 25 25 30 34 36 37 37 36 34 32 29 29 27 26 26 24 24 23 21 21 20 19 19 19 18 18 18 18 19 21 21 22 24 24 24 24 24 25 26 26 27 27 26 24 22 21 20 20 20 20 20 21 23 24 24 24 25 26 27 27 27 27 28 28 28 27 27 27 25 25 24 23 23 23 23 23 24 24 24 24 24 24 24 24 24 24 24 24 24 24 24 25 26 26 25 25 24 24 23 21 20 20 21 21 22 22 22 21 20 19
64 64 62 58 55 52 51 51 50 49 48 46 44 44 44 44 44 44 44 44 46 47 47 49 49 50 49 48 48 48 48 48 48 50 51 52 53 53 53 52 52 52 52 53 55 56 55 55 55 55 56 58 59 60 61 62 63 63 64 66 68 69 71 72 71 71 69 67 66 66 65 65 64 60 56 52 51 51 52 53 53 54 55 55 55 55 56 57 58 57 56 56 55 55 55 56 58 59 60 60 60 60 60 61 61 61 62 62 62 62 62 62 64 64 66 66 67 68 68 68 69 68 67 64 64 64 66 66 64 64 64 62 60 58 52 51 52 52 51 50 49 48 47 47 47 47 47 47 46 44 42 40 39 39 38 37 35 34 34 38 40 39 39 38 38 36 35 35 35 35 35 35 35 35 35 35 35 35 35 35 35 35 35 35 35 35 35 35 35 35 35 35 35 35 35 35 35 35 35 35 35 35 35 35 35 35 36 36 37 38 38 40 41 41 42 39 38 37 36 36 36 37 37 38 40 42 45 46 48 49 49 50 50 48 46 46 46 47 48 48 48 47 46 44 46 47 46 46 45 45 46 47 47 48 49 49 49 49 49 50 50 51 53 54 54 55 56 56 57 58 59 60 60 60 58 56 56 56 57 59 59 57 57 57 56 56 55 54 53 51 52 51 51 52 50 44 41 43 45 47 47 47 45 40 37 35 35 36 37 40 42 43 43 43 43 44 43 45 48 51 54 56 56 57 57 58 59 59 59 58 56 53 51 48 44 42 39 37 36 35 35 35 35 34 30 28 28 28 28 29 29 33 39 46 55 61 65 64 60 53 47 43 41 39 37 37 36 35 34 33 32 31 31 31 31 31 32 32 33 32 32 32 32 32 32 33 36 37 37 37 37 37 38 38 38 38 39 41 44 45 45 45 46 48 49 51 51 52 52 52 51 51 51 50 49 48 46 44 42 40 38 38 37 36 36 36 36 36 37 38 38 38 38 38 39 39 39 42 47 50 54 56 57 58 60 61 64 65 67 67 68 69 68 66 64 61 58 54 52 50 49 49 47 47 47 47 48 49 51 52 57 62 65 66 65 62 56 49 45 44 44 45 45 45 45 45 44 43 43 42 41 41 41 40 39 40 40 40 41 41 41 41 41 42 44 45 45 46 46 46 45 44 44 43 43 45 48 49 49 49 49 49 49 50 49 49 49 49 47 47 47 47 46 46 47 50 51 51 47 41 42 42 43 43 43 43 45 46 43 43 43 43 43 43 43 43 43 43 49 52 55 56 55 51 48 45 41 38 37 37 37 36 36 35 34 33 32 32 32 32 32 32 32 32 32 32 32 32 32 32 32 33 33 32 30 29 28 28 28 28 29 30 30 30 29 29 30 31 28 26 26 25 24 23 23 24 22 21 20 20 20 19 19 19 19 19 19 20 20 21 21 21 21 21 21 20 20 19 19 19 18 18 18 17 17 17 17 17 17 17 17 17 17 17 18 18 18 18 18 18 18 18 18 18 18 18 18 18 18 18 19 23 26 27 27 28 30 31 33 34 36 38 41 44 46 48 51 52 55 56 56 55 55 54 53 52 51 51 50 49 49 48 48 48 47 47 47 47 47 47 47 47 48 48 47 46 46 45 43 42 40 38 38 40 40 40 41 41 41 42 42 43 43 43 43 43 43 41 40 39 36 33 32 32 32 31 29 29 27 26 26 26 26 26 26 26 26 26 26 26 26 26 26 26 26 26 26 26 26 26 26 26 26 26 26 26 26 26 26 27 27 27 26 26 26 26 26 26 26 26 26 26 26 26 26 26 27 27 28 28 28 27 26 26 26 27 27 25 25 26 27 27 26 25 25 25 25 25 25 25 25 25 25 25 25 25 25 25 25 25 27 33 36 37 39 38 37 35 31 29 27 27 26 25 24 23 21 21 20 19 19 18 18 18 18 18 19 20 21 23 23 22 22 23 23 24 24 24 24 24 23 22 21 20 20 20 20 20 20 20 22 22 23 23 23 24 25 25 26 27 28 28 28 27 27 27 25 25 24 23 23 23 23 23 24 23 23 23 23 24 24 24 24 23 23 23 23 23 24 24 24 24 23 23 23 23 22 20 20 20 20 20 21 21 21 21 21 20
63 61 58 56 53 50 49 48 48 46 45 44 44 44 44 44 44 44 44 44 44 46 47 48 49 48 48 48 48 48 48 48 51 52 53 54 54 55 54 54 53 53 53 54 56 57 57 57 58 58 60 61 61 62 62 63 64 65 67 69 71 72 73 73 73 72 71 69 68 67 65 65 63 60 57 53 51 51 51 52 52 53 54 53 53 54 55 57 57 57 56 56 55 55 55 56 56 59 60 60 60 60 60 60 61 61 62 62 62 62 62 62 64 64 66 66 66 67 68 68 69 69 68 64 63 64 66 66 64 63 63 60 58 57 51 50 50 51 50 50 48 48 47 47 47 47 47 46 45 43 40 38 38 37 37 36 34 34 37 40 41 40 39 39 39 37 36 35 35 35 35 35 35 35 35 35 35 35 35 35 35 35 35 35 35 35 35 35 35 35 35 35 35 35 35 35 35 35 35 35 35 35 35 35 35 35 35 36 36 38 38 40 42 42 41 39 37 36 35 35 36 37 37 39 40 42 45 45 48 50 50 51 50 49 47 47 47 48 49 49 48 48 47 45 46 47 47 47 47 47 47 48 48 48 49 49 49 50 50 50 51 52 54 54 55 56 56 57 58 59 60 61 61 61 60 56 56 56 56 58 58 57 57 57 56 56 55 53 52 49 50 49 50 51 47 42 41 44 46 47 47 45 43 39 36 35 35 37 38 41 43 44 44 44 45 45 45 45 48 51 54 55 56 57 57 58 59 60 60 59 57 55 53 49 46 44 42 39 36 36 34 34 34 32 29 28 28 28 28 29 30 34 39 47 56 62 65 65 62 56 49 43 40 39 38 37 37 35 34 34 33 31 31 31 31 32 34 34 34 33 33 32 32 32 32 36 38 38 37 37 37 37 38 38 38 38 40 41 45 47 47 47 48 50 52 53 54 54 54 53 54 54 53 51 50 49 49 47 45 43 42 40 39 37 37 36 36 36 37 38 38 38 38 38 39 39 39 41 46 49 54 56 57 59 60 62 64 65 67 68 69 71 70 69 67 64 60 57 55 52 50 49 48 47 47 47 47 48 49 51 54 58 63 66 65 63 57 49 44 44 44 45 45 45 45 44 44 43 43 42 41 41 41 41 40 40 41 41 41 42 42 42 42 43 45 46 46 46 46 46 45 45 44 43 43 43 46 48 49 49 49 49 49 49 49 49 49 49 47 47 49 47 46 46 47 49 49 46 42 40 42 42 43 43 43 43 43 43 43 43 43 43 43 43 43 43 43 48 55 57 58 58 56 53 50 46 42 39 38 38 37 37 37 36 34 33 32 32 32 32 32 32 32 32 32 32 32 32 32 32 32 33 33 31 29 29 27 26 26 27 28 29 30 30 28 28 28 27 25 24 24 24 24 23 22 22 20 20 20 20 20 19 19 19 19 19 20 20 21 21 21 21 21 21 21 21 21 20 19 19 19 19 18 17 17 17 17 17 17 17 17 17 17 17 18 18 18 18 18 18 18 18 17 17 17 18 18 18 18 18 19 21 23 22 22 25 27 29 31 33 35 37 39 41 44 47 48 50 53 55 55 55 54 54 54 53 51 51 50 49 49 48 48 48 47 47 47 47 47 47 47 47 48 48 48 46 46 45 43 42 40 38 38 40 41 40 41 41 41 42 42 43 43 43 43 43 43 41 41 41 39 33 33 34 34 32 30 29 27 26 26 26 26 26 26 26 26 26 26 26 26 26 26 26 26 26 26 26 26 26 27 27 26 26 26 26 26 26 26 27 27 27 26 26 26 26 26 26 26 26 26 26 26 26 26 26 27 27 28 28 28 27 26 26 27 29 28 27 28 29 29 28 27 26 25 25 25 25 25 25 25 25 25 25 25 25 25 25 25 25 26 30 35 37 39 39 38 37 34 32 30 28 27 26 24 23 21 21 20 19 19 18 18 18 18 18 18 20 20 21 21 20 21 22 22 23 23 23 23 23 22 21 20 20 20 20 20 20 20 20 20 21 22 22 22 23 24 25 26 26 28 28 28 27 27 27 25 24 24 23 23 23 23 23 23 23 23 23 23 23 24 24 24 23 23 23 23 23 23 23 23 23 23 23 22 22 21 20 19 19 20 20 21 21 21 21 21 21
60 58 56 54 51 48 46 45 45 44 44 44 44 44 44 44 44 44 44 44 44 44 45 46 46 47 47 47 48 48 48 50 53 54 55 56 57 57 57 56 55 55 55 55 56 58 59 60 61 61 61 62 63 63 64 65 67 68 69 71 73 74 75 75 74 73 72 71 69 68 65 64 63 60 57 53 51 51 51 52 52 52 53 53 53 53 55 56 56 56 56 55 55 55 55 55 55 58 60 60 60 60 60 60 60 61 62 62 62 62 62 62 64 64 65 65 66 66 67 67 68 68 66 62 61 63 66 66 64 63 61 59 56 55 51 50 50 50 50 49 48 48 47 47 47 46 46 46 44 44 42 38 37 36 36 35 34 34 40 42 42 41 40 40 39 37 35 35 35 35 35 35 35 35 35 35 35 35 35 35 35 35 35 35 35 35 35 35 35 35 35 35 35 35 35 35 35 35 35 35 35 35 35 35 35 35 35 35 36 37 38 40 41 41 40 38 36 35 35 35 36 37 37 39 40 42 44 45 48 50 50 51 51 50 49 48 48 49 50 50 50 50 48 47 47 48 48 48 48 48 48 48 48 48 49 49 49 50 50 50 52 53 55 56 56 57 58 59 60 62 62 62 63 64 61 56 56 56 56 57 58 58 58 58 57 56 56 54 52 48 48 48 48 50 47 40 40 44 47 47 46 44 40 37 35 35 35 37 38 41 44 45 46 46 46 47 46 46 47 50 53 55 55 57 58 59 60 61 61 60 58 56 54 51 47 45 43 41 37 36 34 34 33 31 29 28 28 28 29 30 31 34 40 47 56 62 66 65 63 56 49 44 41 40 39 38 37 35 34 34 33 32 31 31 31 33 35 35 34 34 34 33 33 33 36 38 40 38 37 37 37 37 37 38 38 38 40 42 46 47 49 49 50 52 55 55 56 56 55 55 56 56 54 52 51 51 50 48 45 45 44 43 41 40 39 37 36 36 37 38 38 38 38 38 39 39 39 41 45 48 52 55 56 59 60 62 63 64 66 68 69 72 72 70 69 67 64 60 57 54 51 49 48 47 47 47 47 47 48 50 52 55 60 63 64 62 58 52 45 43 44 44 44 44 45 44 44 43 43 42 41 41 41 41 41 41 41 42 42 42 43 43 44 45 46 47 47 46 46 46 45 45 44 44 44 43 44 46 47 47 49 49 48 48 48 48 49 50 49 49 49 48 45 45 45 44 43 41 41 40 42 42 43 43 43 43 43 43 43 43 43 43 43 43 43 43 47 52 57 60 60 60 58 55 51 47 43 40 37 37 36 36 36 35 34 33 32 32 32 32 32 32 32 32 32 32 32 32 32 33 33 33 31 30 29 29 28 26 26 26 26 28 28 28 28 27 26 26 23 23 23 23 23 23 22 21 20 20 20 20 20 19 19 19 19 20 20 20 21 21 21 22 21 21 21 21 21 20 20 20 19 19 18 17 17 17 17 17 17 17 17 17 17 17 17 17 17 17 17 17 17 17 17 17 17 17 17 17 18 18 18 18 19 19 20 22 25 28 30 33 34 35 37 38 42 45 46 48 51 53 54 54 53 53 52 52 50 50 50 49 49 48 48 48 47 47 47 47 47 46 46 46 47 48 48 47 46 45 43 42 40 38 38 39 41 42 41 41 41 42 43 43 44 44 44 43 43 43 42 44 41 35 35 36 35 33 30 28 26 26 26 26 26 26 26 26 26 26 26 26 26 26 26 26 26 26 26 26 26 26 26 27 27 26 26 26 26 26 26 27 27 26 26 26 26 26 26 26 26 26 26 26 26 26 26 26 26 26 27 28 28 28 28 28 28 29 29 29 29 30 30 29 28 26 25 25 25 25 25 25 25 25 25 25 25 25 25 25 25 25 25 28 32 37 39 39 39 37 36 35 32 29 28 26 25 24 22 21 20 19 19 17 17 17 17 17 18 18 18 18 19 19 20 21 21 22 21 22 22 22 22 21 20 20 20 20 20 20 20 20 20 20 21 21 21 23 23 25 26 26 27 27 27 27 27 26 25 24 23 23 23 23 23 23 23 23 23 23 24 24 24 24 24 23 23 23 23 23 22 22 22 22 22 21 21 21 20 19 18 18 19 19 20 20 20 20 20 20
57 56 54 52 50 46 44 44 44 44 44 44 44 44 44 44 44 44 44 44 44 44 44 45 45 46 47 47 48 48 48 51 54 56 58 59 60 60 60 59 58 56 56 57 59 60 63 64 64 63 63 63 63 64 66 68 69 70 71 72 74 75 76 77 75 75 74 72 69 67 65 64 63 60 58 53 52 52 52 52 52 52 53 53 53 53 54 56 56 56 55 55 55 55 55 55 55 57 59 59 60 59 59 59 60 61 63 63 63 63 63 63 64 64 65 65 65 66 66 66 67 66 64 61 58 61 65 65 63 60 59 57 54 53 51 50 50 49 49 49 48 48 47 47 47 46 46 46 46 46 43 38 35 35 35 35 34 37 42 42 42 42 40 40 39 37 36 35 35 35 35 35 35 35 35 35 35 35 35 35 35 35 35 35 35 35 35 35 35 35 35 35 35 35 35 35 35 35 35 35 35 35 35 35 35 35 35 35 35 37 38 39 41 41 39 37 35 35 35 35 36 37 37 39 40 42 44 45 48 50 50 52 51 51 49 49 49 50 50 51 51 51 49 48 48 49 49 49 49 49 49 49 49 49 50 50 50 50 50 52 53 55 56 56 57 58 59 60 61 62 63 63 64 65 63 57 56 56 56 57 57 58 58 58 59 58 57 55 52 48 45 45 46 49 47 40 39 43 46 45 44 42 38 36 35 35 35 37 38 42 44 45 47 47 48 48 47 47 47 49 52 54 55 57 58 59 61 62 62 62 60 58 55 52 49 46 44 42 39 36 35 35 32 30 29 28 28 28 29 30 32 35 40 47 57 62 66 65 63 56 49 45 42 41 40 39 38 36 35 34 33 32 31 31 31 32 36 36 35 34 34 34 34 34 37 39 41 38 38 37 37 37 37 38 38 39 40 42 45 47 49 50 51 54 57 57 58 58 57 57 57 57 56 54 53 52 50 48 46 46 47 46 45 44 42 40 38 37 37 38 38 38 38 38 39 39 39 41 44 47 50 53 55 58 59 61 62 64 65 67 69 72 72 72 71 69 68 64 60 56 53 51 49 48 47 47 47 47 48 49 50 52 55 59 61 61 58 53 46 43 43 44 44 44 44 43 43 43 43 43 42 42 42 41 41 41 42 42 43 43 43 44 44 45 46 46 47 46 46 46 46 45 44 45 46 44 43 43 44 45 47 48 48 47 47 48 50 50 50 49 49 48 46 45 42 41 41 41 41 41 42 44 48 49 47 46 43 43 43 43 43 43 43 43 43 46 51 54 57 60 60 60 60 56 52 47 43 39 37 37 36 36 36 34 33 33 32 32 32 32 32 32 32 32 32 32 32 33 33 33 33 32 29 29 29 29 28 26 26 25 25 25 27 26 27 26 25 24 23 23 23 23 23 23 23 21 20 20 20 20 20 20 20 20 20 20 21 21 21 22 22 22 22 22 21 21 21 21 20 20 19 19 19 17 17 17 17 17 17 17 17 17 17 17 17 17 17 17 17 17 17 17 17 17 17 17 17 17 18 18 18 18 18 19 20 21 23 27 29 31 33 34 35 36 39 42 45 47 48 50 51 52 52 52 52 51 50 49 49 50 50 48 48 48 48 48 48 47 47 46 46 46 47 48 48 47 45 44 43 43 41 38 38 39 41 42 42 42 42 43 43 44 44 44 44 44 44 44 43 44 41 38 37 37 36 34 31 28 26 26 26 26 26 26 26 26 26 26 26 26 26 26 26 26 26 26 26 26 26 26 26 26 26 26 26 26 26 27 27 27 27 26 26 26 26 26 26 26 26 26 26 26 26 26 26 26 26 26 27 28 28 29 29 29 29 30 30 30 30 30 30 29 28 26 25 25 25 25 25 25 25 25 25 25 25 25 25 25 25 25 25 25 30 35 38 39 39 38 37 36 35 32 29 27 26 24 23 21 20 19 19 17 17 17 17 17 17 18 18 18 17 18 19 20 21 21 20 20 21 21 21 20 20 20 20 20 20 20 20 20 20 20 20 20 20 22 23 25 26 26 27 27 27 27 27 26 25 25 23 23 23 23 23 23 23 23 24 24 24 24 23 23 23 23 23 23 23 23 22 22 22 22 22 21 20 20 20 19 18 18 18 19 20 20 20 20 20 20
54 54 52 51 48 45 44 44 44 44 44 44 44 44 44 44 44 44 44 44 44 44 46 45 45 46 47 48 48 48 48 52 54 57 59 61 62 63 63 62 61 60 60 60 62 63 65 65 65 65 64 64 64 65 67 69 71 72 73 74 75 76 77 78 77 76 75 72 69 67 65 64 62 60 57 53 52 52 52 52 52 52 53 53 53 53 54 55 55 55 55 55 55 55 55 55 55 57 59 59 59 59 59 59 59 61 62 63 63 63 63 63 64 64 65 65 65 65 66 66 66 65 64 62 58 57 60 62 61 57 56 56 53 53 51 50 50 49 49 48 47 47 47 47 47 46 46 46 46 46 42 36 34 34 34 34 37 41 43 42 41 41 40 40 39 37 37 35 35 35 35 35 35 35 35 35 35 35 35 35 35 35 35 35 35 35 35 35 35 35 35 35 35 35 35 35 35 35 35 35 35 35 35 35 35 35 35 35 35 36 37 38 39 39 38 36 35 35 35 35 36 37 37 39 40 42 44 45 48 50 50 52 51 51 51 50 50 51 51 51 51 51 50 49 49 50 50 50 49 49 49 49 50 50 50 50 50 50 50 53 54 56 56 57 58 58 59 61 62 63 63 64 65 65 64 59 56 56 56 57 57 58 59 59 59 59 58 55 52 49 46 44 43 47 46 40 38 42 43 43 43 41 38 36 35 35 35 37 38 42 45 46 48 49 49 49 48 47 47 48 51 54 54 57 58 59 61 62 63 63 62 59 56 53 50 46 45 42 40 37 34 33 31 29 28 28 29 30 28 29 32 36 40 47 55 62 66 65 62 55 48 45 43 41 40 39 38 37 35 35 33 31 31 31 31 31 36 36 35 34 34 34 35 35 36 39 39 38 37 37 37 37 37 38 38 38 40 41 43 47 50 51 53 55 58 59 60 61 60 59 59 58 57 55 55 53 51 49 48 48 48 48 47 46 44 42 40 39 38 38 38 38 38 38 39 39 39 41 44 46 48 51 54 57 58 60 61 62 63 66 69 72 72 73 72 71 69 67 63 59 55 52 51 50 48 48 47 47 48 48 49 51 53 55 59 59 57 53 47 43 43 44 44 44 43 43 43 43 43 43 42 42 42 42 42 42 42 43 43 44 44 45 45 45 46 46 46 46 46 46 46 46 46 46 45 44 43 43 43 44 45 46 47 47 47 48 50 50 49 48 48 48 46 45 42 42 43 41 41 41 46 50 53 53 50 46 43 43 43 43 43 43 43 43 44 50 54 56 58 59 59 60 60 56 50 45 40 38 37 36 35 34 34 33 33 34 32 32 32 33 33 32 32 32 32 32 32 33 33 33 32 30 29 29 29 29 27 26 26 25 25 25 25 24 25 25 25 23 23 22 22 21 21 23 23 21 19 19 20 20 20 20 20 20 21 21 21 21 21 22 22 22 22 22 22 22 22 21 20 20 19 19 19 18 17 17 17 17 17 17 17 17 17 17 17 17 17 17 17 17 17 17 17 17 17 17 17 17 18 18 18 18 18 19 19 20 22 25 28 30 32 33 34 35 37 39 44 46 46 47 48 50 51 51 50 50 49 47 48 49 49 48 48 48 48 48 48 47 47 46 46 46 46 47 47 46 45 44 42 42 40 38 38 38 40 41 42 43 43 43 44 45 47 47 46 46 46 45 45 44 43 41 40 39 37 36 33 29 27 28 27 26 26 26 26 26 26 27 27 26 26 26 26 26 26 26 26 26 26 26 26 26 26 26 26 26 27 27 27 26 26 26 26 26 26 26 26 26 26 26 26 26 26 26 26 26 26 26 26 27 28 29 29 30 31 31 31 31 31 30 29 28 27 26 25 25 25 25 25 25 25 25 25 25 25 25 25 25 25 25 25 25 28 32 36 38 39 39 38 37 37 34 31 28 27 25 23 22 20 19 19 17 17 17 17 17 17 17 17 17 17 17 17 19 20 20 19 19 20 20 20 19 19 20 20 20 20 20 20 20 20 20 20 20 20 21 23 25 26 26 26 26 26 26 26 26 25 25 23 23 23 23 23 24 25 26 25 24 24 24 23 23 23 23 23 23 23 23 22 22 22 22 22 21 20 20 19 18 18 18 18 18 19 19 19 20 20 20
52 51 49 48 45 45 44 44 44 44 44 44 44 44 44 44 44 44 44 44 44 46 51 49 48 49 50 50 49 49 50 53 55 59 62 64 65 65 65 64 64 63 63 63 64 65 65 66 66 66 65 65 65 66 69 71 73 74 74 75 76 77 78 79 78 77 75 72 69 67 65 64 62 59 57 54 53 53 52 52 52 52 53 53 53 53 54 55 55 55 55 55 55 55 55 55 55 58 60 60 59 59 59 59 59 60 62 63 63 63 63 64 64 64 65 65 65 65 65 65 65 65 64 62 60 57 56 57 56 53 53 54 52 52 51 51 50 49 49 48 47 47 47 46 46 46 46 45 45 45 40 35 34 34 34 36 41 42 43 42 41 41 41 41 40 38 37 35 35 35 35 35 35 35 35 35 35 35 35 35 35 35 35 35 35 35 35 35 35 35 35 35 35 35 35 35 35 35 35 35 35 35 35 35 35 35 35 35 35 35 36 37 38 38 37 36 35 35 35 35 36 37 37 39 40 42 45 45 48 50 50 52 52 52 51 51 51 51 51 52 51 51 50 50 50 51 51 51 50 50 50 50 50 51 50 50 50 50 50 53 54 56 57 57 58 59 60 62 63 63 64 65 65 65 65 60 56 56 56 57 57 58 59 59 59 59 58 55 52 48 47 46 42 44 45 39 38 41 42 42 42 40 38 36 35 35 35 37 39 43 45 47 49 50 50 50 49 47 47 48 51 53 54 56 58 59 61 62 63 63 63 61 58 55 51 47 45 42 39 37 33 32 31 29 28 28 30 30 28 28 32 37 40 46 54 61 65 65 60 54 48 46 44 42 41 39 39 37 36 35 33 32 32 31 31 31 35 35 34 34 34 34 34 34 36 38 38 37 37 37 38 38 38 38 38 38 39 40 43 46 50 52 54 57 59 61 62 62 62 62 63 61 60 57 56 55 52 51 50 49 49 49 48 47 46 44 42 40 39 38 38 38 38 38 39 39 39 42 43 44 45 49 52 55 56 58 59 60 62 65 68 71 72 72 72 72 71 68 65 62 58 54 52 51 50 49 48 48 47 47 48 49 51 53 55 56 54 48 45 44 44 44 44 44 43 43 43 43 43 43 42 42 43 43 42 43 43 44 45 45 45 46 46 46 46 46 46 46 46 46 46 46 45 44 44 44 44 43 43 43 44 44 45 46 46 47 48 49 49 48 48 48 49 46 45 45 43 41 42 46 50 53 54 54 50 46 43 43 43 43 43 42 42 40 47 54 57 59 59 57 57 56 56 52 47 42 39 37 36 35 34 33 33 33 35 35 34 34 33 34 34 33 32 32 32 32 32 34 33 33 32 30 30 29 29 29 27 27 28 26 25 24 24 24 24 24 24 23 23 22 21 21 21 21 21 20 19 19 20 20 20 21 21 21 21 21 22 22 22 22 22 22 22 22 22 22 22 21 21 21 20 20 19 18 18 17 17 17 17 17 17 17 17 17 17 17 17 17 17 17 17 17 17 17 17 17 17 17 17 17 17 18 18 18 19 19 20 23 26 29 30 32 34 35 36 38 41 45 44 44 45 47 48 48 49 49 48 47 47 48 49 48 48 48 47 47 47 47 47 46 46 46 46 46 46 45 44 43 42 41 39 38 38 38 39 40 42 43 43 44 45 46 48 48 47 47 47 46 45 45 45 43 41 40 38 37 33 30 30 30 29 28 27 27 28 28 28 28 29 27 26 26 26 26 26 26 26 26 26 26 26 26 26 26 26 26 27 27 27 26 26 26 26 26 26 26 26 26 26 26 26 26 26 26 26 26 26 26 26 26 29 30 30 31 32 34 33 31 30 29 28 28 27 26 25 25 25 25 25 25 25 25 25 25 25 25 25 25 25 25 25 25 26 31 35 38 38 39 39 38 37 36 34 30 29 27 25 22 20 19 19 18 17 17 17 17 17 17 17 17 17 17 17 17 18 18 18 19 20 19 19 19 19 20 20 20 20 20 20 20 20 20 20 20 20 21 23 25 26 26 26 26 26 26 26 26 25 25 24 23 23 23 24 25 27 29 26 24 24 24 23 23 23 23 23 23 23 23 22 22 22 22 22 21 20 20 18 17 17 18 18 18 19 19 19 19 19 20
50 49 48 46 45 45 44 44 44 44 44 44 44 44 44 44 44 44 44 44 44 46 53 52 51 51 51 52 52 52 52 54 57 61 64 65 66 67 67 66 65 65 65 65 66 67 67 67 66 66 66 65 65 66 70 72 74 76 76 76 76 77 79 80 79 77 74 71 68 67 65 63 60 58 57 54 53 53 52 52 52 52 53 53 53 53 54 55 55 55 55 55 55 55 55 55 55 58 60 60 59 59 59 59 59 59 61 62 62 63 63 63 64 64 64 65 65 65 65 65 65 65 64 62 61 58 55 54 52 50 51 52 52 52 51 51 50 49 49 48 47 47 47 46 46 45 45 45 44 44 40 35 34 34 34 41 44 43 43 42 41 41 41 41 40 39 38 36 35 35 35 35 35 35 35 35 35 35 35 35 35 35 35 35 35 35 35 35 35 35 35 35 35 35 35 35 35 35 35 35 35 35 35 35 35 35 35 35 35 35 35 36 36 36 35 35 35 35 35 35 36 37 37 39 40 42 45 45 48 49 50 52 53 53 52 52 52 52 52 52 51 51 50 50 50 50 51 51 50 50 50 51 51 52 51 51 51 51 51 53 54 56 57 57 58 60 61 62 63 63 64 65 65 65 64 61 56 56 56 57 57 58 59 59 59 59 58 55 51 46 48 47 41 42 43 38 38 40 40 41 42 41 39 37 35 35 35 37 39 43 46 47 50 50 51 51 50 48 47 47 50 52 53 56 57 59 61 62 63 63 63 62 60 56 53 49 45 41 37 35 33 32 31 30 28 29 30 30 28 28 32 36 39 45 53 60 64 64 59 53 49 47 46 43 41 40 39 38 36 35 32 32 32 31 31 31 33 34 33 33 33 33 34 35 36 37 37 37 37 37 38 38 38 38 38 38 39 40 43 45 49 53 55 57 60 61 63 63 63 64 66 64 61 58 57 56 54 53 52 51 51 50 50 50 48 46 44 41 39 38 38 38 38 38 39 39 39 41 42 42 44 47 50 52 54 56 57 58 60 63 66 69 70 71 72 72 71 68 66 63 61 57 53 52 51 50 49 48 46 46 47 48 50 51 53 53 49 46 44 44 44 43 43 43 43 44 44 43 43 43 43 44 45 45 45 45 45 46 46 46 46 46 46 47 47 46 46 46 46 46 45 45 44 44 44 44 44 44 44 44 44 44 44 45 46 46 47 47 47 47 47 49 50 46 45 43 41 41 46 49 51 53 54 52 49 44 43 43 43 43 43 42 42 40 49 55 58 59 57 55 54 52 51 48 45 41 38 36 35 35 34 33 33 35 36 36 36 36 35 34 34 34 32 32 32 32 32 33 33 33 32 32 32 32 31 29 28 28 28 28 25 24 24 24 24 24 24 23 23 21 21 21 20 20 21 23 22 20 20 21 21 21 21 21 22 22 22 22 22 22 22 22 22 22 23 22 22 22 22 21 20 20 19 19 18 18 17 17 17 17 17 17 17 17 17 17 17 16 16 16 16 16 17 17 17 17 17 17 17 17 17 18 18 18 19 19 20 22 24 28 29 31 33 34 36 37 39 43 44 44 45 45 46 47 48 48 48 47 47 48 49 48 48 48 47 47 47 46 46 46 46 46 45 44 44 45 44 43 41 40 38 38 38 38 39 40 42 43 43 45 46 47 49 49 48 47 47 47 47 48 48 47 43 40 39 37 34 31 32 33 33 31 29 30 31 31 31 31 30 28 27 26 26 26 26 26 26 26 26 26 26 26 26 26 26 28 27 26 26 26 26 26 26 26 26 26 26 26 27 27 27 27 26 26 26 26 26 26 26 26 29 31 32 33 32 34 35 32 30 29 28 27 26 25 25 25 25 25 25 25 25 25 25 25 25 25 25 25 25 25 25 25 25 29 34 38 38 40 40 39 38 37 35 33 30 28 26 23 21 19 19 18 17 17 17 17 17 17 17 17 17 17 17 17 17 18 18 19 19 19 19 19 19 20 20 20 20 20 20 20 20 20 20 20 20 20 22 24 24 24 24 23 24 25 25 25 25 25 24 23 23 23 25 27 29 29 26 24 24 24 23 23 23 23 23 23 23 23 22 22 22 22 22 22 21 21 18 17 17 18 18 18 19 19 19 19 19 21
48 48 46 45 45 45 45 45 44 44 44 44 44 44 44 44 44 44 44 44 44 46 53 54 52 52 52 53 55 55 55 56 58 63 66 67 67 68 68 66 66 66 66 67 67 68 68 67 67 67 67 65 65 65 70 72 75 77 77 77 77 77 79 80 78 76 74 70 68 67 64 62 60 58 57 55 53 53 53 53 53 53 53 53 53 53 54 55 55 55 55 55 55 55 55 55 55 58 60 60 59 59 59 59 59 59 61 62 62 63 63 63 64 64 64 65 65 64 64 64 64 64 64 62 62 59 55 54 51 50 50 51 52 52 51 51 51 49 49 49 47 47 47 46 46 45 45 44 43 42 39 35 34 34 37 43 44 43 43 42 42 42 42 42 41 39 38 36 35 35 35 35 35 35 35 35 35 35 35 35 35 35 35 35 35 35 35 35 35 35 35 35 35 35 35 35 35 35 35 35 35 35 35 35 35 35 35 35 35 35 35 35 35 35 35 35 35 35 35 35 36 37 37 39 40 42 45 45 47 49 50 52 53 53 53 53 53 53 53 53 52 51 50 50 50 50 51 51 51 51 51 52 52 52 52 52 52 52 52 53 53 55 57 57 58 60 61 63 63 63 64 64 64 65 62 58 56 56 56 57 57 58 59 59 59 59 57 54 48 44 47 46 40 39 41 38 38 38 39 40 41 41 39 37 35 35 35 37 39 43 46 47 50 50 51 51 51 48 47 47 48 51 52 55 56 58 60 62 63 64 64 62 60 58 54 51 46 42 37 33 32 32 31 31 30 30 30 30 28 28 31 36 38 43 50 57 62 63 59 52 49 48 46 44 42 40 39 38 37 35 33 32 32 31 31 30 30 31 32 32 32 32 33 34 36 37 37 37 37 37 38 38 38 38 38 38 39 40 44 46 48 53 55 57 60 62 64 64 65 66 67 67 63 61 58 57 56 55 54 53 52 51 52 52 50 49 46 43 41 38 38 38 38 38 39 39 39 40 41 41 42 46 48 50 51 53 55 56 58 61 63 66 68 69 71 71 71 69 67 64 62 59 56 53 52 50 50 48 46 46 45 47 48 50 51 49 46 45 44 43 43 43 43 43 43 44 44 43 43 44 46 47 48 48 48 48 48 49 49 49 48 48 48 48 47 47 47 46 46 46 45 45 44 44 44 44 44 44 44 44 44 44 44 44 45 45 47 47 47 47 47 49 47 44 42 41 42 44 48 51 53 53 52 50 47 43 43 43 43 43 43 44 47 49 52 55 56 56 56 54 52 50 48 46 42 39 37 35 35 35 34 34 35 36 37 37 36 36 36 34 34 34 32 32 32 32 32 33 33 33 33 33 33 32 32 30 29 29 29 29 27 25 25 25 25 24 24 24 23 21 21 21 20 20 21 23 23 21 22 22 22 22 22 22 22 22 22 22 23 23 23 23 23 23 23 23 23 23 22 22 22 21 20 19 19 18 17 17 17 17 17 17 17 17 17 17 17 16 16 16 16 16 16 17 17 17 17 17 17 17 17 17 17 18 18 18 20 21 23 27 28 31 33 33 35 36 37 40 43 43 44 44 44 45 46 47 47 47 47 48 48 48 48 48 47 47 46 45 45 45 45 45 44 43 43 43 43 42 40 39 38 38 38 38 39 40 42 43 43 45 46 48 49 49 48 47 47 47 48 50 51 50 45 40 39 37 36 35 35 37 37 35 32 33 35 36 35 35 34 31 28 27 26 26 26 26 26 26 26 26 26 26 26 26 26 29 30 27 26 26 26 26 26 26 27 27 27 27 28 28 28 27 27 27 26 26 26 26 26 27 28 31 33 34 33 33 34 32 30 29 27 27 26 25 25 25 25 25 25 25 25 25 25 25 25 25 25 25 25 25 25 25 25 27 33 37 38 40 40 40 39 38 36 34 31 29 26 24 21 20 20 18 18 17 17 17 17 17 17 17 17 17 17 17 17 18 18 18 19 19 19 20 20 20 20 20 20 20 20 20 20 20 20 20 20 20 20 22 23 23 22 23 23 24 24 25 25 25 24 23 23 24 26 27 29 28 25 24 24 23 23 23 23 23 23 23 23 23 22 22 22 22 22 22 21 21 18 17 17 18 18 18 19 19 19 19 19 20
45 46 46 45 45 45 45 45 44 44 44 44 44 44 44 44 44 44 44 44 44 46 53 55 53 52 53 54 56 56 57 58 61 65 67 68 69 69 68 68 67 67 68 68 68 68 68 68 69 71 67 65 65 65 68 72 75 77 77 76 76 76 77 77 77 75 74 71 68 66 64 62 60 58 57 55 53 53 53 53 53 53 53 53 53 53 54 55 55 55 55 55 55 55 55 55 55 57 60 60 59 59 59 59 59 59 61 62 62 63 63 63 64 64 64 64 63 63 62 62 63 64 64 63 62 60 56 54 53 50 50 50 51 51 51 51 51 49 49 49 48 48 47 46 46 45 45 43 41 40 38 35 35 36 40 43 44 44 44 43 43 43 43 42 41 39 38 37 35 35 35 35 35 35 35 35 35 35 35 35 35 35 35 35 35 35 35 35 35 35 35 35 35 35 35 35 35 35 35 35 35 35 35 35 35 35 35 35 35 35 35 35 35 35 35 35 35 35 35 35 37 38 38 39 40 42 44 45 47 49 50 52 53 53 53 53 53 53 53 53 52 52 50 50 50 50 51 51 52 52 52 52 53 53 53 52 52 52 52 53 53 56 57 57 58 59 61 62 63 63 63 63 63 62 61 56 56 56 56 57 57 57 57 57 58 58 56 52 47 42 44 45 40 38 40 37 36 37 39 40 40 40 39 37 35 35 35 37 39 42 45 47 50 50 51 51 51 49 47 47 47 49 51 54 56 57 59 61 63 64 64 62 60 59 55 52 47 43 37 33 32 32 32 31 31 30 29 28 28 29 31 35 37 42 48 54 60 62 58 51 48 47 46 45 43 40 40 39 38 35 33 32 32 31 31 30 29 29 30 31 31 31 32 33 34 35 36 38 38 38 38 38 38 38 38 38 38 40 43 46 49 53 55 57 60 62 65 66 67 68 69 69 67 64 60 59 58 57 56 55 53 52 53 53 52 50 49 45 42 39 39 38 38 38 38 39 39 40 40 41 42 44 47 48 49 51 53 54 56 58 61 63 66 68 69 70 70 69 68 65 62 60 57 54 52 50 50 48 46 45 44 45 47 48 48 46 45 44 44 43 43 43 42 42 42 44 44 44 45 46 47 50 53 55 56 56 55 53 53 52 52 51 51 50 49 48 48 47 47 46 45 45 44 44 44 44 44 44 44 44 44 44 44 44 44 45 46 46 46 47 47 46 44 43 42 44 46 47 50 52 54 54 51 48 43 43 43 43 42 41 43 49 53 55 55 55 55 53 55 54 51 48 45 42 39 37 36 35 35 35 34 35 36 37 37 37 36 36 36 34 34 34 33 33 32 32 32 34 33 33 33 33 33 32 32 30 29 29 29 30 30 28 27 27 26 25 26 27 24 22 21 21 20 20 20 21 22 22 25 24 22 22 22 22 22 22 23 23 23 23 23 23 23 23 23 23 23 23 23 23 24 23 22 19 19 18 18 17 17 17 17 17 17 17 17 17 16 16 16 16 16 16 16 17 17 17 17 17 17 17 17 17 17 18 18 18 19 21 23 27 28 30 32 33 34 35 36 38 41 43 44 43 42 43 45 45 45 46 48 48 48 48 47 47 46 46 46 45 45 44 44 44 43 43 42 41 41 40 40 39 38 38 38 38 39 40 42 43 43 45 46 48 48 47 47 47 47 47 48 51 53 53 47 41 39 39 39 41 42 42 42 41 39 38 39 40 40 39 37 35 32 29 27 26 26 26 26 26 26 26 26 26 26 26 28 30 30 28 27 27 27 27 28 29 29 29 28 28 28 28 28 28 29 30 28 27 27 28 29 29 29 29 31 34 32 32 31 30 29 28 27 27 26 25 25 25 25 25 25 25 25 25 25 25 25 25 25 25 25 25 25 25 25 26 30 34 38 39 40 40 40 39 37 36 33 30 28 26 23 21 20 19 18 18 17 17 17 17 17 17 17 17 17 17 17 18 19 19 19 19 19 20 20 20 20 21 21 21 20 20 20 20 20 20 20 20 20 20 20 20 21 21 22 24 25 28 27 25 23 23 23 23 25 26 26 26 25 23 23 23 23 23 23 23 23 22 22 22 22 22 22 22 22 22 21 21 18 17 17 18 18 18 19 19 19 20 20 20
45 46 46 45 45 45 44 44 44 44 44 44 44 44 44 44 44 44 44 44 44 46 52 54 53 53 54 56 56 56 57 59 61 65 68 69 69 70 69 69 68 68 69 69 69 70 69 68 70 71 68 65 65 65 68 72 75 76 76 75 75 74 75 76 76 74 73 71 67 65 63 62 60 58 56 55 54 54 53 53 53 53 53 53 54 54 55 56 56 55 55 55 55 55 55 55 55 57 59 59 59 59 59 59 59 59 60 62 62 62 62 63 63 63 63 63 63 62 62 62 63 64 65 64 63 61 57 55 53 50 50 50 50 50 51 51 51 50 50 49 48 48 47 47 47 45 45 43 41 40 38 37 39 40 41 43 44 44 44 44 44 44 44 43 43 41 39 38 36 35 35 35 35 35 35 35 35 35 35 35 35 35 35 35 35 35 35 35 35 35 35 35 35 35 35 35 35 35 36 36 37 36 35 35 35 35 35 35 35 35 35 35 35 35 35 35 35 35 35 35 37 39 39 39 40 41 44 45 47 49 50 51 52 52 53 53 53 53 53 53 52 52 50 50 50 50 51 51 52 52 53 53 53 54 53 53 53 53 53 53 53 56 57 57 58 59 60 61 62 62 63 63 62 61 60 56 56 56 56 57 57 57 56 56 56 55 53 50 47 42 42 43 39 37 38 37 36 36 39 39 40 39 38 36 35 35 35 37 38 42 45 47 49 50 51 51 51 49 47 47 47 48 50 52 54 57 58 60 62 63 63 62 60 59 55 52 48 43 38 33 31 31 31 31 31 29 29 28 29 29 30 34 37 41 47 52 58 60 57 51 47 47 46 46 44 41 41 40 38 36 34 33 32 31 31 30 29 29 29 30 30 31 32 32 33 35 37 39 40 39 38 38 38 38 38 38 38 39 43 46 49 53 54 57 60 61 65 67 68 69 70 70 69 67 63 61 59 58 57 56 54 54 54 53 52 51 50 47 43 40 39 38 38 38 38 38 39 40 40 40 41 43 45 45 46 49 51 53 54 55 57 60 65 67 68 69 69 69 68 65 62 61 57 55 53 50 49 47 46 44 43 43 44 45 45 45 44 44 43 43 43 42 42 42 42 44 44 46 47 49 50 54 57 59 59 59 58 58 58 57 57 57 56 54 52 51 50 49 48 47 46 45 45 47 48 46 44 44 44 44 44 44 44 44 44 44 46 46 46 46 45 46 48 45 44 46 48 50 53 53 53 51 48 44 43 43 43 43 41 41 48 54 57 58 58 56 55 53 52 51 49 45 41 38 37 36 35 35 35 35 35 36 36 37 37 37 36 36 36 35 35 35 34 34 33 33 33 34 34 34 34 34 33 32 32 30 29 29 29 31 32 31 30 28 27 28 29 29 26 22 21 21 20 20 20 21 23 25 26 25 23 23 23 23 23 23 23 23 23 23 23 24 24 24 23 23 23 23 23 23 25 25 24 21 20 21 20 17 17 17 17 17 17 17 17 17 16 16 16 16 16 16 16 17 17 17 17 17 17 17 17 17 17 18 18 18 19 21 23 26 28 30 32 32 33 34 35 37 40 42 43 43 42 42 43 44 44 45 48 49 49 48 47 47 46 46 45 45 45 44 44 44 43 42 41 40 40 40 39 38 38 38 38 38 39 40 42 43 43 44 46 48 47 46 46 46 46 47 48 51 54 53 48 42 40 40 43 46 47 47 47 47 46 44 43 43 43 42 41 39 36 32 30 28 26 26 26 26 26 26 26 26 26 26 29 31 30 29 30 29 29 30 31 32 32 31 30 29 29 29 29 29 30 31 31 29 29 29 30 29 29 29 30 31 31 31 30 29 28 28 26 26 26 25 25 25 25 25 25 25 25 25 25 25 25 25 25 25 25 25 25 25 25 25 28 33 36 38 39 40 40 40 39 37 35 32 30 28 25 23 21 19 18 18 17 17 17 17 17 17 17 17 17 17 17 17 19 19 20 20 20 21 21 21 21 22 22 22 21 21 21 20 20 20 20 20 20 20 20 20 21 21 21 23 25 28 27 24 23 23 23 23 24 24 24 24 24 23 23 23 23 23 23 23 23 22 22 22 22 22 22 22 22 22 21 21 19 18 17 18 18 18 19 19 19 20 20 20
45 46 46 45 45 45 44 44 44 44 44 44 44 44 44 44 44 44 44 44 44 47 51 53 52 54 56 59 60 60 59 60 62 64 68 69 70 71 71 70 70 70 70 70 71 71 71 70 70 71 68 65 65 68 71 73 75 75 76 74 74 74 74 74 74 73 72 70 67 65 63 62 59 58 56 56 57 57 55 53 53 53 53 53 54 55 55 57 57 56 55 55 55 55 55 55 55 56 57 59 59 58 58 59 59 59 60 61 61 62 62 63 63 63 63 62 62 62 62 62 62 63 65 65 64 61 58 55 52 50 50 50 50 50 51 51 50 50 50 49 48 48 48 47 47 45 45 44 41 40 38 38 41 41 42 43 44 44 44 44 44 44 44 44 44 41 40 38 36 35 35 35 35 35 35 35 35 35 35 35 35 35 35 35 35 35 35 35 35 35 35 35 35 35 35 35 35 35 36 37 38 37 35 35 35 35 35 35 35 35 35 35 35 35 35 35 35 35 35 36 38 40 41 41 41 42 44 45 47 49 50 51 51 52 52 52 52 53 53 53 52 52 51 50 50 50 50 50 52 52 53 54 54 54 54 54 53 54 54 53 53 56 57 57 57 58 59 60 60 61 61 62 61 59 59 56 56 56 56 57 57 56 55 55 54 53 51 48 47 43 40 41 37 35 36 36 35 36 38 39 39 38 38 36 35 35 35 37 38 41 43 46 48 50 51 51 51 49 47 47 47 47 49 51 53 56 58 59 61 62 62 61 60 59 55 52 47 43 38 34 31 31 30 29 30 29 28 28 29 29 30 34 36 40 45 49 55 58 54 48 47 47 46 46 44 42 41 40 38 37 34 33 32 31 31 30 29 29 29 30 30 31 32 32 33 37 39 41 41 41 39 39 38 38 38 38 38 39 41 45 48 52 54 57 59 61 64 67 68 70 71 72 70 68 65 62 60 59 57 56 56 56 56 54 53 52 50 48 44 40 39 38 38 38 38 38 38 39 39 40 40 41 42 43 44 47 49 50 51 53 54 59 63 66 66 67 67 68 67 65 63 60 57 55 53 50 49 47 45 44 42 41 41 43 43 44 44 43 43 42 42 42 41 41 41 44 46 48 49 51 54 57 59 60 60 60 60 60 60 60 60 60 59 58 56 53 51 51 51 49 48 48 49 52 52 49 46 45 45 44 44 44 44 44 44 44 45 45 45 47 50 51 48 46 47 49 49 53 54 52 49 47 43 41 42 42 42 42 44 51 55 59 62 64 64 62 59 55 52 46 43 40 38 37 37 35 35 35 35 35 36 37 37 37 37 37 36 36 36 36 36 36 35 34 34 34 34 34 34 34 34 34 33 32 32 31 30 30 32 33 33 33 31 28 26 27 29 29 26 22 21 21 20 20 20 22 24 25 24 24 23 23 23 23 23 23 23 23 23 23 23 24 24 24 23 23 23 23 23 23 26 27 27 27 27 27 25 20 17 17 17 17 17 17 17 17 16 16 16 16 16 16 16 17 17 17 17 17 17 17 17 17 17 18 18 18 18 20 22 24 27 30 30 31 32 34 34 36 39 42 43 43 42 41 42 43 44 45 48 50 50 49 48 47 46 46 45 44 44 44 43 43 42 41 40 39 39 39 38 38 38 38 38 38 39 40 42 43 43 44 44 45 46 46 46 45 45 45 48 51 54 52 48 43 41 42 46 49 50 51 51 51 51 50 47 46 46 47 45 44 42 39 35 33 30 27 26 26 26 26 26 26 26 26 30 32 31 32 33 32 32 32 33 34 35 34 33 31 30 29 30 30 31 33 32 31 30 30 31 30 29 29 29 29 29 29 29 28 28 27 26 26 25 25 25 25 25 25 25 25 25 25 25 25 25 25 25 25 25 25 25 25 25 25 27 31 34 37 38 39 41 40 40 38 36 34 31 29 27 25 23 20 18 17 17 17 17 17 17 17 17 17 17 17 17 17 19 19 20 21 21 22 22 23 23 23 23 23 23 24 23 21 20 20 20 20 20 20 20 20 20 20 20 23 25 26 24 23 23 23 23 23 23 23 23 23 22 22 22 22 23 23 23 23 23 22 22 22 22 22 22 22 22 22 21 21 20 20 18 17 17 17 19 19 19 20 20 20
45 45 45 45 45 45 44 44 44 44 44 44 44 44 44 44 44 44 44 44 44 47 50 51 51 54 57 59 61 61 60 62 64 66 68 69 71 72 72 71 71 71 71 71 71 72 72 71 71 71 70 66 66 69 72 74 75 75 76 74 74 74 74 74 74 73 72 70 67 66 63 62 59 58 58 59 59 59 56 55 54 54 54 54 55 55 56 57 57 56 56 56 56 58 57 55 55 55 57 59 59 58 58 59 59 59 60 60 61 62 62 63 63 63 63 62 62 62 62 62 62 62 63 64 64 62 59 56 53 51 50 50 50 50 50 50 50 50 50 49 48 48 48 47 47 46 46 44 41 39 38 39 41 42 42 43 45 45 45 45 45 45 44 44 44 41 40 37 35 35 35 35 35 35 35 35 35 35 35 35 35 35 35 35 35 35 35 35 35 35 35 35 35 35 35 36 36 36 37 37 38 38 36 35 35 35 35 35 35 35 35 35 35 35 35 35 35 35 35 36 38 40 43 42 42 42 44 44 47 48 49 50 51 51 51 51 51 52 52 52 52 52 51 50 50 50 50 50 52 52 53 54 54 54 54 54 54 54 54 53 53 54 56 56 57 57 58 59 59 59 60 60 59 59 59 56 56 56 56 57 57 55 55 54 53 52 50 47 44 41 38 39 36 35 35 35 35 35 36 38 38 38 37 35 35 35 35 37 37 40 43 45 47 49 51 51 51 49 47 47 47 47 48 50 52 55 57 58 60 61 62 61 60 59 55 51 47 42 37 34 31 31 29 29 29 29 28 28 29 29 30 34 35 38 42 47 54 57 54 47 47 47 46 46 44 42 41 40 38 36 34 32 32 31 31 30 30 30 30 30 30 31 32 35 38 40 41 42 42 42 41 39 38 38 38 38 38 38 40 42 46 51 53 56 59 60 64 67 68 71 72 72 70 69 66 62 61 59 58 58 58 58 57 56 54 53 50 48 45 40 40 38 38 38 38 38 38 39 39 39 40 40 41 42 42 44 46 47 48 50 53 57 61 64 65 65 66 67 66 66 64 60 56 54 52 50 49 47 44 43 41 41 41 41 43 43 43 42 42 42 42 41 41 41 43 45 47 49 50 53 55 57 59 61 61 61 61 61 61 61 61 60 60 59 58 56 53 52 52 51 50 50 51 53 53 51 49 49 49 47 45 44 44 44 44 44 45 45 48 52 53 52 48 47 48 50 52 54 53 49 47 44 41 39 40 41 38 41 50 56 60 63 67 70 71 68 63 58 51 44 39 38 37 37 36 35 35 35 35 35 36 37 37 37 37 37 37 37 37 37 37 37 35 35 34 34 34 35 35 35 34 34 33 32 32 32 31 32 33 34 34 33 31 26 24 24 26 26 24 22 21 21 20 20 20 22 25 25 24 24 23 23 23 23 23 23 23 23 23 24 24 24 24 24 24 24 24 24 24 26 29 30 30 30 30 29 28 22 17 17 17 17 17 17 17 17 16 16 16 16 16 16 16 17 17 17 17 17 17 17 17 17 17 18 18 18 18 19 21 23 25 28 30 30 32 33 34 36 38 40 41 42 41 41 41 43 44 47 49 50 50 49 49 48 46 46 45 43 43 43 43 43 42 40 39 39 39 38 38 38 38 38 38 38 40 40 42 43 43 43 43 44 45 45 45 45 45 44 47 51 52 51 47 43 42 43 47 49 52 53 53 53 53 52 50 49 50 51 50 49 47 45 41 38 35 31 29 27 26 26 26 26 26 28 32 33 34 35 36 36 35 35 36 36 37 36 35 33 32 32 32 32 33 34 33 32 32 32 31 31 30 29 29 29 29 29 29 28 28 27 26 26 25 25 25 25 25 25 25 25 25 25 25 25 25 25 25 25 25 25 25 25 25 26 27 30 33 35 37 38 40 40 40 38 37 35 32 30 28 26 24 20 18 17 17 17 17 17 17 17 17 17 17 17 17 19 20 21 21 22 22 23 23 24 24 23 23 24 24 25 25 23 22 21 21 20 20 20 20 20 20 20 20 20 23 23 23 22 22 22 22 23 23 23 23 22 22 22 22 23 23 23 23 23 23 23 23 23 22 22 22 22 22 22 21 21 21 20 19 17 17 17 18 18 19 20 20 20
45 45 45 45 45 45 45 45 44 44 44 44 44 44 44 44 44 44 44 44 45 46 48 50 50 55 57 58 60 61 61 63 64 66 69 70 71 72 72 71 71 71 71 72 72 72 72 72 72 72 71 69 68 70 73 74 76 76 76 74 74 74 74 74 74 74 73 70 67 66 64 63 60 58 59 60 60 60 59 57 56 55 54 54 55 55 56 57 57 56 56 56 56 59 58 55 55 55 56 58 58 58 58 58 59 59 60 60 60 62 62 63 63 63 63 62 62 62 62 62 62 62 62 62 63 63 59 56 53 51 50 50 50 50 50 50 50 50 50 49 49 49 48 47 47 46 46 44 41 38 38 38 40 41 41 43 45 45 45 44 44 44 44 44 44 41 39 35 35 35 35 35 35 35 35 35 35 35 35 35 35 35 35 35 35 35 35 35 35 35 35 35 35 35 35 36 36 36 37 37 38 38 37 35 35 35 35 35 35 35 35 35 35 35 35 35 35 35 35 35 38 41 43 43 43 43 44 44 47 48 49 50 51 51 51 51 51 51 51 52 52 52 51 50 50 50 50 50 52 52 53 54 54 54 54 54 54 54 54 53 53 53 56 56 56 57 57 58 58 58 59 59 57 58 59 56 56 56 56 57 57 55 54 54 52 50 49 46 43 39 38 38 36 35 35 34 34 34 35 36 38 37 37 35 35 35 36 37 37 40 42 44 46 49 50 50 50 49 47 47 47 47 47 50 52 54 56 57 59 60 61 61 60 59 55 51 46 41 37 34 32 31 29 29 29 29 28 28 29 29 30 34 35 37 41 45 51 55 54 49 47 47 46 46 45 43 42 40 37 36 33 32 32 31 31 30 30 30 30 31 31 32 36 40 42 43 43 43 43 43 41 39 38 38 38 38 38 38 39 41 44 49 52 55 58 60 63 66 68 71 72 72 70 68 66 62 61 60 59 60 60 59 58 56 55 53 49 47 44 40 40 39 38 38 38 38 38 38 38 39 40 40 41 42 42 44 44 46 47 48 51 56 60 62 63 64 65 66 66 66 64 61 56 54 52 50 49 47 45 43 41 41 41 41 42 42 42 41 41 41 41 41 41 44 48 48 49 49 51 53 56 58 60 62 63 63 62 61 61 61 61 61 61 60 59 57 54 53 53 53 53 51 52 53 53 53 54 54 54 51 48 46 44 44 44 44 44 45 50 53 53 52 49 48 48 50 52 54 52 49 46 43 40 37 35 37 33 43 55 59 63 67 71 75 76 73 67 60 51 44 38 38 37 36 36 35 35 35 35 35 36 37 37 37 37 37 37 37 37 37 37 37 35 35 35 35 35 35 35 35 34 34 33 33 33 32 31 32 33 34 34 32 30 24 23 23 24 24 23 22 22 24 20 20 20 21 25 25 24 24 24 24 24 23 23 23 23 23 23 24 24 24 25 25 24 24 24 24 25 30 32 31 32 31 31 30 28 24 18 17 17 17 17 17 17 17 17 16 16 16 16 16 17 17 17 17 17 17 17 17 17 17 17 18 18 18 18 19 21 23 24 27 29 30 32 33 33 36 37 38 39 40 41 42 42 42 45 47 50 50 50 49 49 48 46 45 44 43 42 42 42 42 42 40 39 38 38 37 37 37 37 37 37 38 40 40 41 42 42 43 43 43 44 44 45 44 44 44 47 51 50 49 46 43 43 44 47 49 52 54 54 54 54 53 51 51 54 56 57 57 54 51 47 42 40 38 34 30 27 26 26 26 26 30 33 35 38 39 40 40 39 39 38 38 39 39 37 36 35 34 33 33 34 35 36 35 35 34 32 31 30 29 29 29 29 29 29 28 28 27 26 26 25 25 25 25 25 25 25 25 25 25 25 25 25 25 25 25 25 25 25 25 26 26 27 30 32 34 36 37 39 40 40 38 37 35 32 30 28 26 24 20 17 17 17 17 17 17 17 17 17 17 17 17 17 20 21 21 22 23 23 24 24 24 24 24 24 25 25 26 26 24 23 22 22 21 21 20 20 20 21 21 20 20 21 22 22 22 22 22 22 22 23 23 23 22 22 22 23 25 25 25 26 26 25 24 23 23 23 23 23 22 22 22 22 22 21 20 20 17 17 17 18 18 18 20 20 20
45 45 45 45 45 45 44 44 45 44 44 44 44 44 44 44 44 44 44 44 46 47 48 50 54 56 58 58 60 61 62 63 64 66 70 71 71 72 72 72 72 72 72 72 73 73 73 73 73 73 73 71 71 71 73 74 76 76 76 74 74 74 75 75 75 74 73 71 69 67 66 64 60 59 60 62 62 62 61 60 58 56 55 55 55 55 56 57 57 56 56 56 57 58 58 56 56 56 56 57 57 57 57 58 59 59 59 59 60 61 62 62 63 63 63 62 62 62 62 62 61 61 61 61 62 62 59 56 53 52 51 50 50 50 50 50 50 49 49 49 48 48 48 47 47 46 45 42 40 38 38 37 38 39 40 43 44 45 45 43 43 43 42 42 43 41 36 35 35 35 35 35 35 35 35 35 35 35 35 35 35 35 35 35 35 35 35 35 35 35 35 35 35 35 35 36 36 36 37 37 38 38 37 35 35 35 35 35 35 35 35 35 35 35 35 35 35 35 35 35 37 40 42 42 42 42 44 44 47 48 48 49 50 50 50 50 50 51 51 51 51 51 51 50 50 50 50 50 52 52 53 54 54 54 54 54 54 54 54 53 53 53 55 55 56 56 57 57 57 56 57 56 55 57 57 56 55 55 56 56 56 55 54 54 51 49 48 45 43 39 37 37 36 35 35 34 34 34 34 35 37 37 36 35 35 35 35 36 37 39 41 43 46 48 50 50 50 48 47 47 47 47 47 49 51 53 55 57 58 59 60 60 59 58 55 51 46 40 36 34 32 31 29 29 29 29 28 28 29 29 30 33 35 37 39 43 47 51 53 51 49 47 46 46 45 43 42 40 37 35 32 32 32 31 31 30 30 30 30 31 32 37 42 44 44 45 44 43 43 43 41 40 38 38 38 38 38 38 39 40 43 46 51 54 57 59 62 65 68 71 72 72 70 68 66 63 61 60 61 62 62 60 59 56 55 53 49 46 44 40 40 39 38 38 38 38 38 38 38 39 40 40 41 43 43 44 44 45 45 46 49 52 57 60 61 62 63 63 64 64 64 60 56 54 52 50 49 48 46 43 41 41 41 41 41 41 41 41 41 41 41 41 43 48 50 51 51 51 51 54 56 58 61 62 64 65 64 63 62 62 62 62 62 61 60 58 55 55 55 56 54 53 52 52 53 55 57 57 56 54 52 48 45 44 44 44 44 46 51 53 53 50 49 49 49 50 51 52 51 50 46 42 38 35 35 38 45 51 56 62 66 71 75 78 79 75 71 64 53 45 40 38 37 36 36 35 35 35 35 35 36 37 37 37 37 37 37 37 37 36 36 35 35 35 35 35 35 35 35 35 34 34 34 33 33 31 30 31 33 34 34 32 30 24 23 23 23 23 23 22 22 22 20 20 22 23 24 25 24 24 24 24 24 23 23 23 23 23 23 24 24 24 25 25 25 25 25 25 27 31 33 32 32 31 31 30 29 26 20 17 17 17 17 17 17 17 17 16 16 16 16 16 17 17 17 17 17 17 17 17 17 17 17 18 18 18 18 19 21 23 24 26 29 30 32 33 33 36 37 37 38 39 43 44 43 43 44 47 50 49 49 48 47 47 46 45 44 43 42 41 41 42 42 41 39 37 37 37 36 36 36 37 38 39 40 40 41 41 41 43 43 43 43 43 43 43 43 43 46 48 48 47 45 44 45 45 48 50 52 54 54 55 54 54 53 54 57 61 62 62 60 57 53 49 47 45 43 37 32 28 26 26 26 32 35 41 45 46 46 46 45 44 42 41 42 42 42 40 38 36 35 35 36 37 39 39 40 38 34 31 30 29 29 29 29 29 28 28 28 27 26 26 25 25 25 25 25 25 25 25 25 25 25 25 25 25 25 25 25 25 25 26 26 27 28 30 31 34 36 37 39 40 40 38 37 35 32 30 28 25 23 19 17 17 17 17 17 17 17 17 17 17 17 17 18 20 22 22 23 24 24 25 25 25 25 25 25 26 26 26 26 25 26 24 22 21 21 20 20 20 22 22 21 20 20 20 21 21 22 22 22 22 22 22 22 22 22 23 23 26 28 28 29 29 29 27 23 23 23 24 23 22 22 22 21 21 21 20 20 17 17 17 18 18 18 20 20 20
45 45 45 45 45 45 44 44 44 44 44 44 44 44 44 44 44 44 44 44 47 48 49 53 56 57 58 59 61 62 63 64 64 66 70 71 72 73 73 73 73 73 73 73 73 74 74 74 74 74 74 73 72 72 73 74 75 75 76 75 75 75 75 76 75 74 73 71 70 69 68 66 62 60 61 63 63 63 62 62 60 58 56 56 55 55 55 56 56 56 56 56 57 57 57 56 56 56 56 56 57 57 57 58 58 58 59 59 59 61 61 62 63 63 63 63 63 62 62 62 61 61 60 61 61 62 59 57 54 52 52 50 50 50 50 50 50 49 49 49 48 48 48 47 47 44 43 41 39 38 37 36 36 37 38 40 42 43 43 43 42 42 41 40 39 37 35 35 35 35 35 35 35 35 35 35 35 35 35 35 35 35 35 35 35 35 35 35 35 35 35 35 35 35 35 36 36 36 38 38 38 37 36 35 35 35 35 35 35 35 35 35 35 35 35 35 35 35 35 35 37 39 40 42 42 42 43 44 46 48 48 49 50 50 50 50 50 50 50 50 51 51 51 51 51 50 50 50 52 52 53 54 54 55 55 55 54 54 54 54 54 54 55 55 56 56 56 56 56 55 55 54 54 56 56 55 54 54 56 56 56 54 53 53 50 48 47 45 43 40 37 37 35 35 35 34 34 34 34 34 35 36 36 35 35 35 35 35 36 37 40 42 45 48 49 50 50 49 48 47 47 47 47 47 49 51 53 55 57 59 59 60 59 58 54 49 45 40 35 33 31 30 29 28 28 28 28 28 29 29 30 30 32 35 37 41 45 48 50 51 50 48 46 46 46 44 42 40 37 34 32 32 32 31 31 31 31 31 31 33 37 41 44 45 45 45 45 44 44 43 41 40 39 38 38 38 38 38 39 39 41 45 50 52 56 58 61 64 67 70 72 72 70 68 67 65 63 61 62 63 62 61 59 56 54 52 48 45 43 41 40 39 38 38 38 38 38 38 38 39 40 42 44 45 45 44 44 44 45 46 47 50 54 57 59 61 61 61 62 63 62 60 56 55 53 51 50 49 46 43 41 41 41 41 41 41 41 41 41 41 41 42 47 51 52 53 53 53 54 56 57 59 62 63 64 65 65 64 63 62 62 62 62 62 60 58 56 56 56 56 55 54 53 53 53 56 57 58 56 55 53 49 46 44 44 44 44 46 51 52 51 49 49 49 51 50 50 51 52 50 44 40 36 35 36 42 48 52 58 63 67 72 76 79 79 76 72 65 54 46 41 38 37 36 36 35 35 35 35 35 37 37 37 37 37 37 37 37 37 36 36 35 35 35 35 35 35 36 36 36 35 35 34 33 33 31 29 30 33 34 34 32 29 25 23 23 23 23 23 22 22 22 21 21 23 25 25 25 25 25 25 25 25 24 24 24 23 23 23 24 24 24 25 25 25 25 25 26 28 31 33 33 30 30 30 29 29 27 21 17 17 17 17 17 17 17 17 17 17 16 16 16 17 17 17 17 17 17 17 17 17 17 17 18 18 18 18 19 21 24 25 26 29 29 32 33 33 36 37 37 38 38 41 44 44 43 44 46 47 48 47 47 46 46 45 45 44 42 42 41 41 41 42 41 40 37 37 36 35 35 36 37 38 40 40 40 41 41 41 42 42 43 42 42 42 43 43 42 43 46 47 46 45 45 45 47 50 51 53 54 54 55 55 55 54 56 59 63 64 64 64 62 59 55 52 49 47 44 37 31 26 26 29 34 39 47 51 52 53 53 51 49 47 46 45 45 45 43 41 39 38 37 38 40 41 43 44 41 37 33 30 29 29 29 29 29 28 28 28 27 26 26 25 25 25 25 25 25 25 25 25 25 25 25 25 25 25 26 26 26 26 26 27 27 28 30 31 33 35 36 38 39 39 38 37 35 31 30 27 25 23 19 17 17 17 17 17 17 17 17 17 17 17 17 18 21 22 22 24 24 25 25 25 26 26 26 26 27 27 27 27 28 27 25 23 25 23 20 20 20 22 24 23 20 20 20 21 21 21 22 22 22 22 22 22 22 23 24 25 26 29 29 30 30 30 29 26 24 24 26 25 23 23 21 20 20 20 20 19 18 18 18 18 18 18 20 20 20
45 45 45 45 45 45 44 44 44 44 44 44 44 44 44 44 44 44 44 44 47 49 52 55 57 58 59 61 63 64 65 65 65 66 70 71 72 73 73 74 74 74 74 74 74 74 74 75 76 75 75 74 74 74 74 74 75 75 76 75 75 76 76 77 76 75 74 72 70 70 69 67 64 63 63 64 65 65 64 63 62 59 57 56 55 55 55 56 56 56 56 56 56 57 57 56 56 56 56 56 56 57 57 58 58 58 59 59 59 61 61 62 63 63 63 63 63 62 62 62 60 60 60 60 61 61 59 57 54 53 52 51 50 50 50 50 50 49 49 49 48 48 48 47 45 43 42 40 38 38 37 35 35 35 36 38 39 40 40 40 40 40 39 37 35 35 35 35 35 35 35 35 35 35 35 35 35 35 35 35 35 35 35 35 35 35 35 35 35 35 35 35 35 35 35 36 36 36 38 38 38 37 36 35 35 35 35 35 35 35 35 35 35 35 35 35 35 35 35 35 36 38 39 40 41 42 42 43 46 47 47 48 49 48 49 49 49 49 50 50 50 50 50 51 51 50 50 50 52 52 53 54 55 55 55 55 55 54 54 54 54 54 55 55 55 55 55 55 55 53 53 53 53 55 56 54 53 54 55 55 55 54 53 52 49 47 46 44 44 41 37 37 36 35 35 34 34 34 34 34 34 35 35 35 34 34 35 35 35 37 39 41 44 47 48 49 49 49 48 48 47 47 47 47 48 50 53 54 56 58 59 59 59 56 52 47 41 36 33 32 31 30 28 28 28 28 28 28 29 29 30 30 31 34 37 40 43 46 48 49 50 49 47 46 46 44 42 40 36 34 32 32 32 31 31 31 31 31 32 38 42 44 45 45 46 45 45 44 44 43 42 41 40 38 38 38 38 38 39 39 40 43 48 50 53 57 60 63 66 69 71 71 70 69 67 65 64 63 63 63 62 61 59 56 53 50 47 45 44 43 41 40 39 39 39 39 41 40 39 39 40 44 47 48 46 45 45 45 45 46 46 48 51 54 56 58 59 60 61 61 61 60 57 56 54 52 51 50 46 43 41 41 41 41 41 41 41 41 41 41 42 48 52 54 54 55 56 56 57 58 59 60 62 65 65 66 65 65 64 64 63 63 63 62 60 58 57 56 56 56 55 54 53 53 54 57 57 58 56 55 53 49 46 44 44 44 44 46 48 49 48 48 49 49 52 52 50 49 49 47 41 37 35 35 38 44 49 54 59 64 67 72 76 78 76 73 69 63 53 46 42 39 37 36 36 35 35 35 35 35 37 37 37 37 36 36 36 36 36 36 35 35 35 35 35 36 36 36 36 36 34 34 33 32 32 31 29 30 32 33 33 31 29 27 26 26 24 23 24 24 23 22 22 22 23 25 25 25 25 25 25 25 25 24 24 24 24 24 24 24 24 24 25 25 25 26 26 26 27 30 30 29 28 28 28 26 25 25 20 17 17 17 17 17 17 17 17 17 17 16 16 16 17 17 17 17 17 17 17 17 17 17 17 18 18 18 18 20 23 24 25 27 29 29 31 33 33 36 37 37 38 38 39 42 43 43 43 43 45 45 45 45 45 45 45 45 44 42 42 41 40 40 40 40 40 37 36 35 35 36 38 38 39 40 40 40 41 41 41 42 42 42 42 42 41 41 42 41 42 43 44 45 45 46 47 48 51 51 53 54 54 55 55 55 55 56 61 64 66 66 65 63 60 57 55 52 52 49 41 34 28 27 31 36 43 50 53 54 56 57 56 54 53 52 50 48 48 47 45 43 42 41 41 43 45 46 47 45 40 36 33 31 29 29 29 29 28 28 28 27 26 26 25 25 25 25 25 25 25 25 25 25 25 25 25 25 26 27 27 27 27 27 28 29 29 30 31 33 34 35 37 38 39 39 38 35 31 29 27 24 23 19 17 17 17 17 17 17 17 17 17 17 17 17 18 21 22 22 24 24 25 26 26 26 27 27 27 28 27 27 28 29 27 25 24 27 26 20 20 20 23 26 24 21 20 20 20 20 21 21 21 21 21 21 22 23 23 25 25 26 27 28 29 30 30 29 26 25 26 26 26 24 23 21 20 20 20 19 19 18 18 18 18 18 18 19 19 20
45 44 44 44 45 45 44 44 44 44 44 44 44 44 44 44 44 44 44 44 48 50 54 56 57 58 60 62 64 65 65 66 66 67 69 71 72 73 73 75 75 75 75 75 75 75 75 75 76 76 75 75 75 75 75 76 76 76 76 76 76 76 77 77 77 76 74 72 71 71 69 67 65 65 65 66 67 66 65 64 63 60 58 57 55 55 55 56 56 56 56 56 56 57 57 56 56 56 56 56 56 57 57 58 58 58 59 59 59 61 61 62 63 63 63 63 63 63 62 62 61 60 59 59 59 60 59 57 55 53 53 51 50 50 50 50 49 49 49 49 48 48 48 47 45 43 42 40 38 38 37 36 36 35 35 35 36 37 37 37 37 37 36 35 35 35 35 35 35 35 35 35 35 35 35 35 35 35 35 35 35 35 35 35 35 35 35 35 35 35 35 35 35 35 35 36 36 36 38 38 37 36 36 35 35 35 35 35 35 35 35 35 35 35 35 35 35 35 35 35 36 38 38 40 40 41 41 43 45 47 47 48 48 48 48 48 48 49 49 49 50 50 50 50 50 51 51 51 52 52 53 55 55 56 55 55 55 55 55 55 55 55 55 55 55 55 55 54 54 53 52 52 52 53 54 53 53 53 54 55 55 54 53 52 49 47 45 43 43 41 38 37 37 38 38 37 35 34 34 34 34 35 35 35 34 34 34 34 34 36 37 40 43 45 47 48 49 49 49 49 49 48 47 47 47 50 53 54 55 57 58 58 57 53 48 44 38 34 32 31 30 29 28 28 28 28 28 29 29 29 30 30 31 34 37 39 41 44 46 47 48 49 47 47 46 44 43 40 36 34 32 32 32 32 32 32 32 32 35 41 44 45 46 46 46 46 46 44 44 43 42 42 40 38 38 38 38 38 39 39 39 42 46 48 51 55 59 62 64 67 69 70 69 68 66 65 65 64 64 64 62 61 59 55 52 49 46 45 45 45 44 42 42 42 41 40 41 42 42 41 41 44 48 49 48 47 46 45 45 46 46 46 49 52 54 55 57 58 59 60 60 59 57 55 54 52 50 49 46 43 41 41 41 41 41 41 41 41 41 41 46 51 55 55 56 57 59 61 61 61 61 62 64 66 66 66 66 66 65 64 64 63 63 62 60 59 59 58 57 56 55 55 54 54 54 56 57 57 56 54 51 48 45 44 44 44 45 46 47 47 47 47 48 49 52 52 50 48 45 42 38 35 35 38 42 46 51 55 59 64 67 72 75 76 74 70 64 58 52 47 44 41 38 36 36 35 35 35 35 35 37 37 37 37 36 36 35 35 35 35 35 35 35 35 36 37 37 36 35 35 34 33 33 32 31 31 29 30 30 33 33 32 31 31 31 30 29 29 31 31 30 26 24 22 23 25 25 25 25 25 26 26 26 25 24 24 24 24 24 24 25 25 26 26 26 26 26 26 26 27 27 27 27 27 26 24 21 20 19 17 17 17 17 17 17 17 17 17 17 17 17 17 17 17 17 17 17 17 17 17 17 17 17 18 18 18 19 23 24 25 26 27 29 29 30 32 33 36 37 37 37 37 38 39 41 42 42 42 42 43 42 42 43 44 45 45 44 42 42 41 40 39 39 39 38 36 35 35 35 36 38 39 39 40 40 40 41 41 41 41 41 42 42 42 41 41 41 41 41 42 43 44 45 47 47 48 50 51 51 53 54 54 55 55 56 56 61 65 66 66 65 63 60 57 56 56 55 51 44 36 30 29 33 38 45 50 53 55 57 58 59 58 57 55 54 52 50 50 50 48 46 45 45 47 48 49 50 47 44 39 35 32 30 30 29 29 28 28 28 28 27 27 26 25 25 25 25 25 25 25 25 25 25 25 25 25 26 28 28 28 28 28 29 29 30 31 31 33 34 34 36 38 39 39 38 35 31 29 27 24 23 19 17 17 17 17 17 17 17 17 17 17 17 17 18 20 21 22 23 24 25 27 27 27 27 27 28 28 28 27 27 27 26 25 25 27 26 21 20 20 25 27 25 21 20 20 20 20 21 21 21 21 21 21 22 23 23 25 25 26 26 27 29 30 29 27 26 26 27 26 26 24 23 22 22 22 21 19 19 18 18 18 18 18 18 19 19 21
45 44 44 44 44 44 45 45 45 45 45 45 44 44 44 44 44 44 44 44 48 51 55 57 57 58 61 63 65 65 65 66 66 67 68 70 71 73 73 74 75 75 75 75 75 75 75 76 76 76 75 75 75 76 76 77 77 77 77 77 77 77 77 78 78 77 76 73 71 71 69 68 67 67 67 67 68 67 66 64 63 60 58 56 55 55 55 56 56 56 56 56 56 57 57 56 56 56 56 56 56 57 57 58 58 58 59 59 59 61 62 62 63 63 63 63 63 62 62 62 62 61 59 59 59 59 59 58 55 54 53 51 50 50 50 50 49 49 49 49 48 48 47 47 46 43 42 39 38 38 37 37 38 35 35 35 35 35 35 35 35 35 35 35 35 35 35 35 35 35 35 35 35 35 35 35 35 35 35 35 35 35 35 35 35 35 35 35 35 35 35 35 35 35 35 35 36 36 37 37 37 36 36 35 35 35 35 35 35 35 35 35 35 35 35 35 35 35 35 35 37 38 38 39 40 40 41 42 45 46 47 47 47 47 47 47 47 48 48 49 49 49 50 50 50 51 51 51 52 52 53 56 56 56 56 56 55 55 55 55 55 55 55 55 55 54 54 54 53 53 51 51 50 51 52 52 52 52 53 55 55 53 53 52 49 47 45 43 42 41 38 38 38 40 41 39 36 35 34 34 34 34 34 34 34 34 34 34 34 35 37 39 42 44 46 47 48 49 50 50 50 48 48 47 47 49 53 53 54 56 57 57 55 51 44 39 35 33 32 30 29 28 28 28 28 28 29 29 29 29 30 30 30 33 36 38 40 43 44 46 47 48 47 46 45 44 44 42 38 35 32 32 32 32 32 32 32 33 38 43 45 46 46 46 46 45 45 44 44 43 42 42 41 39 38 38 38 38 38 38 39 40 43 47 50 53 57 60 62 65 67 68 68 67 66 65 65 64 64 64 62 60 58 55 51 48 46 47 47 47 46 44 44 44 43 42 42 43 43 43 42 45 50 51 49 48 47 46 46 46 46 46 47 49 51 53 54 55 56 57 58 57 56 55 53 51 50 49 47 45 41 41 41 41 41 41 41 41 41 43 47 51 56 57 57 58 61 63 64 64 64 64 64 66 66 67 67 67 67 65 65 63 62 62 61 61 61 60 59 58 56 56 55 54 54 55 55 54 53 51 49 47 45 44 44 44 45 45 46 47 47 47 48 49 52 52 50 47 43 38 36 35 37 40 44 49 53 56 60 64 67 70 73 73 70 65 59 55 52 48 46 43 40 36 36 35 35 35 35 35 36 36 36 35 35 35 35 35 35 35 35 35 35 35 36 37 37 36 35 34 33 33 32 31 31 31 30 30 30 32 33 33 32 32 33 32 32 32 33 33 32 32 30 25 24 25 25 25 25 25 26 26 26 26 26 25 25 25 25 25 25 26 26 26 26 26 26 26 26 26 26 26 26 25 25 22 20 19 18 17 17 17 17 17 17 17 17 17 17 17 16 16 16 17 17 17 17 17 17 17 17 17 17 18 18 18 21 24 25 26 27 27 28 28 29 31 33 35 36 36 36 37 37 39 40 42 42 42 41 41 41 41 43 45 45 45 44 42 42 42 40 39 38 36 36 35 34 33 34 36 38 39 39 40 40 40 40 41 41 41 41 41 41 41 41 41 41 41 41 41 43 43 45 47 47 48 49 50 50 51 51 52 53 54 55 56 59 63 65 65 64 63 59 58 57 57 55 51 44 37 31 32 35 39 45 49 51 53 57 59 59 60 58 57 56 55 54 52 52 50 49 49 49 49 50 51 52 50 47 43 39 35 32 30 29 29 29 30 31 29 27 27 26 25 25 25 25 25 25 25 25 25 25 25 25 25 27 28 29 29 29 29 29 29 30 31 31 33 34 34 36 37 38 39 38 35 32 29 27 25 23 19 17 17 17 17 17 17 17 17 17 17 17 17 17 19 20 21 23 23 25 26 27 27 28 28 29 28 28 26 26 26 27 29 29 28 26 21 19 20 26 27 24 21 22 20 19 20 20 20 20 21 21 21 22 23 23 24 24 25 26 26 28 28 28 28 27 27 27 26 26 24 23 24 25 25 23 20 19 18 17 17 17 17 18 19 19 21
44 44 44 44 44 44 46 46 46 46 46 45 44 44 44 44 44 44 44 46 49 54 56 57 57 58 62 63 66 66 66 67 67 67 68 69 71 72 73 74 75 75 76 76 76 76 76 76 76 76 76 76 76 77 77 77 78 78 78 78 78 77 77 77 78 77 77 73 71 71 68 68 68 68 68 68 68 68 66 64 63 60 58 56 55 55 55 56 56 56 56 56 57 57 57 56 56 56 56 56 56 57 57 58 58 58 59 59 59 60 62 62 63 63 63 63 63 62 62 62 62 62 59 59 59 59 58 57 55 54 53 52 50 50 50 50 49 48 48 48 48 48 47 46 44 42 42 39 38 38 38 38 38 35 35 35 35 35 35 35 35 35 35 35 35 35 35 35 35 35 35 35 35 35 35 35 35 35 35 35 35 35 35 35 35 35 35 35 35 35 35 35 35 35 35 35 35 36 37 37 36 36 36 35 35 35 35 35 35 35 35 35 35 35 35 35 35 35 35 35 37 38 38 39 39 40 41 42 45 46 46 47 46 46 46 46 47 48 48 48 49 49 49 50 50 50 50 50 52 52 53 55 56 56 56 56 55 55 55 55 55 55 55 55 55 54 54 54 53 52 50 50 49 50 51 51 52 52 53 55 55 53 53 52 49 48 46 43 41 40 38 38 40 43 42 41 37 35 34 34 34 34 34 34 34 34 34 34 34 35 36 38 41 43 45 47 47 48 49 49 50 49 49 48 48 49 51 52 54 55 56 55 52 47 40 35 34 32 31 30 28 28 28 28 28 29 30 30 29 29 30 30 30 32 35 37 40 41 43 45 47 47 46 45 45 45 45 43 40 37 35 34 33 33 33 32 32 35 42 44 45 46 46 46 46 45 45 44 44 43 42 42 41 39 39 38 38 38 38 38 38 39 42 45 48 52 56 59 61 63 66 67 67 66 65 65 65 64 64 64 62 59 56 55 51 48 47 48 48 48 48 46 45 45 44 43 43 44 45 46 46 48 52 52 50 49 48 47 46 46 46 46 46 47 49 50 52 53 54 56 57 56 55 53 52 51 50 49 47 45 41 41 41 41 41 41 41 41 41 44 47 51 55 57 58 59 61 64 67 68 68 67 66 67 67 68 68 68 68 66 65 63 62 62 62 62 62 62 61 59 58 57 56 55 54 53 52 50 49 48 47 45 44 44 44 44 45 45 46 47 47 47 49 51 52 51 50 44 40 36 36 37 40 43 46 50 54 57 60 63 66 70 72 69 65 60 56 53 52 49 48 46 41 36 35 36 36 36 35 35 36 35 35 35 35 35 35 35 35 35 35 35 35 35 36 37 37 36 35 33 32 32 32 31 31 31 30 30 30 30 32 33 33 33 33 33 33 33 33 33 33 33 32 27 25 25 26 26 26 26 26 27 27 27 27 28 27 26 26 26 26 26 27 27 27 27 27 26 26 26 26 26 25 24 24 22 20 19 17 17 17 17 17 17 17 17 17 16 16 16 16 16 16 17 17 17 17 17 17 17 17 17 17 18 18 18 22 25 25 26 27 28 28 28 29 31 33 34 36 36 36 36 37 39 39 41 42 42 41 41 41 44 45 45 45 44 43 41 41 41 40 39 37 35 35 34 34 32 32 35 37 38 38 39 39 39 40 40 40 41 41 41 41 41 41 41 41 41 41 41 43 45 46 47 47 48 49 49 50 50 50 51 52 53 55 55 56 60 62 63 62 60 59 58 58 57 55 50 44 38 33 34 35 38 42 46 49 52 55 57 59 60 59 58 57 56 55 54 53 53 53 53 52 52 52 53 53 52 49 45 41 37 33 30 29 29 29 31 32 30 28 27 26 25 25 25 25 25 25 25 25 25 25 25 26 27 28 29 29 30 30 30 30 30 30 31 31 33 33 34 36 37 38 39 38 35 32 30 28 25 23 19 17 17 17 17 17 17 17 17 17 17 17 17 17 19 20 21 23 23 24 26 26 27 28 28 29 28 28 28 28 28 30 32 32 32 29 23 19 20 26 26 24 26 26 20 19 19 20 20 20 20 21 21 22 23 23 24 24 25 26 27 26 26 27 29 29 28 26 26 26 25 26 27 26 26 24 22 20 18 17 17 17 17 18 19 19 21
