ncols         746
nrows         32
xllcorner     -72.0662666667
yllcorner     42.75865
cellsize      1.0E-5
NODATA_value  -9999
354 355 356 360 363 364 364 362 365 368 371 374 378 382 384 381 372 365 361 361 360 358 355 352 349 347 346 346 346 345 346 345 344 343 341 339 336 332 325 317 317 317 317 318 318 320 320 320 319 317 311 308 307 310 311 310 310 315 318 321 323 324 324 325 325 325 325 326 326 327 328 328 329 332 335 335 333 330 325 326 326 326 325 324 324 323 321 317 310 303 298 293 293 293 293 292 292 292 292 291 291 291 291 291 291 291 291 291 291 291 291 291 292 293 295 295 300 304 308 312 310 307 307 309 310 311 312 309 306 304 303 303 302 301 301 301 300 299 297 297 297 297 298 298 298 298 298 299 300 300 300 300 300 299 299 296 290 288 290 295 300 301 302 300 297 294 291 287 285 285 285 284 284 283 282 282 282 281 280 280 279 277 277 277 277 278 279 280 278 277 277 276 275 274 273 269 267 265 263 261 259 258 257 255 253 252 251 249 248 247 245 245 244 243 241 237 234 231 229 228 226 226 225 224 221 219 218 218 218 217 217 218 218 218 217 216 215 214 213 212 211 211 210 209 209 209 209 209 209 209 210 210 209 208 208 208 208 210 211 211 209 209 209 209 209 209 209 209 208 208 208 209 209 210 210 210 210 210 210 210 210 209 209 209 208 207 207 207 206 207 207 209 209 209 210 211 211 218 224 230 233 238 242 244 246 247 244 240 237 235 233 232 231 230 226 220 218 216 215 216 216 216 217 218 220 222 225 227 229 231 232 232 234 234 235 235 235 235 236 236 237 239 240 242 243 244 245 246 247 248 249 250 250 251 251 251 252 252 252 253 253 253 253 253 253 252 252 252 252 251 251 250 250 251 251 251 251 251 251 252 252 252 253 253 253 253 253 254 254 254 254 254 254 254 252 251 251 251 250 250 249 248 248 248 247 246 246 246 245 245 245 244 244 244 244 244 244 244 245 244 244 244 245 244 244 246 246 246 245 244 244 244 244 244 244 244 244 244 244 244 244 244 244 244 244 244 244 244 244 245 246 246 247 248 249 249 250 250 251 251 252 253 255 257 258 258 260 261 261 261 260 258 256 253 249 246 246 246 246 246 246 246 246 246 248 249 250 252 252 252 251 249 249 249 249 249 249 249 248 248 249 249 250 250 253 253 251 250 250 250 250 250 250 250 250 250 250 251 253 256 259 262 264 267 268 268 267 267 266 264 264 262 261 261 261 261 261 262 264 266 268 268 267 267 266 262 261 261 264 271 275 279 281 283 283 284 284 285 285 285 284 282 281 280 280 280 280 282 284 287 291 295 299 302 304 306 308 310 312 312 313 314 313 313 311 310 309 308 307 306 304 303 302 300 299 298 298 298 299 300 300 302 303 303 303 304 305 308 311 312 312 312 311 308 303 297 292 287 282 279 279 281 285 285 283 279 277 275 274 274 275 276 278 279 282 286 288 291 296 302 309 314 319 323 327 332 337 342 347 352 356 360 361 361 361 360 359 357 356 354 355 357 359 360 360 361 365 369 373 378 382 388 392 391 388 381 374 366 359 352 347 348 353 357 358 358 357 355 353 352 349 347 343 339 333 328 323 319 316 312 309 306 304 303 300 299 298 298 298 298 298 299 302 304 305 306 306 307 307 307 306 304 301 298 294 287 278 270 262 255 249 249 249 249 249 249 250 252 254 257 260 263 266 271 276 279
350 350 351 356 359 360 360 358 361 363 366 369 372 376 378 379 372 367 365 363 361 360 357 353 351 348 346 346 346 344 344 343 342 340 337 335 333 330 324 317 317 317 320 321 321 322 322 320 319 317 312 308 305 306 308 309 309 312 315 317 319 320 321 322 323 323 323 323 324 325 325 324 326 329 332 333 332 330 328 328 327 326 325 325 324 323 321 316 309 303 297 293 293 293 293 292 292 292 292 292 292 291 291 291 290 291 291 291 291 291 291 291 293 294 298 298 299 304 309 313 314 310 309 310 310 311 312 309 306 304 303 302 301 301 301 301 300 299 296 296 297 297 297 298 298 298 298 299 299 300 300 299 299 298 294 290 287 291 297 301 303 304 304 303 299 295 291 287 285 285 285 284 284 284 283 282 282 281 280 280 279 278 277 277 277 277 279 279 278 278 277 275 275 274 272 270 268 266 264 262 261 259 257 256 254 253 252 251 250 249 248 248 246 243 241 238 236 233 231 230 227 225 224 222 222 220 219 219 218 217 217 217 217 216 216 216 215 213 213 212 211 211 211 210 209 209 209 209 209 210 210 210 210 209 209 209 209 210 210 210 211 209 209 209 209 209 209 208 208 208 208 209 210 211 211 211 211 211 211 211 211 211 210 210 209 207 207 207 206 206 207 208 209 209 210 211 211 218 225 231 233 238 242 244 245 245 242 240 237 234 231 230 229 227 224 219 218 218 216 215 215 216 217 218 219 222 225 227 229 232 233 233 234 235 235 236 236 236 236 237 238 239 241 243 244 244 246 247 247 248 250 250 251 251 251 251 252 252 252 253 253 253 253 254 254 254 253 251 251 251 251 250 250 250 249 249 249 250 251 251 251 251 251 252 252 253 253 253 253 253 254 253 253 253 252 251 251 251 250 250 249 248 248 248 247 246 246 245 245 244 244 244 244 244 244 244 244 244 244 244 244 244 244 244 244 244 245 245 246 244 244 244 244 244 244 244 243 243 243 243 243 243 243 244 244 243 244 244 244 246 246 246 247 249 249 249 251 251 251 252 253 253 255 257 258 258 260 262 262 263 261 259 257 254 251 249 246 246 246 246 246 246 246 247 249 250 250 252 252 252 251 249 249 249 249 249 249 249 249 249 249 248 250 253 256 255 253 250 250 250 250 250 250 250 250 250 250 250 250 253 258 261 263 265 266 266 266 266 267 265 264 262 261 261 261 261 262 262 264 267 268 268 267 266 264 262 262 262 263 268 273 278 280 281 282 282 282 282 282 282 281 280 280 280 280 280 282 285 287 290 295 299 303 307 309 311 313 315 316 316 317 318 318 318 317 316 315 313 313 311 310 308 306 304 303 301 300 300 300 300 301 302 303 303 304 304 307 312 314 315 315 315 314 310 305 299 293 287 283 280 280 282 285 285 284 281 278 276 276 275 276 277 279 281 285 289 292 295 299 304 310 316 321 326 330 336 341 346 352 357 362 366 369 369 369 368 367 365 364 362 362 364 366 367 367 368 370 374 379 383 388 393 397 398 394 388 380 372 364 357 351 350 353 355 357 357 356 354 353 351 348 346 343 339 334 329 324 319 314 311 310 308 306 304 302 301 301 301 302 302 302 303 304 306 307 308 309 309 309 309 309 308 306 302 298 292 284 276 267 260 253 249 249 249 249 249 251 254 256 259 262 265 268 272 277 279
348 347 347 350 352 354 354 354 357 359 361 364 367 370 373 375 373 370 368 365 363 360 357 353 352 349 348 347 346 344 343 343 342 340 335 333 331 328 323 318 319 319 323 325 325 323 322 320 319 317 313 310 304 301 305 307 306 307 311 313 315 316 318 319 320 320 320 320 321 321 321 320 323 327 329 330 330 329 327 327 326 326 325 325 324 323 319 312 306 300 296 293 292 292 292 292 292 292 291 291 291 291 291 291 290 290 290 290 291 291 291 291 293 294 299 300 299 303 308 314 316 313 310 310 310 311 311 308 305 303 302 301 300 300 300 301 300 299 296 296 297 297 297 297 297 297 297 298 299 299 299 299 298 295 289 288 290 297 302 304 306 307 307 305 302 298 292 288 286 285 285 284 284 284 283 282 282 281 280 280 278 278 278 278 277 277 278 279 278 277 276 275 274 273 272 270 269 267 266 264 262 260 258 256 255 255 254 252 251 250 250 250 247 244 242 239 237 234 232 230 226 224 223 222 222 221 219 219 218 217 216 216 216 216 216 216 216 214 213 212 211 211 210 210 209 209 209 209 209 210 211 211 210 210 209 209 209 209 209 210 211 210 209 209 209 209 208 208 208 208 208 210 211 212 212 212 212 212 212 212 212 212 212 211 210 208 207 207 206 206 207 207 208 208 209 211 211 218 225 230 233 238 241 243 244 243 241 239 237 233 230 228 226 224 222 219 218 218 217 215 215 216 217 218 220 223 226 227 230 232 233 233 234 235 236 237 237 237 237 237 238 240 242 244 244 245 246 247 247 249 250 250 251 251 251 251 251 252 252 252 253 253 253 253 253 253 253 251 251 251 250 250 250 250 249 249 249 249 250 250 250 250 251 251 251 252 252 253 253 253 253 253 252 252 252 251 251 251 250 250 249 248 247 247 247 246 246 245 244 244 244 244 244 244 243 244 244 244 244 244 244 244 244 244 244 244 244 245 245 245 245 244 244 244 244 244 243 243 243 243 243 243 243 244 244 243 244 244 244 245 246 246 247 249 249 249 251 251 251 252 253 254 255 257 258 259 260 262 262 263 262 261 259 256 253 251 248 247 246 246 246 246 246 248 249 250 251 251 251 251 251 250 250 249 249 249 249 249 249 249 249 248 251 255 257 257 255 252 250 250 250 250 250 250 250 250 250 250 249 251 255 259 261 263 264 265 266 266 267 265 263 262 261 261 261 261 262 262 264 266 267 267 266 265 263 262 262 262 262 266 271 277 279 280 281 281 281 280 280 280 280 280 280 280 281 283 285 288 290 294 298 303 307 311 313 315 317 319 320 320 321 322 322 322 322 321 320 318 317 316 314 313 310 308 305 303 302 301 301 301 301 302 303 303 304 305 310 315 316 316 317 317 315 312 306 300 294 288 284 282 281 283 285 285 285 282 279 278 277 276 277 278 279 283 287 291 295 299 302 306 311 318 323 328 333 339 344 350 356 361 366 370 374 374 374 374 373 372 371 369 368 370 372 374 374 375 376 380 384 388 392 397 402 402 398 393 386 377 368 361 355 352 353 355 357 357 356 354 352 351 347 345 342 339 334 329 324 318 315 314 314 313 311 309 307 306 306 305 306 306 305 306 307 308 309 311 311 312 312 312 311 310 309 306 302 297 290 282 273 266 260 254 251 250 249 249 252 255 258 261 264 267 270 274 277 278
345 345 344 345 347 348 348 350 352 354 356 359 362 366 369 371 373 372 370 367 364 360 357 354 354 353 351 348 346 344 343 342 342 340 335 333 332 329 326 325 326 325 326 329 327 324 322 320 319 318 315 311 304 299 301 304 304 303 307 310 311 313 314 316 317 317 317 317 316 316 316 317 321 325 326 327 328 328 327 326 325 325 325 325 323 319 314 308 302 297 294 293 292 292 292 292 292 292 291 291 291 291 291 291 291 290 290 290 290 290 290 291 292 294 299 301 301 304 308 315 318 316 311 311 311 311 311 307 305 303 302 300 299 299 300 300 299 298 295 295 296 296 296 296 296 296 297 297 298 299 299 298 297 291 288 289 295 300 304 306 308 309 309 307 304 300 294 290 287 286 285 285 285 285 284 283 283 281 280 280 278 277 277 277 276 276 278 278 277 277 276 275 274 273 271 270 270 269 267 265 263 261 260 258 257 256 255 254 252 252 252 251 248 246 244 241 238 235 232 228 226 224 223 222 222 221 220 220 219 217 216 216 216 215 215 217 216 214 213 212 211 211 210 210 209 209 209 209 209 210 211 211 210 210 209 209 209 209 209 210 210 211 211 210 209 209 208 208 208 209 210 211 213 214 215 215 215 215 215 215 215 214 213 213 211 209 209 208 207 207 207 207 207 207 209 210 211 218 224 229 233 237 240 243 243 242 240 239 235 232 228 226 224 223 220 218 217 217 217 215 215 215 217 220 222 224 227 228 230 232 233 234 235 237 237 237 239 239 239 239 240 241 243 244 245 246 247 248 248 249 250 250 251 251 251 251 251 251 251 252 253 253 253 253 252 252 253 252 251 251 250 250 250 250 248 248 248 249 249 249 249 250 250 250 251 252 252 253 253 253 253 252 251 251 251 251 251 250 250 250 249 248 247 247 246 246 246 245 244 244 244 244 243 243 243 243 244 244 244 244 244 244 244 244 244 244 244 244 244 245 245 244 244 244 244 244 244 244 244 244 244 244 244 244 244 244 244 244 244 245 247 247 247 249 249 249 251 251 251 252 254 254 255 257 259 259 260 262 262 263 263 262 260 257 255 253 250 249 247 246 246 246 247 249 250 251 252 251 251 251 251 250 250 249 248 249 249 249 249 249 249 248 251 257 260 260 258 255 251 250 250 250 250 250 250 249 249 249 249 249 253 257 258 260 262 263 265 266 267 265 263 262 261 261 261 261 262 262 263 265 266 266 265 263 262 262 262 262 262 265 269 275 278 280 280 280 280 280 280 280 280 280 280 282 284 286 288 291 294 298 302 307 311 314 316 319 320 322 323 324 325 325 326 326 326 325 324 323 321 320 318 317 314 311 307 304 303 302 302 302 302 303 303 303 304 306 312 316 317 317 317 317 315 311 306 300 294 288 285 284 283 283 285 285 285 282 280 279 278 278 278 279 281 286 290 294 299 303 306 309 314 320 325 330 335 342 348 353 358 363 368 373 376 378 378 378 377 377 377 376 374 375 377 379 380 381 382 385 389 393 397 402 407 407 403 397 390 382 373 365 359 355 355 356 357 357 356 354 352 350 346 344 342 339 334 329 324 319 318 320 320 319 317 315 313 312 311 310 310 310 309 309 309 311 312 313 314 314 314 314 313 312 311 309 306 301 295 288 280 273 266 260 256 253 252 252 254 258 261 263 266 269 271 274 276 278
343 343 342 343 344 344 345 347 348 349 351 354 357 361 365 367 370 372 372 370 365 361 359 359 359 358 354 349 347 344 342 342 340 337 335 336 336 333 332 332 332 329 329 330 328 324 322 320 319 317 315 311 305 298 298 300 301 300 302 305 307 309 311 313 314 314 314 313 312 312 312 316 320 323 324 325 326 326 325 324 324 324 324 324 322 316 310 304 299 295 294 293 293 293 293 292 292 292 292 291 291 291 291 291 291 290 290 290 290 290 290 290 292 294 299 302 303 304 308 317 321 318 313 311 311 310 309 307 305 303 301 300 299 299 299 299 299 296 295 295 296 296 296 296 296 296 296 297 298 298 298 298 294 288 288 292 298 302 305 307 309 310 310 309 306 302 297 291 288 286 285 285 285 285 284 283 283 282 281 280 279 277 276 275 276 276 277 277 276 276 275 274 274 272 270 270 269 268 267 265 264 262 261 259 258 257 255 254 253 252 252 251 249 249 247 243 239 235 232 228 225 224 222 222 221 220 220 219 218 217 216 216 215 214 214 214 215 214 213 212 211 210 209 210 210 210 210 210 210 210 211 211 210 210 209 209 209 209 210 210 210 211 211 211 210 209 209 208 209 210 211 212 215 218 219 219 219 219 218 218 218 217 216 213 212 210 209 208 207 207 207 207 207 207 208 209 211 217 222 227 232 236 239 242 242 241 239 238 234 230 227 224 223 222 219 217 217 217 217 215 213 214 218 220 222 225 228 229 231 232 234 234 236 237 238 239 239 240 240 240 241 242 244 245 246 247 247 248 248 249 250 250 251 251 251 251 251 251 251 251 252 253 253 253 252 252 253 252 252 251 249 249 249 249 248 248 248 249 249 249 249 249 249 249 251 251 251 252 252 252 252 251 251 251 251 250 250 250 249 249 248 247 247 247 246 245 245 245 244 244 244 243 243 243 243 243 243 243 244 244 244 244 244 244 244 244 244 244 244 244 244 244 244 244 244 244 244 244 244 244 244 244 243 244 244 243 244 244 244 245 247 247 247 249 249 249 250 251 251 252 254 254 255 257 259 260 260 262 262 263 264 263 261 259 256 254 252 250 248 246 246 246 248 250 251 252 253 252 251 251 251 250 250 250 248 249 249 249 249 249 249 248 251 257 263 264 261 257 254 250 250 250 250 250 250 250 250 250 249 249 251 255 255 257 259 261 263 264 264 263 262 261 261 261 261 261 262 262 263 264 265 265 264 262 262 262 262 262 262 263 267 272 277 279 279 279 279 280 280 280 280 281 283 286 288 291 293 296 299 302 307 311 314 317 319 322 324 326 327 328 329 329 330 330 329 329 328 327 325 324 322 320 317 313 309 305 304 303 303 303 303 303 303 303 305 308 313 316 317 317 316 316 314 310 305 300 294 289 287 285 284 284 285 285 284 282 280 280 279 279 279 280 284 289 293 298 302 306 310 313 318 322 327 332 338 344 350 355 360 365 370 375 378 381 382 381 380 380 381 380 379 379 381 383 385 386 388 391 395 399 404 409 412 413 408 402 395 386 378 369 363 359 357 357 357 357 357 355 353 350 347 345 342 339 335 329 324 321 323 326 326 325 323 321 319 318 316 316 315 314 313 312 312 314 315 316 316 316 316 315 315 314 313 311 308 304 299 293 287 280 272 266 261 257 254 254 256 260 263 265 267 270 273 275 276 278
342 342 342 342 342 342 343 345 346 347 349 351 353 355 359 362 365 369 372 373 371 367 365 366 365 362 355 350 347 344 343 342 339 335 337 340 339 339 339 339 336 332 331 329 327 324 321 318 317 315 314 311 305 298 297 297 298 298 299 301 303 305 306 309 311 311 311 309 309 308 310 314 317 320 322 323 324 324 323 323 323 323 323 323 322 318 311 304 300 297 294 293 293 293 293 292 292 292 292 291 291 290 291 291 291 290 290 290 290 290 290 290 292 294 299 302 303 304 308 317 323 321 317 313 311 311 310 307 305 303 301 300 299 298 298 298 298 295 295 294 295 295 295 295 295 295 296 296 297 298 298 296 292 287 289 294 299 304 306 309 311 312 312 311 308 304 299 294 290 288 288 287 286 285 285 284 284 282 282 281 280 277 275 274 274 275 275 275 275 275 274 273 272 270 269 269 268 267 266 265 264 262 261 260 259 257 256 255 254 253 253 252 250 250 248 243 239 236 232 228 225 224 223 222 220 219 219 218 218 217 216 215 214 213 213 213 213 213 213 212 211 210 209 210 210 210 211 211 211 211 211 211 210 210 209 209 209 209 210 211 211 211 211 211 211 210 209 209 210 210 212 214 217 220 221 222 222 222 222 221 221 219 218 215 212 211 211 210 209 209 208 207 207 207 207 208 210 215 221 226 230 234 238 240 241 240 238 236 233 229 226 224 221 221 218 215 215 217 218 215 211 213 218 220 222 225 228 230 231 233 234 235 236 237 239 240 241 241 242 242 243 243 245 246 247 248 248 248 248 249 250 250 251 251 251 251 251 251 251 251 252 252 252 253 253 253 252 252 252 252 250 249 249 249 248 248 249 249 248 248 248 248 248 249 250 251 251 252 252 252 252 251 251 251 250 250 250 250 249 249 248 247 246 246 245 245 245 244 243 243 243 243 243 243 243 243 243 243 243 243 243 244 243 243 243 244 244 244 244 243 243 244 244 244 244 244 244 244 244 244 244 244 243 244 244 243 244 244 244 245 247 247 248 248 249 249 250 251 251 252 254 254 256 258 259 260 261 262 262 263 264 263 262 260 257 255 253 250 248 247 246 246 249 251 253 254 254 252 251 251 251 250 250 250 249 249 249 249 248 248 249 248 250 257 265 266 263 259 256 252 250 250 250 250 250 253 253 252 250 249 251 254 253 255 257 259 261 262 262 261 261 261 261 261 261 261 262 262 263 264 264 264 263 262 262 262 262 262 262 262 266 270 275 278 278 278 279 280 280 282 283 285 288 291 293 296 298 301 304 308 312 316 318 321 323 325 327 329 331 331 332 333 333 334 333 332 331 330 329 326 324 322 319 315 311 307 304 304 304 304 303 303 304 304 305 308 313 316 317 316 315 314 311 307 304 299 295 292 290 288 287 286 285 285 284 282 280 280 279 279 279 282 287 292 296 300 305 309 313 316 320 324 329 334 340 346 352 357 362 367 372 376 381 384 385 385 383 383 384 384 383 381 383 386 389 392 393 397 401 406 411 416 418 417 413 406 399 390 382 373 366 362 359 358 358 359 358 356 354 352 349 347 344 341 336 329 324 325 329 332 332 331 328 326 324 323 321 321 319 318 316 315 315 317 317 318 318 318 318 317 317 316 315 313 310 307 302 297 292 286 278 272 266 261 257 255 258 262 264 266 268 271 273 275 277 278
342 342 342 342 342 342 342 345 347 348 349 350 350 349 353 357 359 363 368 374 376 374 372 371 369 364 356 350 347 345 344 342 341 339 342 344 344 344 346 346 343 337 333 331 328 324 321 318 316 313 312 310 304 300 297 295 296 296 297 298 299 301 302 305 308 308 308 306 306 304 307 311 313 315 317 319 321 321 321 321 321 321 321 322 321 318 315 309 303 300 296 293 292 292 292 292 292 292 292 291 291 290 291 291 290 290 290 290 290 290 290 290 293 295 299 302 304 305 306 316 324 323 319 316 313 313 311 308 306 303 301 300 299 298 298 297 296 295 295 294 294 294 294 294 294 294 295 296 297 297 297 295 291 288 291 295 299 305 307 309 312 313 313 311 309 305 300 297 293 291 290 290 289 288 286 285 284 283 282 282 280 278 276 274 273 274 274 275 274 274 273 271 269 268 268 268 267 267 265 265 264 262 261 261 259 258 257 255 255 254 253 252 250 249 247 242 239 235 231 228 226 225 224 222 220 218 218 218 217 216 215 215 214 213 213 213 212 212 212 212 210 210 210 210 210 211 212 211 211 211 211 211 210 209 209 209 209 209 210 210 210 210 210 210 211 211 210 209 210 211 213 216 219 221 223 224 225 225 225 225 223 222 219 217 213 212 211 211 210 210 209 208 207 207 207 207 210 213 219 224 228 232 236 239 240 239 237 234 231 228 226 224 221 220 217 215 212 214 214 212 210 213 216 218 221 225 228 230 231 233 235 235 237 239 240 241 242 243 243 243 244 245 246 247 248 249 249 248 249 249 250 250 251 252 251 251 251 251 251 251 251 251 252 252 252 252 251 252 252 252 251 249 249 249 248 248 248 248 248 248 248 248 248 248 250 251 251 251 251 251 251 251 250 250 249 249 249 249 248 248 248 247 246 246 245 244 244 244 243 243 243 243 243 243 243 243 243 243 243 243 243 244 243 243 243 243 244 244 243 243 243 244 244 244 244 244 244 244 244 244 244 244 244 244 244 244 244 245 245 245 247 247 248 248 249 249 250 251 251 252 254 254 256 258 259 260 261 263 263 263 265 263 263 260 258 256 254 251 249 248 247 247 249 252 254 255 254 252 251 250 250 250 250 250 249 249 249 249 248 248 249 248 250 255 263 266 265 261 258 255 252 250 250 251 253 255 255 254 253 250 250 251 252 253 255 257 259 260 261 261 261 261 261 261 261 261 262 262 262 263 263 263 263 262 262 262 262 262 262 262 265 269 273 276 277 279 280 282 284 286 288 290 293 296 298 301 304 307 311 315 318 321 323 326 328 330 332 333 334 335 336 337 337 338 337 336 335 332 330 328 326 323 321 317 312 308 306 305 304 304 304 304 304 304 307 309 312 314 314 312 311 310 308 304 302 299 297 294 293 292 290 288 286 285 284 281 280 280 279 279 280 285 291 294 298 302 307 311 315 318 322 326 331 336 342 348 353 358 362 368 373 378 383 386 388 389 387 386 386 387 386 384 386 389 393 397 399 402 408 413 417 422 423 421 417 410 402 394 385 377 371 367 363 361 360 360 359 357 355 354 351 349 346 342 337 330 327 330 334 337 338 338 335 334 332 331 328 326 323 321 319 318 318 319 319 320 319 319 319 318 318 317 317 315 312 309 306 301 296 290 284 277 270 265 260 258 259 262 264 267 269 271 274 276 277 279
343 342 342 342 342 342 342 345 348 349 350 351 348 346 349 352 355 357 363 370 377 378 377 374 369 363 356 350 347 346 345 345 343 344 346 349 352 353 354 353 349 342 335 332 329 326 322 318 316 313 312 310 306 304 300 296 294 294 295 295 296 297 299 302 304 305 305 303 302 300 303 307 309 311 313 315 317 318 319 318 318 318 318 319 319 318 316 312 306 302 298 294 293 292 292 292 292 292 292 291 291 291 290 290 290 290 290 290 290 290 290 290 292 296 299 303 305 307 309 316 324 324 321 317 315 314 311 308 305 303 301 300 299 298 298 297 296 295 295 294 294 293 293 294 294 294 295 295 295 295 295 293 289 288 292 295 299 304 307 310 312 314 314 312 310 307 302 299 296 294 293 293 292 291 289 286 285 284 283 282 281 279 277 275 272 272 273 274 273 272 270 268 267 266 266 266 265 266 266 266 265 263 262 261 260 258 257 257 255 254 254 252 250 249 246 241 237 233 231 229 228 226 224 222 219 218 218 218 217 216 215 215 214 213 213 212 212 212 212 210 209 209 209 211 211 211 211 211 211 212 211 211 209 208 208 209 209 209 209 210 210 209 209 209 209 210 209 209 211 211 214 217 219 222 225 226 228 229 228 227 226 224 221 219 215 213 213 213 212 211 210 209 208 207 206 206 208 211 217 222 226 230 234 237 238 237 235 232 230 228 226 224 221 219 216 213 210 211 210 210 209 212 214 216 220 225 229 230 232 234 235 236 238 240 241 242 244 244 244 245 246 246 248 249 249 249 250 250 250 250 250 250 251 252 251 251 251 251 251 251 251 251 251 252 252 251 251 252 252 252 251 251 250 249 248 248 247 248 248 248 248 247 247 248 249 250 250 251 251 251 251 250 250 250 249 249 249 248 248 248 248 246 246 246 245 244 244 244 243 243 243 243 243 243 243 243 243 243 243 243 243 243 243 243 243 243 243 243 243 243 243 244 244 244 244 244 244 244 244 244 244 244 244 244 244 244 245 245 245 246 247 247 248 249 249 249 250 251 251 252 254 254 256 258 259 260 261 263 263 263 265 263 263 261 259 257 254 252 250 248 248 248 250 253 255 255 254 252 250 250 250 250 250 250 249 249 249 249 248 248 249 249 250 254 261 266 266 263 260 257 254 252 252 254 255 256 256 256 254 252 251 250 250 252 254 256 258 259 260 261 261 261 261 261 261 261 262 262 262 263 263 263 263 263 263 262 262 262 262 262 265 269 273 275 278 280 283 285 288 290 293 295 298 301 304 307 310 314 317 321 324 326 328 330 332 334 336 337 338 339 340 341 341 341 340 338 337 334 331 329 326 323 320 317 313 310 308 307 306 305 304 304 304 306 309 310 311 312 310 308 307 306 304 302 301 299 298 296 295 296 294 292 289 286 284 281 280 280 280 280 283 288 293 296 300 304 309 313 316 320 323 328 333 338 343 349 354 358 362 369 374 378 384 388 390 391 389 388 389 391 390 388 389 392 397 403 406 409 414 419 423 426 427 425 422 414 406 396 387 381 377 372 367 364 362 361 360 358 356 355 353 349 346 342 338 332 331 334 338 341 343 344 343 342 340 338 335 331 327 324 322 321 322 322 322 322 321 321 320 320 319 318 317 316 314 311 308 304 299 294 289 283 274 267 262 260 261 262 264 267 269 271 275 276 278 281
346 342 342 342 342 342 342 344 348 350 352 351 349 346 347 350 352 351 358 364 372 377 378 374 368 362 355 350 347 347 347 347 346 348 351 357 363 365 365 361 354 345 337 333 330 326 322 317 316 315 315 314 311 308 304 299 294 293 293 293 294 295 297 299 301 301 301 299 299 298 300 303 305 305 307 310 314 315 316 316 316 316 316 317 317 317 316 313 309 305 301 298 295 293 293 292 292 292 291 291 291 291 290 290 290 290 290 290 290 289 289 289 291 294 299 303 306 309 312 316 324 327 323 318 316 314 311 307 305 303 301 301 299 298 298 297 296 295 295 294 293 293 293 293 293 293 294 294 294 295 294 292 288 288 292 295 299 303 307 310 313 314 314 313 310 308 304 301 299 297 297 296 295 294 292 290 288 286 285 283 282 281 278 275 273 272 272 272 272 270 268 265 264 263 264 264 264 266 267 267 267 265 263 261 260 258 258 257 256 255 254 252 248 247 245 241 237 233 231 230 228 226 224 221 219 219 218 218 217 216 215 215 213 213 212 212 211 211 211 210 209 209 209 211 210 210 210 210 210 211 211 211 209 208 208 209 209 209 209 210 210 209 209 209 209 209 208 209 211 212 215 217 220 223 226 228 230 231 231 229 228 226 223 219 217 216 216 215 214 213 211 210 209 208 206 206 207 210 214 220 224 228 232 234 236 235 233 230 229 227 226 224 221 219 216 212 209 209 208 208 208 210 212 215 220 225 229 230 232 234 236 237 238 241 242 243 244 245 245 246 246 247 249 249 250 250 251 250 250 250 251 251 251 251 251 251 251 251 251 251 251 251 251 251 250 250 250 251 251 251 252 251 250 249 248 248 247 247 247 247 247 246 246 247 248 249 249 250 250 250 250 250 250 250 249 248 248 248 247 247 247 246 246 246 245 244 243 243 243 242 242 243 244 244 244 243 243 243 243 243 243 243 244 244 244 244 243 243 243 244 244 244 243 243 243 244 244 244 244 244 244 244 244 244 244 245 245 245 245 245 247 247 247 249 249 249 250 251 251 252 254 254 256 258 259 260 261 262 263 263 264 264 263 262 260 258 255 253 251 249 248 248 251 253 253 252 251 250 249 249 249 249 249 249 249 249 249 249 249 249 249 250 250 253 259 264 264 263 261 258 255 254 254 254 255 255 255 255 255 254 253 250 250 251 254 257 259 260 261 261 261 261 261 261 261 262 262 262 262 262 262 262 262 263 263 263 262 262 262 262 265 269 273 276 279 282 286 289 292 295 297 300 303 306 310 313 317 320 323 326 328 330 332 334 336 337 339 340 341 342 343 344 344 344 342 340 338 335 331 328 326 323 320 317 314 313 311 309 308 306 305 304 305 307 310 311 311 310 307 304 302 302 301 299 299 298 298 297 297 298 296 294 291 287 285 281 280 280 280 282 286 291 294 298 301 306 311 314 318 321 325 330 334 339 345 350 354 358 362 368 374 378 384 389 391 393 392 391 392 393 394 392 392 395 402 409 412 415 420 424 429 431 431 429 426 418 410 400 391 386 382 377 372 368 366 365 363 359 358 356 353 350 346 343 339 335 336 338 341 344 347 348 349 349 347 345 341 335 330 327 326 325 325 325 325 324 323 322 321 321 320 319 318 317 315 312 310 306 301 297 293 287 278 270 264 261 262 262 264 267 269 271 275 277 279 283
348 345 342 342 342 342 342 343 348 351 352 353 350 346 346 347 348 346 353 360 366 371 374 372 367 361 355 350 347 347 347 347 347 351 356 364 374 378 377 368 357 348 342 335 331 328 323 319 317 317 317 317 315 310 305 302 297 294 293 293 293 293 295 296 297 297 298 298 297 296 297 298 300 299 300 304 308 311 312 313 313 313 314 314 315 315 314 313 310 307 304 301 298 294 293 293 293 292 291 291 291 291 290 290 290 289 289 289 290 289 289 289 291 293 296 301 307 309 312 318 324 330 327 320 318 316 313 307 305 303 302 301 300 298 297 296 295 295 295 293 292 292 292 293 292 292 293 293 293 293 293 291 288 289 291 294 297 303 307 310 313 315 315 313 311 309 306 303 301 300 300 299 298 297 296 295 293 290 288 286 285 283 281 278 275 271 269 269 269 268 265 262 261 260 261 261 263 264 264 265 265 264 262 260 260 259 258 257 256 255 254 252 249 248 245 241 238 235 232 230 229 226 223 221 220 219 219 219 218 217 215 215 213 212 212 212 211 211 211 210 210 210 210 211 210 210 210 210 210 210 211 211 210 209 209 209 209 209 209 210 210 209 209 209 209 209 209 210 212 212 215 217 220 223 226 228 231 233 233 232 230 227 225 221 219 219 219 218 216 214 213 211 209 209 207 206 206 208 211 217 221 225 229 232 233 232 230 230 229 229 228 225 222 220 217 213 211 209 208 208 208 209 212 215 219 225 229 231 232 234 236 237 240 241 243 244 245 245 246 247 248 248 250 251 251 251 252 251 251 251 251 251 251 251 251 251 251 251 251 251 251 250 250 250 250 250 250 251 251 251 252 252 252 251 249 248 247 247 247 247 246 246 246 246 248 249 249 250 250 250 250 250 249 249 248 248 248 248 247 247 247 246 245 245 245 244 243 243 242 242 242 243 244 244 244 244 243 243 243 243 243 243 244 244 244 244 244 244 243 244 244 244 243 243 243 244 244 244 244 244 244 244 244 244 244 245 245 245 245 245 247 247 247 249 249 249 250 251 251 252 254 254 255 257 259 260 261 262 262 263 265 264 264 262 261 259 257 254 252 250 249 249 251 252 250 250 250 249 249 249 248 249 249 249 249 249 249 249 250 250 250 250 251 253 257 260 262 262 261 259 255 255 255 255 255 255 255 255 255 255 254 251 250 250 255 259 261 261 261 262 262 262 262 262 262 262 262 262 262 262 262 262 262 262 262 262 263 263 263 264 266 269 274 277 281 285 290 293 297 300 302 306 310 313 317 320 323 326 329 331 333 335 337 338 339 340 342 343 344 345 346 346 347 346 345 342 339 336 332 328 327 325 322 320 318 316 314 312 310 308 305 304 305 308 310 310 309 307 304 299 297 297 296 296 297 297 297 297 299 298 298 296 292 289 285 282 280 280 281 285 289 293 296 300 303 308 312 315 319 323 328 332 337 342 348 352 355 359 363 368 374 379 384 389 394 396 395 394 395 397 399 398 398 401 407 413 417 420 425 431 435 437 436 434 429 422 415 406 397 391 387 382 377 374 372 371 367 364 361 359 355 352 348 345 342 340 341 343 345 348 351 354 356 355 353 351 345 338 334 332 331 330 329 328 328 327 325 323 322 321 321 319 318 318 316 313 311 308 304 300 296 290 283 274 267 263 262 263 265 267 269 272 275 278 282 286
350 346 342 342 342 341 342 342 347 349 352 353 351 348 346 345 345 345 350 356 361 366 370 370 366 362 355 350 347 344 345 344 347 350 356 364 374 381 381 370 357 349 343 335 332 330 326 322 318 317 317 317 315 310 307 303 299 296 294 294 293 293 293 294 295 296 298 299 297 295 295 295 296 295 296 299 303 306 308 309 310 311 312 313 314 314 313 312 310 307 305 301 298 295 294 292 292 292 292 292 292 291 290 290 290 289 289 289 290 290 290 290 291 293 294 300 306 308 311 317 324 330 329 322 320 318 315 310 306 305 303 301 300 298 297 296 295 294 294 292 292 292 291 291 291 291 292 292 292 292 292 291 288 289 289 292 296 301 306 309 313 315 315 314 311 309 306 304 302 302 303 302 301 300 300 299 299 295 292 289 287 285 283 280 277 273 269 267 266 266 263 260 258 257 257 258 259 258 258 259 260 260 259 258 259 258 258 257 256 255 254 252 250 248 246 243 238 235 232 229 229 226 223 222 222 221 220 219 218 217 215 214 213 212 212 212 211 211 211 210 210 210 211 211 211 211 210 210 210 210 211 211 210 210 209 209 209 209 209 209 209 209 209 209 209 209 210 211 212 213 216 218 220 223 227 229 231 234 235 234 232 229 226 223 221 221 220 219 218 216 214 212 210 209 208 206 206 207 209 215 219 223 227 230 230 230 230 230 230 231 230 226 223 221 219 216 213 211 209 209 209 210 213 216 220 225 229 231 232 235 236 237 241 242 243 244 246 246 247 248 249 250 251 252 252 253 253 252 252 252 252 252 252 251 251 251 251 251 251 251 250 250 250 249 249 249 250 250 250 250 251 252 252 251 250 249 248 246 246 246 246 245 245 246 247 248 248 249 250 250 249 248 248 247 247 247 246 247 247 247 246 245 245 244 244 244 244 242 242 241 242 243 244 244 244 244 244 244 243 243 243 243 244 244 244 243 244 244 244 244 244 243 244 244 244 244 244 244 244 244 244 244 244 244 244 244 244 244 245 245 246 246 247 248 248 248 250 251 251 252 253 254 255 257 258 259 260 262 262 263 264 265 265 263 262 260 258 255 252 250 249 249 251 253 252 249 249 249 249 249 249 249 249 249 249 249 249 250 250 250 251 252 252 253 256 259 261 261 261 261 259 258 255 255 255 254 254 254 253 253 252 251 250 250 256 260 262 262 262 262 262 262 262 262 262 262 262 262 262 262 262 262 262 262 262 262 262 262 263 265 266 269 275 279 283 288 293 296 300 304 307 311 315 318 322 325 328 331 333 335 336 338 340 341 342 343 344 345 346 347 347 348 348 348 347 344 340 337 334 330 329 327 326 324 321 319 317 314 311 309 305 302 303 307 309 309 307 305 301 296 294 293 292 294 295 295 296 297 298 298 298 297 292 289 285 282 281 281 284 287 291 294 297 301 305 309 313 316 320 324 330 334 339 344 350 354 357 361 364 369 375 380 385 389 394 397 397 396 397 400 403 404 404 407 412 416 421 425 431 436 440 442 441 438 433 426 419 412 404 396 391 385 381 379 378 376 373 370 366 363 359 354 351 347 346 345 346 347 350 354 357 360 362 360 357 355 348 342 338 337 336 334 332 331 330 329 327 325 323 322 321 319 318 318 316 313 311 310 306 302 297 293 286 277 269 265 264 265 267 269 272 274 276 279 283 289
352 348 344 341 341 341 342 342 346 348 350 352 351 348 347 345 344 343 347 350 355 361 366 366 364 360 354 349 345 341 341 340 344 347 352 358 365 371 375 366 354 345 339 334 332 331 329 325 320 317 316 315 314 310 307 304 300 297 296 295 293 293 293 293 294 295 298 299 297 295 294 294 294 293 293 296 299 301 302 304 306 308 310 311 312 312 312 311 310 307 304 301 298 295 294 292 292 292 292 292 292 291 290 290 290 290 290 290 290 289 289 290 291 293 293 298 304 307 311 316 322 328 329 322 321 322 321 315 310 308 305 301 300 297 296 295 294 293 292 291 290 290 290 289 289 290 291 291 291 290 290 289 288 288 288 291 295 299 305 309 312 314 314 314 311 310 307 305 304 304 304 304 304 302 302 303 304 300 296 292 290 287 284 282 279 275 270 267 264 263 260 258 256 254 253 254 254 253 252 253 255 255 256 256 257 257 257 257 255 254 253 251 250 248 246 243 239 236 233 232 230 228 225 223 223 222 220 219 218 217 215 214 213 213 213 212 211 211 211 211 211 211 211 211 211 211 210 210 210 210 211 211 211 210 209 209 209 209 209 209 209 209 209 209 209 209 210 211 213 213 216 218 220 223 227 229 232 235 237 235 233 230 227 224 223 222 221 220 218 217 215 213 211 210 209 207 206 206 208 212 216 221 224 227 228 229 230 231 232 231 230 227 223 222 220 219 217 214 211 210 210 211 215 218 222 226 230 232 233 235 237 238 241 243 244 245 246 247 248 249 250 251 252 253 253 253 253 252 252 252 252 252 252 251 251 251 251 251 251 251 250 249 249 249 249 249 250 250 250 250 251 252 252 252 250 250 249 247 245 245 244 244 244 245 247 247 247 248 249 249 249 247 247 247 246 246 246 246 247 247 246 245 245 244 244 244 244 242 241 240 242 243 244 244 244 244 244 244 243 243 243 244 244 244 244 243 244 244 244 244 244 243 244 244 244 244 244 244 244 244 244 244 244 244 244 244 244 244 244 245 246 246 247 248 248 248 250 251 251 252 253 253 254 256 257 258 260 262 262 263 264 265 265 263 262 260 259 255 253 252 251 251 252 253 254 251 249 249 249 249 249 249 249 249 249 250 250 250 251 251 252 253 253 254 256 258 260 260 262 263 265 263 257 255 255 254 254 254 252 252 251 251 250 250 256 260 262 262 262 262 262 262 262 262 262 262 262 262 262 262 262 262 262 262 262 262 262 262 263 264 266 269 275 280 284 290 294 298 303 307 311 315 318 322 325 329 332 334 336 338 339 341 341 343 344 345 346 347 347 348 348 349 349 349 347 345 342 339 336 333 332 330 329 327 324 320 318 314 311 308 304 300 301 304 305 305 304 302 297 293 291 290 291 292 294 294 295 296 298 298 298 297 292 288 285 283 282 283 285 289 292 295 298 302 305 310 314 317 322 326 332 336 341 347 352 356 359 362 365 371 377 382 386 390 395 397 399 399 400 403 407 408 410 412 416 420 425 431 437 442 446 447 446 443 437 429 422 416 409 401 394 388 385 383 383 381 379 376 372 368 363 358 354 351 350 350 350 352 356 360 364 366 367 365 361 358 351 345 342 340 339 337 335 334 333 331 328 326 324 322 322 320 318 317 316 313 311 310 306 302 298 294 288 280 271 267 267 268 270 273 275 276 277 280 284 291
354 351 346 341 341 341 342 342 344 346 348 350 350 348 347 345 343 342 343 344 348 354 359 360 359 357 353 347 343 339 337 337 339 343 346 351 355 359 364 361 350 342 337 335 333 330 329 326 322 319 316 314 313 310 307 305 301 298 296 296 294 293 293 293 293 293 297 297 296 295 294 294 294 293 293 293 295 296 297 300 303 307 308 310 310 311 312 311 309 306 304 300 297 295 294 293 293 293 292 292 292 291 291 291 290 290 290 290 290 289 289 290 292 293 295 297 301 306 311 315 320 325 327 322 322 325 328 322 317 312 307 302 300 297 295 294 293 292 291 290 290 290 290 289 289 290 291 290 290 290 289 288 288 288 288 290 294 297 303 307 311 313 314 313 312 310 308 306 305 305 305 305 305 304 302 305 308 305 300 296 292 289 286 284 281 278 274 269 265 262 259 256 254 253 250 249 250 250 249 250 250 251 252 253 254 255 256 257 255 253 252 250 249 247 245 242 239 238 236 235 233 230 227 224 223 222 219 219 217 216 216 215 214 213 213 212 211 211 211 212 211 211 211 211 211 211 210 210 210 210 211 211 211 210 210 210 209 209 209 209 209 209 209 209 209 209 210 212 213 213 216 218 220 223 227 230 232 236 237 236 234 231 229 226 225 224 223 221 219 218 216 215 213 212 210 208 206 206 207 210 214 219 222 223 225 227 231 232 232 231 229 227 223 223 221 221 220 216 212 210 210 212 216 219 223 228 231 232 234 235 237 239 241 243 244 246 247 248 249 250 251 252 253 253 253 254 254 253 253 253 252 252 252 251 251 251 251 251 251 251 249 249 249 249 249 249 249 250 250 250 250 251 251 251 251 251 250 248 247 245 244 244 244 245 246 246 246 248 249 249 249 247 246 246 245 245 245 246 246 246 246 245 245 245 245 244 244 241 239 238 241 243 243 243 243 244 244 244 244 243 243 243 244 244 244 244 244 244 244 244 244 244 244 244 244 244 243 243 244 244 244 244 243 243 243 244 244 244 244 245 246 246 247 248 248 248 250 251 251 252 253 253 254 255 257 258 260 261 262 263 264 265 265 264 263 261 259 256 254 253 252 252 252 253 253 251 250 249 249 249 249 249 249 249 250 250 250 251 252 252 253 253 254 254 256 257 259 260 262 266 269 265 257 256 255 254 254 254 252 251 251 251 250 250 255 260 261 261 262 263 263 262 262 262 262 262 262 262 262 262 262 262 262 262 262 262 262 262 262 264 266 270 275 280 285 291 295 300 305 309 314 318 321 325 328 332 335 337 338 339 340 342 342 344 345 346 346 348 348 348 349 349 349 349 348 347 344 341 338 336 334 332 331 330 326 320 317 312 309 306 303 297 297 300 301 301 300 298 294 290 288 288 289 291 293 293 293 296 298 298 298 295 291 287 285 283 283 284 287 290 293 295 299 302 305 310 315 319 324 329 334 339 344 349 354 357 360 364 367 372 379 384 388 392 396 399 401 402 403 406 410 411 414 416 421 426 431 437 443 449 452 452 450 446 440 433 425 418 412 404 397 392 389 388 387 386 383 381 377 374 369 364 360 357 354 355 356 358 362 367 370 371 371 369 364 360 354 349 346 345 343 341 338 336 335 332 329 327 325 323 322 320 318 317 316 313 311 309 306 302 298 294 289 281 273 270 272 273 275 276 278 279 279 281 286 293
355 353 349 341 340 341 341 342 343 345 347 349 349 348 347 346 343 342 341 340 342 346 350 352 353 353 351 346 341 337 334 335 335 338 340 343 347 350 354 355 349 343 340 339 336 331 329 326 323 320 316 314 313 310 307 305 302 298 296 296 294 293 293 293 293 293 294 294 294 294 294 294 294 293 293 293 293 293 294 297 301 306 307 308 309 310 310 310 308 306 304 300 297 294 294 293 293 293 292 292 292 291 291 291 290 290 290 290 290 290 290 290 292 295 299 300 300 304 309 314 319 324 325 323 322 324 330 328 324 317 309 304 300 297 294 293 292 292 291 290 289 289 288 289 289 290 291 290 289 289 289 288 288 288 288 289 293 296 301 306 310 311 312 312 312 311 309 307 307 306 307 307 307 306 304 307 310 308 305 300 296 292 288 286 283 280 277 273 269 265 261 258 256 255 252 250 249 249 248 248 248 248 248 250 250 252 253 254 254 252 250 248 247 246 245 242 239 237 236 235 232 229 227 225 223 220 219 219 217 217 216 216 216 214 214 213 213 212 212 211 211 211 211 211 211 211 211 211 211 211 212 211 211 210 210 210 210 210 210 210 209 209 210 210 210 210 210 212 213 213 216 218 220 224 227 230 233 236 237 237 235 233 230 228 226 226 224 222 220 219 218 216 215 214 212 209 206 206 206 209 212 216 219 220 222 226 229 231 231 230 228 226 223 223 222 221 220 217 213 211 211 213 216 220 225 230 233 234 236 237 239 241 242 244 245 246 248 249 250 251 252 253 254 255 255 255 255 254 253 253 253 253 252 251 251 251 251 251 251 250 249 249 249 248 248 248 249 249 249 249 250 250 250 251 251 251 250 248 247 245 244 244 244 244 245 245 246 246 247 248 248 246 245 244 244 244 244 245 245 245 245 245 245 245 245 243 243 241 238 237 240 243 243 243 243 244 244 244 244 243 243 243 244 244 244 244 244 244 244 244 244 244 244 244 244 244 243 243 244 244 244 244 243 243 243 244 244 244 244 245 246 246 247 248 248 248 250 251 251 251 253 253 253 255 256 257 259 261 262 262 264 264 264 264 263 262 261 258 256 254 253 253 253 252 250 250 250 249 249 249 249 249 249 249 250 250 250 252 253 254 254 255 254 255 256 257 258 259 262 267 268 263 258 256 255 254 253 253 252 251 251 250 250 251 254 259 261 261 262 263 263 263 262 262 262 262 262 262 262 262 262 262 262 262 262 262 262 262 262 265 267 270 275 281 286 291 296 301 306 310 315 319 323 327 331 335 337 338 340 341 342 343 344 344 346 347 348 348 349 349 349 350 350 349 348 348 347 344 341 338 335 333 333 333 327 320 316 310 306 304 301 296 293 295 297 297 296 295 292 288 285 286 288 290 292 291 291 295 298 298 297 293 289 285 285 284 284 285 288 291 293 296 299 303 306 311 316 320 326 331 336 341 346 352 355 358 361 365 369 374 380 385 389 394 397 400 403 404 406 408 412 414 418 421 426 431 437 444 450 455 458 457 455 449 443 436 427 420 414 407 400 395 393 393 393 391 389 386 382 379 376 372 368 364 361 361 363 366 369 373 376 376 375 371 366 363 357 352 351 350 347 344 341 337 335 332 330 328 326 324 322 321 319 317 316 312 309 307 304 301 297 294 289 282 276 275 278 280 280 280 280 281 281 282 288 295
355 354 350 344 340 339 340 340 341 343 345 346 347 348 348 346 343 342 341 339 339 340 342 344 347 348 348 343 338 335 331 331 331 333 335 337 340 343 346 349 348 345 344 343 340 334 329 326 324 321 317 315 313 310 307 305 302 298 297 297 296 294 293 293 293 292 292 292 293 294 294 294 294 294 293 293 293 293 293 295 300 304 305 306 307 308 308 308 308 305 304 299 296 294 294 293 293 293 292 292 292 292 291 291 291 290 290 290 290 290 290 290 294 298 303 304 303 303 306 312 318 323 324 323 322 323 327 329 326 318 310 304 299 295 292 291 291 290 289 289 288 288 288 289 290 290 290 290 288 288 288 288 288 289 289 288 291 294 298 304 308 310 310 311 311 311 310 308 307 307 308 310 310 307 305 308 310 310 308 303 299 294 291 288 285 282 279 276 273 269 265 262 260 258 257 254 253 253 252 252 251 249 248 248 248 248 249 250 250 249 248 247 246 245 245 243 240 237 235 232 230 229 227 225 223 219 219 219 218 218 218 217 216 215 215 215 215 213 212 211 211 211 211 211 211 211 211 211 211 211 212 212 212 211 211 211 211 211 211 210 210 210 210 210 210 210 211 212 213 214 216 218 220 224 228 231 233 236 238 238 236 234 232 230 228 227 225 223 222 220 219 218 217 216 213 211 208 206 205 207 211 214 216 219 221 225 227 229 229 228 228 226 223 223 222 221 219 215 212 212 212 214 217 221 226 231 234 235 237 239 240 242 243 244 246 247 249 250 251 252 253 254 255 256 256 256 255 254 254 254 254 254 253 252 251 251 251 251 251 250 249 249 249 248 248 248 248 249 249 249 249 250 250 250 251 251 250 248 247 245 244 244 244 244 244 244 245 245 246 247 246 245 244 243 243 243 243 244 245 245 245 245 245 245 245 243 243 241 238 237 239 242 243 243 244 244 244 244 244 244 244 244 244 244 244 244 244 244 244 244 244 244 244 244 244 244 244 244 244 244 244 244 244 244 244 244 244 244 244 245 245 245 246 247 248 248 249 250 250 251 252 252 253 254 255 257 258 260 261 262 263 264 264 264 264 263 262 261 259 257 255 255 254 252 250 250 250 249 249 249 249 249 249 249 250 250 251 252 254 254 255 255 255 255 256 257 258 259 262 265 265 261 258 256 255 254 253 253 252 251 251 250 250 251 254 259 261 261 262 263 263 263 262 262 262 262 262 262 262 262 262 262 262 262 262 262 262 262 262 265 266 270 275 281 286 291 297 302 307 312 317 321 325 329 333 336 338 339 340 341 343 344 344 345 347 347 348 349 350 350 350 350 350 350 349 349 348 347 345 340 337 333 333 332 327 320 316 309 304 301 298 294 291 289 291 292 292 292 289 286 283 284 286 288 289 289 290 294 296 297 295 291 287 284 284 285 285 286 288 291 294 296 299 303 306 312 316 321 328 333 338 344 349 354 357 360 362 366 370 375 381 386 390 395 398 401 404 406 408 410 414 417 422 426 431 437 443 451 457 461 463 461 458 452 446 439 431 423 416 410 403 399 398 398 398 396 394 391 387 384 382 379 376 372 368 367 370 373 376 378 380 380 379 375 369 366 360 356 355 354 352 348 344 338 334 332 330 328 327 326 324 322 320 318 315 312 308 305 302 299 295 292 287 283 279 281 283 284 284 284 283 283 283 284 290 298
356 354 352 347 341 339 339 339 340 341 343 342 343 344 345 344 342 340 339 337 336 337 337 338 339 340 341 339 335 332 329 328 328 331 332 333 335 338 340 343 344 344 344 346 345 337 330 328 326 323 317 315 314 311 308 305 302 299 298 298 298 296 293 293 293 292 292 292 292 293 293 293 293 293 293 293 293 293 293 294 297 300 303 304 305 305 306 306 307 305 304 298 296 294 294 293 293 293 293 292 292 292 291 291 291 290 290 290 289 290 290 291 295 300 305 308 308 306 305 309 316 321 322 321 320 321 323 325 324 318 309 303 297 293 291 290 290 289 288 288 288 288 288 288 288 288 289 288 288 288 288 288 288 289 289 287 288 292 296 301 306 308 309 310 311 311 310 309 308 308 311 312 311 309 307 308 310 310 310 306 302 298 294 290 287 284 281 278 276 273 269 266 263 262 261 259 258 257 256 256 255 254 252 250 248 247 246 247 246 246 246 245 244 243 243 242 240 238 236 232 230 229 226 225 222 219 219 219 219 220 219 218 217 216 215 217 217 215 213 212 210 210 210 211 212 212 212 212 212 212 213 213 213 212 212 212 211 211 211 211 211 211 211 210 210 210 210 212 213 214 216 218 220 224 228 231 233 236 238 238 237 236 234 232 230 229 227 225 224 222 220 220 219 218 215 213 209 206 205 207 210 213 216 218 221 224 226 228 229 228 227 225 223 223 222 220 218 214 211 212 213 216 219 222 226 231 234 236 237 239 241 243 244 245 246 248 249 250 251 253 254 255 255 256 256 256 255 255 255 254 254 254 253 251 251 251 250 250 250 250 249 248 248 248 248 248 248 248 248 248 248 248 249 249 249 250 249 248 247 246 245 244 244 243 243 244 244 244 245 246 245 243 243 243 243 242 242 243 244 244 244 245 244 244 244 243 243 241 238 237 238 240 243 243 244 244 244 244 244 244 244 244 244 244 244 244 244 244 244 244 244 243 244 244 244 244 244 244 244 244 244 244 244 244 244 244 244 244 244 245 245 245 246 247 248 248 249 249 250 250 250 251 251 253 254 256 257 259 261 262 263 263 263 264 264 264 264 264 263 260 258 257 255 253 252 251 251 250 250 249 249 249 249 249 250 251 252 253 254 255 256 256 257 257 257 258 259 260 262 263 262 260 258 257 256 255 254 253 252 251 250 250 250 251 254 258 261 261 261 261 261 261 261 261 261 262 262 262 262 262 262 262 263 263 263 263 263 263 263 263 265 269 275 281 286 291 297 303 307 312 318 322 326 331 334 337 339 340 341 342 343 344 345 346 348 349 350 351 351 351 351 351 351 351 351 351 350 349 348 343 339 334 332 330 325 320 316 309 303 300 297 293 290 286 287 287 288 288 286 282 281 282 284 286 286 286 290 293 294 294 292 287 284 283 283 284 285 287 289 292 295 297 300 303 307 312 317 323 330 336 341 347 351 355 358 361 363 367 371 376 382 386 391 395 399 402 406 408 410 413 417 421 426 430 436 443 450 457 463 466 467 465 461 455 449 442 434 426 418 412 405 402 403 404 404 402 399 396 392 389 387 385 382 379 375 373 375 378 381 383 383 383 382 379 373 370 365 361 359 358 355 351 344 339 334 333 332 330 329 328 325 323 321 319 315 310 306 302 298 296 293 290 286 284 283 286 287 287 287 287 286 285 285 285 292 302
355 354 352 349 343 340 339 338 338 339 340 339 339 339 340 340 339 338 337 335 333 334 334 334 334 334 335 335 332 329 328 328 328 329 329 330 331 333 335 337 339 341 344 346 346 338 331 329 327 324 320 317 316 312 310 305 304 301 300 299 298 297 294 293 293 292 292 292 292 292 292 292 292 292 293 293 293 293 293 293 295 297 299 301 303 303 304 304 305 305 304 299 297 295 294 295 294 293 293 292 292 292 291 291 291 290 290 290 289 290 290 292 294 299 305 310 312 311 308 309 313 318 320 319 317 318 320 320 320 315 308 301 295 291 289 289 288 288 288 288 288 288 288 288 288 288 288 288 288 288 288 288 288 288 289 287 287 292 295 299 303 306 308 309 311 311 311 310 309 310 313 311 311 310 308 308 309 311 310 308 305 301 298 293 290 287 284 281 279 276 274 270 268 267 266 264 262 260 259 258 257 257 257 254 250 247 245 245 244 243 243 243 242 242 240 239 238 237 237 233 230 228 226 225 222 220 220 220 220 220 219 219 217 216 216 217 218 217 215 213 211 210 210 211 212 212 212 212 212 212 213 213 213 212 212 212 211 211 211 212 211 211 211 210 210 210 210 212 213 214 216 218 220 224 228 231 233 236 238 238 238 236 235 234 232 231 229 227 225 223 221 220 220 219 217 215 211 207 205 206 209 212 215 217 220 224 226 227 229 228 226 224 223 222 221 219 217 213 211 212 214 217 220 222 226 231 235 236 237 240 242 243 245 246 247 248 250 250 252 253 255 255 256 257 257 257 256 255 255 254 253 253 253 251 250 250 250 250 250 249 249 248 248 248 248 248 247 247 247 248 247 247 248 248 249 249 249 248 247 247 245 244 244 243 242 243 243 243 244 245 244 243 243 243 243 242 242 242 243 244 244 244 244 244 244 243 243 241 238 237 237 239 242 243 243 244 244 244 244 244 244 244 244 243 243 244 244 244 243 244 244 243 244 244 244 244 244 244 244 243 244 244 244 244 244 244 244 244 244 245 245 245 245 247 247 247 248 249 249 249 249 249 250 251 253 255 257 258 260 261 263 263 263 263 263 263 264 266 265 261 259 257 256 254 253 252 252 252 251 251 250 249 249 249 250 251 252 254 255 256 257 257 258 258 258 259 259 260 262 262 262 260 258 257 256 255 254 254 252 251 250 250 250 250 253 256 258 258 258 258 259 259 259 259 260 260 261 261 262 262 262 262 263 263 263 263 263 263 263 262 263 269 274 281 286 291 297 302 307 313 319 323 327 332 335 337 340 341 342 343 344 345 345 347 349 351 351 352 352 352 352 352 352 352 352 352 352 351 349 346 340 334 331 327 323 319 315 309 303 300 297 293 289 286 284 282 282 283 282 279 278 280 282 283 283 285 288 291 292 291 288 284 281 281 282 284 286 288 291 294 297 299 301 304 307 312 318 325 333 339 344 349 353 357 360 363 365 368 372 377 382 386 392 396 400 404 408 410 413 416 420 425 430 436 442 448 456 463 468 470 470 468 464 457 450 443 437 429 422 416 409 406 407 409 409 408 405 401 397 395 392 390 388 384 380 378 380 383 386 386 386 386 385 383 379 376 370 366 364 361 357 351 344 339 336 335 335 333 331 330 327 325 322 319 313 308 303 299 295 292 291 290 287 287 288 290 291 290 290 289 288 288 286 286 294 304
355 355 353 351 346 342 340 338 337 337 337 336 336 336 336 336 336 336 334 333 331 331 332 332 332 331 331 331 329 327 327 327 327 328 328 329 329 330 330 332 334 337 340 341 340 335 331 329 326 322 321 318 316 312 309 305 304 303 300 300 298 297 294 294 293 292 292 292 292 292 292 292 292 292 292 292 292 292 293 293 293 295 296 298 300 301 302 303 304 305 305 300 297 296 296 297 297 295 293 293 293 292 291 291 291 290 290 290 290 290 291 292 293 298 303 309 313 313 313 312 313 316 318 318 316 317 318 316 312 310 303 297 292 289 288 288 288 288 288 288 288 288 288 288 288 288 288 288 288 288 288 288 288 288 288 288 288 291 294 297 301 304 306 307 309 310 310 310 310 311 312 311 311 311 310 309 309 310 310 310 308 304 301 296 293 290 286 284 281 279 277 275 273 272 271 269 266 263 260 259 258 258 257 255 251 247 246 246 245 244 243 242 242 241 240 237 236 236 235 232 230 228 226 225 223 222 221 221 221 220 219 219 217 216 216 217 218 217 216 214 212 211 210 211 211 211 212 211 211 211 213 213 213 212 211 211 211 211 211 212 211 210 210 210 210 210 211 213 214 215 216 218 220 224 227 230 233 235 237 238 239 237 236 235 233 232 230 229 226 224 222 221 220 220 218 216 213 208 205 206 208 212 215 217 220 223 225 226 228 227 224 222 221 221 220 218 215 212 212 213 216 219 221 223 226 231 234 236 237 240 242 243 245 246 247 249 250 251 252 254 255 256 256 257 257 257 256 256 256 254 253 253 253 252 250 250 250 249 249 249 248 248 248 247 247 246 246 246 247 247 247 247 247 247 248 248 249 248 247 246 245 243 242 242 242 242 241 242 243 243 243 242 242 242 242 242 242 242 242 242 243 243 243 243 243 243 243 241 238 237 237 239 241 242 243 244 243 243 244 244 244 244 244 243 243 243 244 244 243 244 244 243 243 243 243 244 244 244 244 243 244 244 244 244 244 244 244 244 244 244 245 245 245 246 246 247 247 248 248 248 249 249 249 250 252 254 255 257 258 260 261 262 262 261 261 261 262 264 263 260 258 257 257 255 254 254 254 254 253 253 252 251 250 250 250 251 252 254 256 257 257 258 259 259 260 260 260 260 262 262 262 260 259 259 257 256 255 254 253 251 250 250 250 250 251 254 254 254 252 254 255 255 255 255 257 258 258 259 260 261 262 262 263 263 263 263 263 263 262 261 263 268 274 281 285 291 296 302 307 313 319 323 328 333 336 338 340 341 342 344 344 345 345 348 350 352 353 353 354 354 354 354 353 352 352 352 353 352 350 347 342 335 330 325 321 317 315 310 305 300 297 294 290 287 283 280 279 278 277 275 276 278 279 280 282 284 287 289 289 287 284 280 279 280 282 285 287 288 292 295 298 300 303 305 309 313 319 327 336 341 346 350 354 358 362 365 367 370 373 377 382 386 392 397 401 406 410 413 416 420 424 429 435 441 447 454 462 469 472 473 472 471 466 459 451 445 439 433 426 420 414 412 413 415 415 414 411 407 403 400 397 395 393 389 385 384 386 388 390 390 390 390 388 387 385 382 376 371 368 364 359 351 345 341 338 338 339 338 335 332 329 325 322 318 311 305 300 296 293 291 291 291 290 291 292 294 294 294 293 291 291 289 288 288 295 305
354 354 354 353 349 344 342 339 336 335 334 333 333 333 333 333 333 333 332 330 329 330 332 332 330 330 329 328 326 325 325 326 327 328 328 328 327 328 328 328 330 331 332 332 331 331 329 327 325 322 319 316 314 311 307 303 304 303 300 299 297 296 294 294 293 293 293 292 292 292 293 292 292 292 292 292 292 292 292 292 292 292 293 295 297 299 300 301 302 303 303 300 298 298 298 299 299 297 295 293 293 292 291 291 290 290 290 290 290 290 291 291 293 297 301 306 310 313 314 314 314 316 316 316 313 315 315 311 305 305 298 293 289 288 288 288 288 288 288 288 288 288 288 288 288 288 288 288 288 288 288 288 288 288 288 288 288 291 293 296 299 302 304 306 308 309 310 311 311 311 311 311 311 311 310 310 310 310 310 310 310 306 304 300 297 294 290 287 285 283 281 278 276 275 274 272 269 265 262 261 260 258 258 255 252 250 249 249 248 248 246 245 244 243 242 238 236 236 234 232 230 228 227 225 224 223 222 221 221 220 219 219 217 217 217 217 217 216 216 214 213 212 211 211 211 211 211 211 211 211 213 213 212 212 211 211 211 211 211 212 211 210 210 209 210 210 211 213 214 215 216 218 220 223 227 230 232 235 237 238 238 238 237 235 234 232 231 230 227 224 223 222 221 221 219 217 214 210 206 206 207 211 214 216 219 222 224 224 225 224 222 220 219 219 219 216 213 212 212 214 217 219 222 224 226 230 234 235 237 240 242 243 245 247 248 249 251 251 252 255 255 256 257 257 257 258 256 256 256 254 253 253 253 252 251 251 249 248 248 248 248 247 247 247 246 246 246 246 246 246 246 245 246 246 247 247 248 247 246 246 245 243 242 242 242 241 240 241 241 242 242 242 242 242 242 242 242 241 242 242 242 243 243 243 243 242 242 241 238 237 237 238 241 242 243 243 243 243 244 244 244 244 244 244 244 243 244 244 244 244 244 243 243 243 243 244 244 244 244 244 244 244 244 244 244 244 244 244 244 244 244 244 245 246 246 246 247 248 248 248 248 248 249 250 251 253 254 256 257 259 260 261 261 261 261 261 261 261 260 260 259 258 257 256 255 255 255 256 255 255 255 253 252 252 252 252 253 254 257 257 258 259 260 260 261 261 261 261 262 262 262 260 260 260 258 257 255 255 253 252 250 250 250 250 250 251 251 251 250 250 251 251 251 251 252 254 254 254 257 261 262 262 262 263 263 263 262 262 261 260 262 268 274 280 285 291 296 301 306 312 318 323 328 333 336 338 341 342 344 344 345 346 346 349 351 353 354 355 356 356 356 355 354 353 352 352 352 352 350 348 343 335 329 323 318 315 313 310 307 302 298 294 290 287 283 280 277 275 274 273 274 276 277 278 280 282 285 285 285 283 280 278 279 280 283 285 287 289 292 296 298 302 305 307 311 315 322 330 338 343 348 352 356 360 364 367 370 372 375 378 383 387 392 397 401 407 411 415 420 424 429 434 440 446 452 460 468 474 476 476 475 473 468 460 453 447 441 437 431 424 418 418 420 421 421 420 417 413 410 406 403 401 398 394 391 390 392 394 395 395 394 394 394 392 389 387 381 375 371 367 360 352 347 344 341 341 343 343 339 334 330 326 322 316 309 302 299 296 295 294 294 295 295 296 297 298 298 297 296 295 293 291 290 291 295 303
351 353 353 353 350 347 344 340 336 333 332 331 330 329 328 328 330 330 329 329 329 331 333 333 329 328 326 325 323 324 325 325 327 328 328 327 327 327 327 327 329 329 329 328 327 326 326 325 325 321 317 314 310 308 304 300 300 298 297 297 295 295 293 293 292 292 292 291 292 292 293 292 292 292 292 292 292 292 292 292 292 292 292 292 294 295 297 300 301 301 302 300 299 299 299 300 300 298 296 293 293 293 291 291 290 290 290 290 290 290 290 291 293 296 299 302 306 312 316 316 315 315 315 314 312 312 312 306 300 299 295 289 288 288 288 288 288 288 288 288 288 288 288 288 288 288 288 288 288 288 288 288 288 288 288 288 289 292 293 295 297 300 302 305 306 308 310 311 311 310 310 311 311 311 310 310 310 310 310 310 311 308 306 303 301 297 294 291 288 286 284 280 278 277 276 275 272 269 266 264 263 261 260 257 254 254 254 254 254 253 251 250 247 246 244 242 239 237 235 234 232 230 228 225 225 223 222 222 222 220 219 219 218 218 218 217 217 216 216 215 213 212 212 211 211 211 211 211 211 211 212 212 212 211 211 211 211 211 211 210 210 210 210 209 210 211 211 213 214 215 216 217 219 223 226 230 232 234 236 237 238 238 237 236 234 233 232 231 228 226 224 224 223 221 220 219 216 212 207 206 207 209 212 214 217 220 222 222 222 222 220 218 216 217 217 214 212 212 213 215 217 219 222 224 226 229 232 233 236 239 242 243 245 247 248 249 251 251 252 255 256 256 257 258 258 258 257 257 256 255 254 253 252 251 250 250 249 248 248 248 248 247 247 247 247 247 246 246 246 246 245 244 245 246 247 247 247 247 246 246 245 243 242 241 240 239 238 239 240 241 241 241 242 242 241 241 241 241 241 241 241 241 241 241 241 241 241 240 238 238 238 238 240 242 242 243 243 243 244 244 244 245 245 244 244 244 244 244 244 244 244 244 244 244 244 244 244 244 244 244 244 244 244 244 244 244 243 243 243 244 244 244 245 245 246 246 246 247 247 247 248 248 248 249 250 252 253 254 256 257 258 259 260 261 261 261 261 261 260 260 259 258 257 256 256 256 257 257 257 257 257 256 255 254 253 253 254 255 257 258 259 261 261 262 263 263 263 262 262 262 262 261 262 261 260 258 257 255 254 253 251 250 250 250 250 250 250 250 250 250 250 250 250 250 250 250 250 250 253 259 260 261 262 262 262 262 261 261 259 258 262 267 273 279 285 291 296 300 305 311 316 322 327 332 337 338 341 343 344 346 347 347 348 350 352 353 354 356 357 358 358 356 355 353 351 350 351 351 350 348 343 335 329 322 317 313 312 310 309 303 299 294 290 287 282 280 277 274 271 271 272 274 275 276 277 280 281 281 281 279 277 277 279 281 284 286 288 289 292 296 298 302 306 308 312 316 324 332 339 345 350 353 357 362 366 369 372 375 377 380 385 389 393 398 402 407 413 418 423 428 434 439 445 451 458 467 473 477 480 479 478 475 470 462 455 449 444 440 436 429 424 424 426 427 427 426 423 419 416 413 409 407 404 400 398 397 398 399 400 400 399 399 399 398 394 392 386 379 374 369 361 354 349 348 345 345 347 347 344 338 331 326 322 314 306 301 298 298 298 298 299 300 301 302 302 302 302 301 300 298 296 294 292 292 295 301
346 348 350 351 350 348 345 341 337 334 331 329 327 325 324 324 327 327 327 329 330 332 334 333 327 325 323 323 323 323 324 325 327 329 328 326 326 327 327 327 329 329 329 327 326 324 323 323 322 319 317 314 310 304 299 295 293 292 293 294 293 293 292 292 292 292 292 291 292 292 293 293 293 293 293 293 293 293 293 293 293 292 292 292 291 292 294 297 298 299 300 300 300 300 301 301 300 299 298 295 293 293 291 291 289 289 289 289 290 290 290 291 293 294 297 298 303 311 315 316 314 313 313 313 311 310 309 305 299 296 292 288 288 288 288 288 288 288 288 288 288 288 288 288 288 288 288 288 288 288 288 288 288 288 288 288 290 292 293 294 297 299 301 303 305 307 309 310 310 310 310 311 311 311 311 311 311 311 311 311 311 310 308 306 304 300 297 294 291 289 287 283 281 278 277 276 275 273 271 269 267 265 264 260 258 257 258 258 258 257 256 254 251 249 247 245 242 240 237 236 234 232 229 226 225 224 222 222 222 220 220 219 218 218 218 217 217 217 217 215 213 212 211 210 210 210 209 209 210 211 211 211 211 210 210 210 210 210 210 209 209 209 209 210 211 211 212 213 213 214 216 217 219 222 226 229 231 234 236 236 237 238 238 237 234 233 233 231 229 227 225 224 223 222 220 219 218 214 209 206 206 208 210 213 216 219 220 221 221 219 218 216 215 215 214 212 212 212 213 216 217 219 222 224 225 228 230 232 235 238 241 242 245 247 248 249 251 251 253 255 256 256 257 258 258 258 258 257 257 256 254 254 252 250 249 249 249 248 248 248 247 247 247 246 246 246 246 246 246 245 244 244 244 245 246 246 247 246 245 245 245 242 242 241 239 238 238 238 240 240 240 241 241 241 241 241 241 241 241 241 241 241 240 240 240 240 240 239 238 238 238 238 240 241 242 243 244 244 244 244 244 245 245 245 245 245 244 244 244 244 244 244 244 244 244 244 244 244 244 244 244 244 245 244 244 244 243 243 243 244 244 244 244 245 246 246 246 247 247 247 248 248 248 249 250 251 252 253 255 256 257 258 259 261 261 261 262 261 261 261 259 259 258 257 257 257 257 258 259 258 258 257 256 255 254 254 254 255 257 259 260 262 263 264 265 265 265 264 264 263 262 262 262 262 261 259 258 257 256 254 252 251 250 250 250 250 250 250 250 250 250 250 250 250 250 250 249 249 250 256 260 260 262 262 262 262 261 260 257 257 262 267 273 279 284 290 295 299 304 310 315 321 326 331 336 338 341 343 346 347 348 349 349 350 352 353 354 356 357 358 358 356 354 351 349 348 349 349 348 346 341 335 327 321 315 310 310 309 308 304 299 294 290 286 282 278 276 272 269 269 270 272 273 274 275 276 277 277 276 275 275 278 280 283 285 287 288 289 292 295 298 301 306 309 312 317 325 334 340 346 351 354 358 363 367 370 374 377 380 384 388 391 395 399 403 408 414 420 426 431 438 444 450 456 464 472 477 481 483 483 480 477 472 464 457 451 447 443 439 433 430 430 432 433 433 431 429 426 422 419 416 413 410 407 405 404 404 404 404 404 404 404 404 402 399 396 389 382 377 371 364 357 354 352 350 350 351 351 348 342 333 326 320 312 306 302 300 301 302 304 305 306 307 309 309 309 307 305 304 302 299 296 293 293 296 301
341 342 344 347 348 347 345 342 338 335 332 330 327 324 323 323 323 324 325 329 331 331 333 329 324 323 322 322 322 323 324 324 326 327 327 326 326 327 328 328 328 327 326 326 325 324 323 322 321 316 314 313 309 301 294 292 291 291 291 291 292 292 292 292 293 293 293 292 292 292 293 294 294 294 294 294 294 294 294 294 293 293 292 292 291 292 292 293 294 296 297 298 299 300 301 301 301 300 298 296 293 293 291 290 289 289 289 289 289 290 290 291 292 293 294 295 299 306 311 313 312 312 313 312 311 309 308 306 302 297 293 288 288 288 288 288 288 288 288 288 288 288 288 288 288 288 288 288 288 288 288 288 288 288 288 288 290 292 293 294 295 297 299 302 304 306 308 308 308 309 309 311 311 311 311 311 311 311 311 311 311 310 310 308 306 303 300 297 294 291 289 286 283 280 279 278 278 277 276 274 272 268 267 263 261 261 261 261 261 260 259 257 255 253 250 247 245 243 240 238 236 233 230 226 225 224 223 223 222 221 220 220 219 218 218 217 216 218 218 215 213 212 211 210 210 210 209 209 209 210 210 210 210 209 209 209 209 209 209 209 209 209 209 210 211 211 211 212 213 214 216 217 218 222 226 229 231 234 235 236 237 238 238 237 235 234 233 232 229 228 227 225 224 223 222 220 219 216 211 206 206 208 210 211 214 217 218 219 219 218 216 215 213 212 212 211 211 211 212 215 217 219 222 223 225 227 229 231 234 237 240 242 245 247 248 249 251 251 253 255 256 256 257 258 258 259 258 258 257 256 255 254 252 250 249 248 248 248 248 247 247 246 246 246 246 246 246 245 245 245 244 244 244 245 246 246 246 245 245 245 244 242 242 241 239 238 238 238 239 239 240 240 240 240 240 240 240 240 240 240 240 240 240 240 239 239 239 238 238 238 238 238 240 241 241 243 244 244 244 244 244 244 245 245 245 245 245 245 245 244 244 244 244 244 244 244 244 244 244 244 244 244 245 245 245 244 244 244 244 244 244 244 244 245 245 245 246 246 246 247 248 248 248 249 249 250 252 253 254 255 256 257 258 260 262 262 262 261 261 261 260 259 259 258 258 258 258 259 261 260 260 259 258 257 256 255 255 255 258 259 261 263 265 267 267 267 267 266 266 265 264 264 263 263 262 261 260 260 258 256 254 251 250 250 250 250 250 250 250 250 250 250 250 250 250 250 250 250 250 255 259 260 262 262 262 261 260 258 256 257 262 267 272 279 284 290 294 298 304 309 314 319 324 329 335 338 341 344 346 348 350 351 351 351 351 351 352 354 355 355 355 354 352 349 347 346 347 347 346 343 339 333 325 319 313 306 305 306 305 302 297 292 288 284 280 277 274 271 268 267 268 270 271 272 273 273 273 273 273 274 275 278 281 283 285 287 289 289 292 295 298 301 306 309 313 318 326 334 341 347 352 355 359 363 368 372 376 379 383 387 391 394 397 401 405 409 414 421 428 435 442 449 455 462 470 477 482 486 487 486 483 479 474 467 460 454 450 445 441 437 436 437 438 439 438 437 435 432 428 425 422 419 416 414 412 411 411 410 409 408 408 408 407 405 402 399 392 385 379 373 367 362 360 358 356 355 355 355 352 346 337 328 321 314 307 303 302 305 309 311 311 312 314 316 318 317 315 312 309 306 303 299 295 295 298 303
336 337 339 341 343 344 343 340 338 335 333 331 328 324 324 323 322 322 323 328 329 329 328 324 322 322 322 322 322 322 323 323 323 324 324 326 328 329 329 328 327 325 324 324 324 324 323 322 321 314 310 309 305 298 292 292 293 294 293 291 292 293 294 295 295 295 295 294 293 293 293 293 293 294 294 294 294 294 294 294 293 293 293 293 292 292 292 292 291 293 295 296 297 298 300 301 301 301 298 296 294 293 291 290 289 289 289 289 289 289 289 290 291 292 292 293 298 304 310 314 310 311 312 312 309 307 307 307 306 299 295 289 288 288 288 288 288 288 288 288 288 288 288 288 288 288 288 288 288 288 288 288 288 288 288 288 289 291 292 293 295 296 298 301 304 305 307 307 308 308 309 311 311 311 311 311 311 311 311 311 311 311 310 309 306 304 302 300 297 295 292 289 286 283 281 280 280 280 280 276 274 269 267 266 265 265 265 265 265 264 262 260 259 256 253 250 247 245 242 240 237 234 230 226 225 224 223 223 223 221 221 221 219 218 218 217 216 217 217 215 213 212 211 210 210 210 210 209 209 209 210 210 210 209 209 209 209 209 209 209 209 209 209 210 211 211 211 212 213 213 215 217 218 221 225 228 230 233 234 236 237 238 238 237 235 234 233 232 230 229 228 226 224 224 222 221 220 218 212 207 206 207 209 210 212 214 216 217 217 216 214 213 212 212 212 211 211 211 212 215 217 219 221 223 224 226 229 230 233 237 240 242 245 247 248 249 251 251 252 255 256 256 257 258 258 259 259 258 258 257 255 254 252 250 249 248 248 248 248 247 247 246 246 246 246 246 246 245 245 245 244 244 244 244 245 245 245 245 245 245 244 242 242 241 239 238 238 238 239 239 240 240 240 240 240 240 240 240 240 240 240 239 239 239 239 238 238 237 238 238 238 238 240 240 241 243 243 243 244 244 244 244 245 245 245 245 245 245 245 245 245 245 244 244 244 244 244 244 244 244 244 244 245 245 245 244 244 244 244 244 244 244 244 245 245 245 246 246 246 246 247 247 248 249 249 249 251 252 253 254 255 257 258 260 261 261 261 261 261 261 260 260 260 259 259 259 259 260 261 261 261 260 259 258 257 255 255 256 258 260 262 264 266 268 269 269 268 268 267 267 266 265 264 264 263 263 263 262 261 259 257 253 250 250 250 250 250 250 250 250 250 250 250 250 250 250 250 250 250 254 258 260 261 261 261 259 258 256 255 257 262 266 272 279 284 289 293 297 302 307 312 317 322 327 333 337 340 343 346 348 351 352 352 350 349 349 350 351 352 352 352 352 350 346 343 342 343 343 342 339 335 329 322 316 310 302 299 300 300 298 293 289 286 282 278 275 272 269 267 267 267 268 268 269 270 271 271 271 273 274 275 278 281 283 285 287 288 289 292 294 297 301 306 309 313 319 326 334 341 348 353 357 360 364 369 373 378 382 386 390 394 397 401 405 408 411 416 422 429 438 447 454 460 468 476 482 487 491 493 490 487 482 477 471 464 458 452 447 444 442 443 443 444 444 443 442 440 437 434 431 428 425 423 421 419 418 417 415 413 412 412 412 411 408 404 401 394 387 381 375 370 367 366 365 362 360 359 358 356 350 341 331 324 318 312 306 305 311 316 318 318 318 320 323 325 326 324 320 315 310 306 302 298 297 300 306
331 332 334 335 337 338 339 338 336 335 332 330 327 324 323 322 322 322 322 324 326 325 323 322 322 322 322 321 321 322 322 322 323 323 324 326 330 329 329 329 328 326 324 324 323 323 322 321 318 311 306 305 300 294 292 294 297 299 297 294 295 297 298 299 298 298 297 296 295 293 293 293 293 293 294 294 294 293 294 294 294 294 294 294 293 293 293 292 291 292 293 293 295 297 299 301 301 300 298 296 293 292 290 290 289 288 288 288 288 289 289 289 290 291 291 293 299 304 310 315 309 309 310 310 308 306 306 307 307 302 297 291 288 288 288 288 288 288 288 288 288 288 288 288 288 288 288 288 288 288 288 288 288 288 288 288 289 290 290 292 293 295 298 300 303 304 306 307 307 308 309 310 310 311 311 311 311 311 311 311 311 311 310 310 307 305 304 302 300 298 295 292 289 285 283 283 282 281 279 275 273 270 269 269 269 270 270 270 270 268 266 264 263 260 257 254 250 247 244 241 239 236 232 228 226 224 224 223 223 221 221 221 219 218 218 217 216 216 216 214 212 211 211 211 211 211 210 210 210 210 210 210 210 209 208 208 208 209 209 209 209 209 209 210 210 210 211 212 212 213 215 216 217 220 224 226 229 231 232 234 236 236 236 236 235 234 233 232 230 229 228 226 226 225 224 222 221 219 214 208 206 206 208 209 211 212 214 215 215 213 212 211 211 211 211 212 212 213 214 215 217 219 220 222 223 225 228 230 232 235 238 241 243 245 247 249 250 251 252 254 256 256 257 258 258 258 259 258 258 257 256 255 253 251 249 248 248 248 248 247 246 246 245 245 244 245 245 244 244 245 244 243 243 243 244 244 245 244 244 244 244 243 242 241 239 237 237 237 238 239 239 239 239 239 239 239 239 239 239 239 239 239 238 238 238 238 237 237 238 238 238 239 240 240 241 242 243 243 244 244 244 244 245 245 245 244 244 244 245 244 244 245 245 244 244 244 244 244 244 244 244 244 244 245 245 244 244 244 244 244 244 244 244 244 244 244 245 246 246 246 247 247 248 248 249 249 250 251 252 253 254 255 256 258 259 260 260 260 261 261 261 260 260 260 259 259 260 261 262 262 262 261 261 260 259 257 257 258 259 260 262 265 267 269 270 270 270 269 268 267 267 266 266 266 265 265 265 264 264 264 262 258 252 250 250 250 250 250 250 250 250 249 250 250 250 250 250 250 250 254 256 259 260 259 259 258 256 255 255 257 262 266 272 278 283 288 293 296 300 305 310 315 320 325 331 336 339 342 345 348 351 352 352 350 347 346 346 347 348 348 348 348 346 342 338 338 338 338 337 335 330 324 318 313 306 298 294 293 293 292 290 287 284 280 276 273 271 268 267 267 267 267 268 268 268 270 270 272 273 274 275 278 280 282 285 287 288 289 291 294 297 301 305 310 314 319 327 335 342 349 354 357 361 365 371 375 380 385 389 394 398 401 405 409 412 414 418 423 431 441 450 458 465 473 481 488 495 499 499 496 491 486 481 476 470 462 456 451 449 448 449 449 449 449 449 447 445 442 439 436 433 430 428 426 425 424 422 420 418 416 416 415 414 410 406 403 395 389 383 378 375 373 371 370 367 365 363 362 359 354 346 336 329 323 316 309 310 318 323 326 326 325 326 329 332 334 332 328 322 315 309 305 301 300 304 310
328 328 330 331 332 333 334 334 333 333 330 328 325 322 322 322 322 322 322 322 322 322 322 322 322 322 321 321 321 321 321 322 322 323 324 326 329 329 329 329 328 327 324 323 323 323 322 320 314 309 304 302 296 293 295 297 302 304 303 299 301 303 303 303 302 302 300 299 297 294 293 293 293 293 294 294 294 293 294 294 294 294 294 294 293 293 293 293 291 291 292 292 293 295 299 300 300 299 297 294 292 291 290 290 289 288 288 288 288 288 288 288 289 290 291 292 297 302 306 311 307 306 308 308 306 305 306 306 306 304 299 294 288 288 288 287 288 288 288 288 288 288 288 288 288 288 288 288 288 288 288 288 288 287 287 287 288 289 289 290 292 294 297 299 302 304 305 307 307 307 308 310 310 312 311 311 311 311 311 311 311 311 310 310 307 306 305 303 300 299 298 295 292 288 285 283 282 280 278 275 274 273 273 272 274 274 275 275 274 272 271 269 266 264 261 258 254 250 246 243 241 238 235 231 228 226 224 224 223 222 221 221 219 218 218 217 216 215 215 213 213 211 211 211 211 211 211 211 211 210 210 210 210 209 208 208 208 209 209 209 209 209 209 210 210 210 210 212 212 212 215 216 216 219 222 225 228 230 232 233 234 235 235 236 234 233 233 232 230 230 229 227 227 226 224 222 222 220 216 210 206 206 207 209 210 211 212 212 212 212 211 211 211 211 211 212 212 213 214 216 216 218 220 222 222 225 228 229 231 234 237 240 243 245 246 248 250 251 252 254 255 256 256 258 258 258 259 259 258 258 256 256 254 251 249 248 248 247 247 247 246 245 245 244 244 244 244 244 244 245 244 243 243 243 244 244 244 244 244 244 244 243 243 241 238 237 237 237 238 238 239 239 239 239 239 239 239 239 238 238 238 238 238 238 238 237 237 237 238 238 238 239 240 240 241 242 243 243 244 244 244 244 245 245 245 244 244 244 245 244 244 245 245 245 245 245 244 244 244 244 244 244 244 245 245 245 244 244 244 244 244 244 244 244 244 244 245 245 245 246 247 247 247 248 248 249 249 250 251 252 253 254 255 257 258 259 259 260 261 261 261 261 261 260 260 260 260 261 262 262 263 262 262 261 260 259 259 259 259 261 263 266 268 270 271 272 272 270 268 268 268 267 268 268 268 267 266 266 266 267 267 262 256 251 250 250 250 250 250 250 250 249 250 250 250 250 250 250 250 254 255 256 257 258 258 257 255 255 255 257 262 266 272 278 283 288 292 295 298 303 308 313 318 323 328 334 337 340 343 347 350 353 353 349 346 343 341 341 342 342 342 342 341 337 334 333 333 333 332 329 323 318 313 308 301 294 290 287 287 287 286 284 281 277 274 272 269 267 267 267 267 267 268 268 268 270 271 273 275 275 276 277 279 281 284 287 288 289 291 294 297 300 305 310 315 320 327 335 342 349 354 357 362 366 372 378 382 388 393 398 402 406 410 413 415 417 421 425 433 443 454 462 470 478 485 494 503 507 506 502 497 491 486 481 475 467 460 455 455 455 455 455 455 455 454 453 451 448 445 441 437 434 431 430 429 429 427 424 422 420 419 417 416 412 407 404 397 391 386 383 382 381 378 377 374 371 368 366 363 359 351 341 333 327 319 312 315 324 330 332 333 332 332 335 339 341 339 333 327 319 313 309 304 303 308 314
328 327 327 328 329 329 330 330 330 330 328 326 323 322 322 322 322 322 321 322 322 322 322 322 322 322 320 321 321 321 321 321 321 322 324 326 327 328 328 328 327 326 323 322 321 322 322 318 311 305 301 298 294 295 300 302 305 308 308 305 307 308 308 308 307 306 304 302 299 296 294 293 293 293 294 294 294 294 294 294 294 294 293 293 292 292 293 293 291 291 291 292 293 293 297 299 299 298 296 293 292 291 290 289 288 288 288 288 288 288 288 288 288 289 290 291 294 299 301 306 304 303 305 306 305 304 305 305 306 305 300 296 291 288 288 287 288 288 288 289 288 288 288 288 288 288 288 288 288 288 288 288 288 287 287 287 288 288 288 289 291 293 296 299 302 303 305 306 307 307 308 310 310 312 311 311 311 311 311 311 311 311 310 310 307 306 305 303 302 300 299 298 295 292 288 285 281 279 277 277 277 276 276 275 277 277 278 278 277 275 274 272 270 268 264 261 258 254 249 246 244 241 237 233 231 229 226 225 224 222 221 221 220 219 218 217 215 215 215 214 213 211 211 211 211 211 210 210 210 211 210 210 210 209 208 208 208 208 208 209 209 209 209 210 210 210 210 212 212 212 214 215 216 218 221 223 226 228 230 232 233 235 235 235 234 233 233 232 230 230 229 228 227 226 225 224 222 220 218 212 207 206 207 207 209 210 211 211 211 211 211 211 210 210 210 212 212 213 214 216 216 218 219 221 222 225 227 229 230 234 236 239 242 244 246 248 249 250 251 253 255 255 256 257 257 258 259 259 258 258 256 256 254 251 249 249 248 247 247 246 245 245 244 244 244 244 244 244 244 244 244 243 243 243 243 243 244 244 244 244 244 243 243 241 238 238 237 237 238 238 239 239 239 239 239 239 239 239 238 238 238 238 238 238 238 238 238 238 238 238 238 239 240 240 241 242 242 242 243 244 244 244 245 245 245 245 245 245 245 244 244 244 245 245 245 245 245 245 244 244 244 244 245 245 245 245 244 244 244 243 243 243 243 244 244 244 245 245 245 246 247 247 247 247 248 248 249 250 250 251 252 254 254 256 257 258 260 261 262 262 261 261 261 261 261 261 261 261 262 262 263 263 263 262 261 260 260 260 260 261 265 267 269 270 272 273 273 271 268 268 268 269 271 272 272 271 269 268 267 267 267 264 261 256 254 251 250 250 249 250 250 250 250 250 250 250 250 250 251 254 254 254 255 256 257 256 255 254 254 257 262 266 271 277 282 287 291 294 297 300 305 310 315 320 325 330 334 338 341 344 347 350 351 349 345 341 338 336 335 336 336 337 335 333 329 327 328 328 326 322 317 311 306 301 295 290 287 284 282 283 282 281 278 275 272 270 267 266 266 266 266 267 268 268 269 270 272 275 277 276 277 277 279 281 284 287 289 289 291 293 296 300 305 310 315 321 328 335 342 350 354 358 362 367 373 379 385 392 397 402 407 411 415 417 419 420 423 427 436 446 457 465 473 481 489 498 508 514 515 510 503 497 491 484 479 472 464 460 461 462 462 462 461 460 459 458 457 454 450 446 442 439 435 434 432 432 431 429 426 423 421 419 417 413 408 405 399 394 391 391 391 390 388 385 381 377 373 370 368 363 355 345 336 330 322 315 320 329 335 338 339 338 338 340 345 346 344 338 331 324 319 314 309 308 314 320
332 328 326 326 326 326 326 326 326 326 326 323 322 322 322 322 322 322 321 322 322 322 322 322 322 322 320 321 321 321 321 321 321 322 323 325 326 327 326 326 325 322 320 320 319 318 318 313 306 300 297 296 295 299 305 307 307 310 311 309 312 313 313 313 312 310 308 306 303 299 295 293 293 293 294 294 294 294 294 294 294 294 293 293 292 292 292 292 291 291 291 292 292 292 295 297 297 296 294 292 292 291 289 289 288 288 288 288 287 288 288 288 288 288 289 290 292 296 298 302 301 300 303 304 303 302 304 305 305 304 300 297 293 290 288 288 288 288 288 289 288 288 289 288 288 288 288 288 288 288 288 288 288 289 288 288 289 288 288 288 289 292 296 298 301 303 304 306 307 308 309 310 312 313 311 311 312 311 311 311 311 310 310 309 307 306 306 304 302 301 301 299 298 295 291 286 281 279 279 281 281 279 278 278 281 281 281 281 279 278 276 275 274 272 268 265 262 258 254 250 246 242 237 234 233 230 227 226 224 223 222 221 220 219 217 216 215 214 214 214 213 212 211 211 211 211 209 209 209 210 210 210 209 208 208 208 208 208 208 208 209 209 209 209 209 209 210 211 211 212 213 214 215 217 220 222 225 227 229 231 232 233 234 234 234 233 233 232 230 230 229 228 228 227 226 225 223 221 218 214 209 206 207 207 208 209 209 209 210 210 210 210 210 210 210 211 212 213 214 215 216 217 218 220 222 225 227 228 230 233 236 238 241 243 245 246 248 249 251 253 254 255 256 257 257 258 259 259 258 258 256 256 254 252 250 249 248 247 247 246 245 244 244 243 243 243 243 243 243 244 243 243 242 242 242 242 243 243 243 243 243 243 242 241 238 238 237 237 238 238 239 238 238 238 238 238 238 238 238 238 238 238 238 238 238 238 238 238 238 238 238 239 240 240 240 241 242 242 243 243 243 244 244 245 245 245 245 245 245 244 244 244 245 245 245 245 245 245 245 244 244 244 245 246 246 245 244 244 244 243 243 243 243 244 244 244 244 245 245 245 246 246 247 247 248 248 248 249 249 250 252 253 254 255 257 258 261 263 263 262 262 262 262 261 261 261 261 261 262 262 263 263 263 263 262 262 261 261 261 263 266 268 270 271 273 274 273 270 268 268 270 273 277 278 277 275 273 271 269 268 267 265 263 261 259 255 253 251 249 250 250 250 250 250 250 250 250 250 251 254 253 253 254 254 255 255 254 254 254 257 262 266 271 277 281 286 291 294 296 299 302 307 312 317 322 327 332 335 338 341 344 347 348 347 343 339 336 333 330 330 331 331 330 328 324 321 320 321 319 315 309 303 298 293 289 286 284 281 278 277 277 276 274 272 269 267 266 266 266 266 266 267 268 269 270 271 272 276 277 277 277 278 279 282 285 289 290 291 292 294 296 299 304 310 315 321 328 335 342 349 354 358 363 368 375 381 389 396 401 407 412 416 418 420 422 424 426 430 439 449 459 467 476 483 491 500 510 518 520 516 510 503 495 489 483 475 467 464 467 469 469 468 466 465 464 463 461 459 455 451 447 443 439 437 436 435 434 432 429 426 423 420 418 414 409 406 401 397 397 399 400 399 397 393 387 381 377 374 371 367 359 349 339 331 324 319 325 334 341 344 345 344 344 346 350 351 349 342 334 328 324 318 312 313 319 326
337 332 329 327 325 325 324 324 323 323 323 323 322 322 322 322 322 322 322 323 323 322 322 322 322 322 321 321 321 321 321 321 321 321 322 324 325 325 325 324 322 318 317 317 316 314 311 305 299 297 297 297 297 303 308 310 310 311 313 312 314 316 318 318 317 314 312 309 306 302 298 295 293 293 293 294 294 293 294 294 294 293 293 293 293 293 293 292 292 291 291 291 291 292 293 294 295 294 293 292 291 290 289 289 288 287 287 287 287 287 287 287 287 287 287 288 289 292 295 297 298 298 300 301 301 300 302 303 303 302 300 298 295 292 289 288 288 288 288 289 289 290 290 288 288 288 288 288 288 288 288 288 289 290 290 290 290 288 288 288 288 292 295 298 301 302 304 306 307 308 309 310 312 313 312 312 312 311 311 311 311 310 309 309 307 306 306 305 303 302 302 301 299 297 293 288 283 280 282 284 283 280 279 280 284 285 285 284 282 280 279 278 277 275 272 270 266 261 257 253 248 243 239 236 233 230 227 226 224 223 222 222 220 218 216 214 214 213 213 213 212 211 211 210 210 209 209 209 209 209 211 211 209 208 208 208 208 208 208 208 209 209 209 209 209 209 209 210 211 211 212 214 215 216 219 221 224 226 228 230 231 232 233 233 233 232 232 232 230 230 230 229 228 228 226 225 224 222 220 215 211 208 207 207 207 208 209 209 209 210 210 210 210 210 210 211 212 212 213 214 215 216 218 220 222 225 227 228 230 233 235 237 239 242 244 245 247 249 250 252 253 254 255 257 257 257 258 259 259 258 256 256 255 253 251 250 248 247 247 246 244 244 243 243 243 243 243 243 243 243 243 242 242 242 242 242 242 242 242 242 242 242 241 241 238 237 237 237 238 238 238 238 238 238 238 238 238 238 238 238 238 238 238 238 238 238 238 238 238 238 238 239 239 239 240 241 241 241 242 242 243 243 244 244 244 245 245 245 244 245 245 245 245 245 245 245 245 245 245 245 245 245 245 246 246 245 244 244 244 244 244 244 244 244 244 244 244 245 245 245 246 246 247 247 247 247 248 249 249 249 251 252 253 254 255 257 260 262 264 263 263 263 263 262 261 261 261 261 262 262 263 263 263 264 263 262 262 262 262 265 267 269 270 271 272 273 271 269 268 270 274 279 282 282 281 279 278 276 273 271 268 267 265 264 262 260 257 255 251 250 250 249 250 250 250 250 250 250 252 254 254 254 254 254 254 255 255 255 255 258 262 266 271 277 281 285 289 292 294 297 300 304 309 313 318 324 329 333 336 338 341 343 344 343 341 337 333 330 326 325 326 326 326 324 320 315 312 311 311 307 301 295 290 286 283 281 279 277 273 273 272 271 270 269 267 266 265 265 266 266 267 268 269 269 270 272 272 275 276 277 277 278 280 284 287 290 292 293 294 295 297 299 304 310 315 322 327 334 341 348 354 358 363 369 376 384 392 399 405 411 415 419 422 424 426 428 430 433 441 450 460 469 477 485 493 502 512 520 523 521 515 508 500 494 487 479 470 467 470 473 473 472 471 469 468 466 465 463 460 456 452 447 443 441 439 438 436 434 431 428 425 421 418 415 410 408 404 401 401 404 406 406 403 398 392 384 380 377 374 369 362 352 342 333 327 324 329 337 346 349 350 350 350 353 355 356 352 346 337 331 327 321 317 319 325 331
341 337 335 332 328 326 327 326 325 324 323 323 322 322 322 322 323 323 323 323 323 323 322 322 322 322 321 321 321 321 321 321 321 320 320 322 323 323 323 321 318 315 314 314 314 311 305 299 297 298 300 301 302 306 311 313 314 313 315 315 316 318 321 322 321 319 315 312 309 305 301 297 293 293 293 293 293 293 294 294 294 293 293 293 293 293 293 293 292 291 291 291 291 291 292 293 293 293 292 291 291 290 288 288 288 287 287 287 287 287 287 287 286 286 286 286 286 288 290 293 295 296 298 299 299 299 301 301 300 300 300 299 296 293 291 289 288 289 289 289 290 290 290 289 288 288 288 288 288 288 289 289 289 290 290 290 290 289 289 288 288 291 295 297 300 302 304 306 307 308 309 311 312 313 313 313 313 311 310 310 309 309 308 308 307 307 307 305 305 304 304 303 301 298 294 289 284 282 284 286 284 282 281 283 287 288 288 287 285 284 282 281 279 277 275 273 270 265 261 256 250 245 241 238 234 231 229 227 225 224 223 222 220 217 215 213 212 211 211 212 211 210 210 210 209 209 209 209 209 209 210 210 209 208 208 208 208 208 208 209 209 209 209 210 209 209 209 209 210 211 211 212 213 215 217 220 222 224 226 228 230 231 231 231 231 231 231 230 230 230 230 229 230 229 228 227 225 223 220 216 212 209 207 207 207 207 207 208 209 209 209 209 209 209 210 210 211 211 212 214 214 215 217 219 221 224 226 228 229 232 234 236 238 241 243 244 246 248 249 251 252 254 255 256 256 257 258 258 258 258 257 257 256 253 251 250 248 247 247 246 244 243 242 242 243 243 242 242 242 242 242 242 241 241 241 241 241 241 241 241 241 241 240 240 238 237 237 237 237 238 238 238 238 238 238 238 238 238 237 237 237 238 238 238 238 237 237 238 238 238 238 238 239 239 239 240 241 241 242 242 242 243 244 244 244 244 244 244 244 244 244 245 244 245 245 244 245 245 245 245 245 245 245 246 246 245 245 245 245 244 244 244 244 244 244 244 244 244 244 245 246 246 246 247 247 247 248 249 249 249 251 252 252 253 254 255 258 260 263 263 263 262 262 262 261 261 261 261 262 262 263 264 264 264 264 263 263 263 264 266 267 269 269 269 270 270 268 268 269 274 280 284 285 286 285 283 282 280 277 274 272 270 268 267 265 263 261 258 255 253 251 249 250 250 250 250 250 251 254 255 255 256 255 254 254 255 255 255 255 258 262 266 271 276 280 284 288 291 293 295 298 302 305 310 314 320 325 329 333 336 338 340 341 339 337 333 330 327 323 322 321 321 321 320 316 310 304 302 302 299 293 288 285 281 278 276 274 272 270 269 269 268 267 266 265 265 265 265 266 267 268 269 270 270 271 272 272 274 275 277 277 278 281 285 288 291 293 295 296 297 298 300 304 309 315 321 326 333 340 347 352 358 362 369 377 385 393 401 408 414 418 423 427 429 431 433 435 437 443 451 461 470 478 486 494 502 513 520 524 523 519 512 505 498 491 482 473 469 473 475 476 475 475 473 472 470 468 466 464 461 457 452 448 444 442 441 439 436 433 429 426 422 419 416 412 411 408 405 404 405 407 407 406 402 396 387 381 378 375 371 364 355 345 335 329 327 332 340 349 352 354 355 356 358 360 360 355 349 340 334 330 325 323 326 331 336
345 345 343 339 335 332 332 332 330 326 325 324 323 323 323 323 323 323 324 323 323 323 322 322 322 322 321 321 321 321 321 321 321 319 318 319 319 319 318 317 314 312 311 310 310 307 301 299 299 302 306 308 311 312 313 316 318 317 318 318 317 320 323 326 325 323 319 315 311 308 304 300 295 293 292 293 293 293 294 294 294 293 293 293 293 293 294 294 293 293 292 291 291 291 291 292 292 291 291 291 290 289 288 288 288 286 286 286 287 286 286 286 286 286 286 286 285 285 286 289 292 294 296 297 297 298 299 299 299 298 298 298 296 294 292 290 288 289 289 289 290 290 290 289 288 288 287 287 287 288 289 289 289 289 289 289 289 288 288 288 287 291 294 297 300 302 304 306 307 308 309 311 312 313 314 313 313 310 310 310 309 308 308 308 308 307 307 306 305 305 305 304 302 299 296 290 286 283 285 286 285 283 283 287 291 291 291 289 288 287 285 284 282 279 277 275 273 269 264 258 253 248 244 241 238 234 232 230 229 227 226 224 222 219 216 213 211 211 211 211 210 210 210 210 210 209 209 209 209 209 209 209 209 208 208 208 208 208 208 209 210 210 210 209 209 209 209 209 210 210 211 212 212 214 216 218 220 223 225 227 229 230 230 231 231 231 231 230 230 230 230 230 231 231 230 228 226 224 221 216 212 210 208 207 207 207 207 207 208 208 208 209 209 209 209 210 210 211 212 213 213 214 216 219 221 224 226 227 228 231 233 235 237 240 242 243 245 247 249 250 251 253 254 255 256 256 258 258 258 259 257 257 256 254 252 250 248 247 247 246 244 243 242 242 242 242 241 241 241 242 242 241 241 241 241 241 240 241 241 241 241 240 239 239 238 237 237 236 237 237 238 237 237 237 237 237 237 237 237 237 237 237 238 238 238 237 237 238 239 238 238 238 238 238 239 240 240 241 241 242 242 243 243 244 244 244 244 244 245 244 244 245 244 245 245 244 245 245 245 245 245 245 245 246 246 246 245 245 245 244 244 244 244 244 244 244 243 244 244 244 246 246 246 247 247 247 247 248 248 249 250 251 251 252 253 254 256 258 260 262 261 262 262 261 260 260 260 261 262 262 263 264 264 265 264 264 264 264 266 266 267 268 268 268 268 268 268 269 273 280 285 288 289 290 289 288 286 284 281 278 275 273 271 269 267 266 264 261 258 255 252 250 249 249 249 250 250 252 254 256 256 257 257 256 255 255 255 255 256 260 263 267 271 276 279 283 286 289 291 293 296 299 302 306 310 316 321 325 330 332 335 336 337 335 333 330 327 324 319 318 317 316 317 316 313 307 300 295 292 289 286 282 279 276 274 272 271 269 268 267 266 266 265 264 264 265 265 266 267 268 269 270 271 271 271 273 273 273 275 277 277 278 282 286 289 292 295 297 298 299 300 302 304 309 315 321 326 335 341 347 352 357 362 369 377 385 394 402 410 416 421 427 431 434 437 439 441 443 445 452 462 470 478 487 494 503 513 521 524 524 521 515 508 501 494 485 476 473 474 476 478 478 478 476 475 473 471 469 467 464 461 456 452 448 445 443 441 438 434 430 426 424 421 419 416 415 412 409 407 406 406 407 406 403 397 389 382 379 376 371 365 355 346 338 331 329 334 343 351 355 357 358 359 361 363 364 359 352 345 338 333 329 328 331 336 341
349 351 351 348 344 339 338 338 335 331 328 326 325 324 324 323 323 324 324 324 323 323 323 323 323 323 322 321 321 322 322 321 321 320 319 318 316 316 316 315 313 312 311 308 307 304 302 301 302 308 313 317 320 320 318 320 322 321 322 320 318 320 324 329 328 327 323 318 314 309 305 301 296 293 292 293 293 293 294 294 294 294 295 295 295 295 296 296 295 295 294 292 291 291 291 291 291 291 290 290 289 289 288 288 288 286 286 286 287 286 286 286 286 285 285 286 285 285 285 286 288 291 293 294 296 297 298 298 298 298 298 298 296 294 293 290 288 289 289 289 289 289 288 287 287 287 287 287 287 287 288 288 288 288 288 288 288 288 288 288 287 290 293 296 299 301 303 305 307 308 310 313 314 314 314 313 313 310 310 310 309 308 308 308 308 307 307 307 306 306 306 304 303 301 298 292 288 285 287 287 285 283 283 289 294 294 294 292 291 290 288 286 284 281 279 277 276 272 268 262 256 251 247 244 242 239 236 234 232 231 229 227 224 221 218 215 212 210 210 210 211 211 211 211 210 210 209 208 208 208 209 209 209 208 208 208 208 208 208 209 210 209 209 209 209 209 209 208 208 209 210 211 212 213 215 217 218 221 223 225 227 228 229 229 229 229 229 229 230 230 230 230 231 231 231 230 227 225 221 216 213 210 209 208 207 207 207 207 207 207 207 208 208 208 208 209 209 210 211 211 212 213 214 217 220 222 225 226 227 230 232 234 236 239 241 243 244 246 248 249 250 252 253 254 255 256 257 257 258 258 258 258 257 255 253 251 249 248 247 246 244 243 243 242 242 242 241 241 241 241 241 240 240 240 240 239 239 239 240 240 240 240 239 239 238 237 237 235 237 237 237 237 237 237 237 237 237 237 238 238 238 237 237 237 237 238 238 238 238 238 238 238 238 238 238 239 240 240 241 242 242 242 242 243 243 244 244 244 244 245 245 245 245 245 245 245 245 245 245 246 245 245 245 246 246 246 245 246 246 245 245 244 244 244 244 244 243 244 244 244 246 246 246 246 247 247 247 248 248 249 249 250 251 251 252 253 254 256 257 259 259 260 260 259 258 259 260 261 262 263 264 265 266 266 265 265 265 265 266 267 267 268 268 268 268 268 269 272 279 285 289 291 292 293 294 293 291 288 285 282 279 277 274 272 269 268 266 264 259 256 252 250 250 250 250 250 251 253 254 256 257 258 259 259 257 255 255 256 258 262 265 269 272 276 278 282 285 287 290 292 294 296 299 302 306 311 316 321 326 328 331 332 332 330 328 327 324 320 316 314 312 310 311 311 309 305 297 290 285 281 279 276 273 271 270 269 268 267 266 265 264 264 263 263 264 265 266 267 268 270 271 271 272 272 273 273 273 274 276 277 278 279 282 286 290 293 296 297 299 300 301 304 305 309 314 320 327 336 343 349 354 358 362 369 377 385 394 402 410 417 423 429 434 438 442 445 448 449 449 454 462 469 478 487 495 504 513 521 523 523 521 516 510 503 495 486 477 475 475 478 480 481 480 479 477 475 474 471 469 467 464 461 457 452 447 445 442 439 436 432 428 426 425 423 421 419 415 412 408 407 407 406 405 403 397 389 383 380 376 372 365 355 346 339 334 331 337 346 353 357 360 361 362 364 367 368 364 357 352 345 338 333 333 336 341 345
352 355 356 355 351 346 344 343 341 338 333 330 327 326 326 325 325 326 326 326 325 325 325 325 325 325 324 323 322 322 323 324 324 322 322 320 316 316 316 316 316 316 314 310 307 305 305 304 307 314 320 324 328 329 327 325 327 327 326 322 322 323 325 329 329 329 326 321 315 310 306 301 297 293 293 293 293 293 295 295 295 296 297 298 298 298 299 300 299 297 297 295 293 292 292 291 291 290 289 289 288 288 287 287 286 287 286 286 286 286 286 286 285 285 285 286 285 285 285 286 286 288 292 294 295 296 296 297 297 298 298 298 296 294 293 291 289 288 288 288 288 288 287 287 287 287 287 287 287 287 288 288 288 288 288 288 288 288 288 288 288 289 292 296 299 300 303 305 307 308 311 315 315 315 315 314 313 311 310 310 310 309 308 308 308 308 308 308 307 307 306 304 303 302 299 294 290 287 288 287 285 284 284 290 296 297 297 295 294 292 289 287 285 283 281 280 278 275 271 266 260 255 250 247 245 242 239 237 236 235 233 230 227 224 221 218 214 211 210 210 210 210 210 210 210 210 209 208 208 208 209 209 209 209 209 209 208 208 208 208 210 209 209 209 209 209 209 208 208 209 210 211 211 212 214 215 217 219 220 222 225 226 227 227 228 228 228 229 230 230 230 231 231 231 232 230 228 226 221 216 213 210 209 209 208 207 207 207 207 207 207 207 208 208 208 208 209 209 210 211 211 212 213 215 218 221 224 225 227 229 231 233 236 238 240 242 244 245 247 248 249 251 252 253 254 255 257 257 257 258 258 258 257 255 254 252 250 248 247 247 244 243 243 242 242 242 242 241 241 241 240 240 240 240 239 238 238 239 240 240 240 239 239 239 238 237 237 235 237 237 237 237 237 237 237 238 238 238 238 238 238 237 237 237 237 238 238 238 238 237 237 237 238 238 238 239 239 239 241 241 241 242 242 243 243 243 244 244 244 245 245 245 245 245 245 245 246 246 246 246 246 246 246 246 246 246 246 246 246 246 245 245 245 244 244 244 244 244 244 245 246 246 246 246 247 247 247 248 248 248 249 249 250 250 251 252 253 254 255 256 257 257 257 257 257 258 259 261 262 263 265 266 266 267 266 266 266 266 267 267 268 268 268 268 268 270 273 278 285 290 293 295 296 297 298 297 296 293 289 286 283 281 278 276 273 271 268 266 261 256 254 251 251 252 252 251 252 253 254 255 257 259 261 261 260 257 257 259 261 264 267 271 274 276 278 280 283 285 288 290 292 294 296 299 302 306 312 317 321 324 326 327 327 326 325 324 321 317 313 311 307 304 304 305 304 301 295 289 282 276 273 270 269 268 267 266 266 265 264 264 263 263 263 263 264 266 267 269 270 271 273 273 274 275 275 275 275 276 278 279 280 281 284 287 290 293 296 298 300 301 303 306 308 309 313 319 327 336 344 350 355 359 363 370 377 385 392 400 409 416 423 429 434 439 443 448 452 454 454 457 463 470 479 487 496 505 514 521 523 523 521 517 509 503 494 485 477 475 475 478 481 481 481 481 480 478 477 474 472 470 468 465 461 456 451 447 444 441 438 434 431 430 429 428 425 423 419 415 410 408 407 405 405 402 397 389 383 380 377 372 364 355 346 340 335 334 339 348 354 358 362 363 365 368 371 372 370 364 359 353 345 339 337 340 344 349
