ncols         891
nrows         31
xllcorner     -71.7221322222
yllcorner     42.25776
cellsize      1.0E-5
NODATA_value  -9999
184 179 175 172 172 171 169 168 168 168 169 170 171 171 170 169 168 167 167 167 167 167 167 166 166 166 167 168 171 172 176 178 181 185 188 191 191 192 193 193 192 191 190 189 188 188 188 187 186 186 186 185 184 183 181 181 180 179 178 177 176 174 172 171 169 167 164 161 159 158 158 156 154 150 146 142 139 136 132 130 129 128 127 126 126 126 125 124 123 122 122 123 124 124 122 120 117 114 115 117 120 125 132 138 142 144 144 144 144 143 142 140 139 138 137 134 132 130 130 130 131 131 128 123 117 109 102 98 98 98 98 98 98 98 98 98 98 98 98 98 98 98 98 98 98 98 98 98 98 98 98 98 95 94 94 92 92 92 94 95 96 97 97 97 97 97 99 102 107 109 108 106 103 101 100 99 98 98 98 99 99 100 101 103 104 104 102 100 98 97 97 97 98 100 100 100 100 101 100 99 96 94 96 95 95 95 94 93 92 92 92 91 89 84 83 84 87 88 88 87 86 86 86 86 86 87 88 91 88 86 84 83 80 80 80 80 80 81 82 83 84 86 87 88 88 89 89 89 88 88 88 89 90 91 91 95 97 100 100 100 98 95 92 90 90 93 94 94 94 94 93 91 88 86 86 84 83 84 84 84 84 84 85 86 87 87 90 95 96 98 99 101 101 100 99 98 97 95 94 94 94 94 94 94 94 93 93 92 92 91 90 90 89 88 86 86 86 86 86 86 86 86 86 86 86 86 86 91 97 103 110 118 123 124 124 121 118 113 107 102 97 91 87 84 83 83 83 83 83 83 83 83 83 83 83 83 83 84 87 88 89 92 94 96 97 99 101 103 104 105 105 104 102 100 98 95 92 89 86 84 83 83 83 83 83 83 82 82 82 82 81 81 81 80 80 80 83 86 88 90 90 90 90 90 88 86 83 80 80 80 80 80 82 83 85 85 83 83 83 83 83 83 82 82 82 81 81 80 80 80 80 80 80 80 80 83 87 90 93 97 100 100 98 95 93 91 91 93 94 95 95 94 95 95 95 95 95 98 101 103 104 105 106 105 103 101 99 95 92 90 88 87 86 86 86 86 87 88 89 89 89 89 90 89 88 87 87 89 89 89 91 91 89 89 92 96 101 105 107 104 100 98 99 100 100 99 95 93 94 96 99 101 102 101 100 100 99 98 96 93 90 89 89 89 90 90 91 92 93 95 97 97 95 94 94 95 94 95 97 99 101 104 105 105 103 97 90 83 79 77 76 76 76 76 76 76 76 76 76 76 76 76 76 76 76 76 76 76 76 76 77 77 76 76 76 76 76 76 76 76 76 76 78 80 84 84 84 89 93 96 97 97 96 96 96 95 92 88 83 81 79 78 77 77 77 77 77 77 77 77 77 77 77 77 77 77 78 79 82 83 84 86 88 88 89 89 90 92 91 89 86 82 78 76 77 77 78 75 73 69 68 68 67 67 67 67 67 67 69 72 73 73 73 73 74 74 75 76 76 76 77 78 80 81 80 80 79 79 81 82 84 86 89 90 90 89 85 83 80 77 75 73 73 73 73 73 73 74 75 76 76 75 74 72 68 65 62 62 61 61 61 60 60 60 60 60 60 60 60 61 61 61 62 62 62 62 62 61 61 60 60 60 60 60 59 59 59 59 61 64 68 68 67 66 65 62 60 58 57 57 56 56 54 53 53 53 53 54 54 53 53 53 54 55 56 57 57 57 57 56 55 55 55 55 56 57 58 59 58 56 54 56 57 57 57 57 54 48 46 46 46 46 47 48 48 48 47 48 50 51 51 49 48 48 47 47 47 48 48 47 47 47 47 47 48 49 49 49 49 49 49 49 48 49 49 49 49 49 49 49 49 48 48 47 47 47 47 49 50 52 54 56 60 63 66 69 74 75 74 72 70 70 72 74 74 72 69 69 69 69 68 63 59 58 57 57 57 56 56 56 56 56 57 58 59 60 61 63 63 63 62 61 59 58 56 55 54 54 53 52 51 51 53 54 54 54 55 54 54 54 54
184 179 174 172 172 171 169 168 169 171 172 174 175 175 174 172 170 169 168 168 167 167 167 167 167 167 167 169 171 174 178 180 183 186 189 191 192 193 193 193 191 191 189 188 188 187 187 186 186 186 185 184 183 182 181 181 180 178 177 176 175 174 172 171 170 168 165 163 162 162 162 160 157 153 149 145 140 136 132 130 128 127 126 126 126 127 126 124 123 122 122 122 123 122 120 117 114 113 114 116 121 126 132 138 142 144 143 143 143 141 140 139 138 137 136 134 131 129 129 130 131 129 125 119 113 106 100 98 98 98 98 98 98 98 98 98 98 98 98 98 98 98 98 98 98 98 98 98 98 98 98 98 95 94 94 92 92 92 94 95 96 97 97 98 98 98 99 102 106 108 107 105 103 101 100 99 98 98 98 98 98 99 101 103 103 103 101 99 97 97 97 97 99 101 101 102 103 104 103 100 96 94 96 95 95 95 95 94 93 93 93 91 89 84 83 86 88 88 88 88 87 87 87 87 87 87 88 91 88 84 83 82 80 80 80 80 80 81 82 82 83 85 87 88 88 89 89 89 88 88 88 88 88 89 91 94 97 100 101 100 98 96 93 91 90 93 94 95 94 94 93 91 88 86 86 84 84 84 83 83 83 83 85 86 88 89 92 96 98 99 100 101 102 100 100 99 97 95 95 95 94 94 94 94 94 94 94 93 92 92 91 91 90 89 87 86 86 86 86 86 86 86 86 86 86 86 86 89 95 102 110 118 125 127 128 126 123 119 113 106 101 95 89 84 83 83 83 83 83 83 83 83 83 83 83 83 83 84 86 88 90 92 94 96 97 100 103 105 107 108 108 107 106 104 102 100 96 93 90 87 86 84 83 83 83 83 82 82 82 82 81 81 81 81 80 81 83 87 89 90 91 92 92 92 91 89 85 82 81 80 80 80 82 83 85 85 84 83 83 83 83 82 82 82 82 82 82 81 80 80 80 80 80 80 80 80 83 86 89 94 98 101 101 97 94 93 93 95 97 97 96 93 95 94 94 94 94 97 100 102 104 105 106 106 105 103 101 98 95 92 90 89 88 87 87 87 87 88 89 89 89 89 90 89 87 86 86 88 88 88 89 90 89 89 91 95 99 103 105 102 100 96 97 98 98 97 94 92 92 96 98 101 102 101 100 100 100 98 97 95 92 89 89 89 89 90 91 93 94 95 98 99 98 96 95 95 94 93 93 94 97 99 101 101 100 96 91 84 79 77 76 76 76 76 76 76 76 76 76 76 76 76 76 76 76 76 76 76 76 77 79 79 76 76 76 76 76 76 76 76 76 76 77 79 81 81 83 88 92 94 96 96 94 93 93 92 89 86 82 80 78 78 77 77 77 77 77 77 77 77 77 77 77 77 77 77 77 77 78 80 83 85 87 88 88 88 89 90 91 89 85 82 78 77 77 77 77 74 73 69 68 68 67 67 67 67 67 67 68 69 70 70 71 71 71 72 73 74 75 75 76 78 80 81 80 80 79 78 79 81 82 85 88 90 91 91 88 85 82 79 75 73 71 71 71 72 72 74 75 75 75 76 75 74 71 67 63 62 61 61 61 60 60 60 60 60 60 60 60 61 61 61 61 62 62 62 62 61 61 60 60 60 60 60 60 60 59 59 60 62 66 67 67 66 65 63 61 59 58 57 57 56 54 53 53 53 53 53 53 52 52 53 54 56 57 57 57 57 55 54 54 54 54 54 54 56 57 59 58 56 54 54 55 57 58 58 55 49 46 46 46 46 47 48 49 49 49 50 51 51 50 48 47 47 47 47 47 47 48 48 48 49 49 51 52 53 54 54 53 53 53 52 51 50 50 50 50 50 50 50 50 49 48 48 48 48 48 49 50 50 52 55 58 61 64 68 72 73 71 67 65 65 66 68 69 69 68 69 69 69 68 64 60 58 58 58 59 58 58 56 56 56 58 59 60 60 61 63 64 63 63 62 60 59 57 56 55 55 54 53 52 52 53 54 54 54 55 55 55 55 54
184 179 175 172 172 171 169 169 172 175 176 178 179 179 178 176 174 172 169 169 168 168 168 168 168 168 169 170 173 177 179 181 184 188 190 192 192 193 192 192 191 191 189 188 188 187 186 185 185 185 184 183 182 181 180 179 178 177 176 175 175 174 172 171 170 168 166 165 166 167 167 165 161 156 151 146 141 136 132 129 128 127 125 125 126 126 126 124 124 122 122 122 122 120 117 115 113 113 115 118 122 126 131 136 140 142 141 141 141 140 140 139 138 137 135 133 131 128 128 129 129 126 121 114 108 103 99 98 98 98 98 98 98 98 98 98 98 98 98 98 98 98 98 98 98 98 98 98 98 98 98 98 96 94 94 92 92 92 94 95 96 97 97 98 98 98 99 101 105 106 106 104 102 101 100 99 98 97 96 97 97 98 100 103 104 103 100 98 98 98 98 98 100 101 102 103 104 106 105 102 98 95 96 95 95 95 95 95 94 93 93 91 87 85 85 88 90 90 88 88 88 88 88 88 88 88 88 89 87 84 83 82 80 80 80 80 80 81 82 82 83 84 86 87 87 87 87 87 87 87 87 87 86 89 92 95 98 101 102 101 100 98 95 92 92 93 94 95 94 94 92 91 88 86 86 85 84 84 83 83 83 83 85 87 89 91 95 98 100 101 101 101 102 100 99 98 97 95 94 94 93 92 92 92 92 92 92 93 93 92 92 91 90 89 87 86 86 86 86 86 86 86 86 86 86 86 86 87 94 100 108 117 125 129 131 129 127 123 118 111 105 98 92 86 83 83 83 83 83 83 83 83 83 83 83 83 83 84 86 89 91 93 95 97 98 101 105 107 108 109 110 110 111 109 106 104 101 98 96 93 90 87 85 83 83 83 82 82 82 82 82 82 83 81 81 81 83 86 89 90 92 94 95 94 93 91 88 84 82 80 80 80 82 83 84 85 84 83 83 83 83 82 82 82 82 82 81 81 80 80 80 80 80 80 80 80 80 82 86 91 95 100 101 100 96 94 94 96 99 97 94 93 94 94 93 93 93 95 99 101 103 105 106 106 106 105 103 101 97 94 92 90 89 88 87 87 87 88 89 89 89 89 90 89 87 86 86 86 86 86 87 88 87 88 90 93 97 101 101 100 98 96 95 96 96 95 93 92 92 95 98 101 102 101 100 100 100 98 97 95 94 91 89 89 89 90 91 93 94 96 100 102 101 100 99 98 96 95 93 90 92 94 96 97 97 95 91 84 80 77 76 76 76 76 76 76 76 76 76 76 76 76 76 76 76 76 76 76 77 79 80 79 76 76 77 77 77 77 77 77 77 77 77 78 80 80 82 86 90 91 93 94 93 91 90 89 86 84 80 78 76 77 77 77 77 77 77 77 77 77 77 77 77 77 77 77 77 77 77 78 82 84 86 87 88 88 88 88 89 87 84 80 77 76 75 75 75 73 71 68 68 68 67 66 66 66 66 66 67 68 68 69 69 70 70 71 72 72 73 74 75 77 80 81 80 80 79 77 77 79 80 83 86 89 92 94 91 88 85 81 77 74 70 69 69 70 71 72 73 74 75 75 76 76 73 69 65 62 61 61 61 60 60 60 60 60 60 60 60 60 60 60 61 62 61 61 61 61 61 60 60 60 60 60 60 60 59 59 60 61 63 66 66 66 64 63 61 59 58 57 57 56 55 53 53 53 52 53 52 51 50 52 53 54 55 55 55 55 53 53 53 53 52 52 53 55 57 58 58 56 54 53 54 56 58 58 57 52 47 46 46 46 47 49 50 50 50 50 50 50 48 47 47 47 47 47 47 47 48 49 49 52 53 55 56 56 57 57 56 56 55 54 53 52 52 52 52 51 51 51 51 50 49 48 48 48 48 49 49 49 50 53 56 59 62 65 69 69 66 63 61 61 61 63 65 66 67 67 68 68 67 65 61 59 59 60 61 61 60 58 58 58 59 61 62 61 61 63 64 64 65 63 61 60 58 57 57 56 56 54 53 53 54 54 55 55 55 57 57 56 54
184 180 175 172 172 171 170 172 175 179 180 183 184 182 181 179 177 175 172 171 170 170 170 169 169 169 171 173 177 179 181 183 186 189 191 192 193 193 192 192 192 191 189 187 187 186 185 184 184 184 184 183 181 180 180 179 178 176 175 174 174 173 172 171 170 168 168 168 170 171 170 168 163 157 152 146 141 135 131 128 127 127 125 125 125 126 126 125 124 123 122 122 120 118 116 113 113 113 116 119 122 126 130 133 137 139 139 138 138 139 139 139 137 136 135 132 130 127 127 128 128 125 119 112 107 102 100 99 99 98 98 98 98 98 98 98 98 98 98 98 98 98 98 98 98 98 98 98 98 98 98 98 96 94 94 92 92 92 94 95 96 96 98 98 98 98 99 101 104 105 104 102 101 100 99 99 98 96 96 96 97 98 100 102 104 102 99 98 98 99 99 99 101 102 102 104 106 107 106 103 101 97 98 97 95 95 95 95 93 93 91 89 86 86 87 89 91 90 89 89 88 88 88 88 88 88 88 87 86 84 83 82 80 80 80 80 80 81 82 82 83 84 85 85 85 85 85 85 86 87 87 86 86 88 92 96 100 102 103 102 101 99 96 94 94 95 96 96 95 94 92 91 88 87 86 85 84 84 83 83 83 83 86 88 91 93 97 100 103 103 103 101 101 99 98 97 97 95 94 94 93 92 91 91 91 91 91 92 93 93 92 92 90 89 88 86 86 86 86 86 86 86 86 86 86 86 86 86 92 98 106 115 123 128 131 131 130 126 121 114 108 101 95 88 83 83 83 83 83 83 83 83 83 83 83 83 83 84 87 90 92 94 96 98 99 103 106 109 110 111 113 114 115 113 111 108 105 103 101 98 94 91 88 86 84 84 83 83 83 84 85 85 84 81 81 81 83 85 87 89 92 95 96 95 94 93 90 87 84 81 80 80 82 83 83 85 85 83 83 83 83 82 81 81 81 81 81 81 80 80 80 80 80 80 80 80 80 81 84 89 93 98 100 101 99 95 93 95 98 95 92 92 92 92 92 92 92 93 97 100 102 104 105 106 106 106 105 103 100 97 94 92 91 89 88 88 88 88 89 89 89 89 90 89 87 86 85 85 85 85 86 87 86 86 88 92 95 98 98 98 97 95 95 94 94 94 93 92 92 94 97 100 101 101 100 100 100 98 97 95 95 92 90 89 89 89 91 92 94 96 101 104 105 105 104 102 100 98 95 90 89 91 93 94 94 93 90 84 80 78 76 76 76 76 76 76 76 76 76 76 76 76 76 76 76 76 76 77 78 79 79 78 77 77 78 78 78 78 78 78 78 78 78 78 80 80 82 85 87 88 90 91 91 89 87 86 84 82 78 77 76 76 77 77 77 77 77 77 77 77 77 77 77 77 77 77 77 77 77 77 79 82 85 87 87 87 88 87 86 85 82 79 75 74 74 74 73 71 70 68 68 67 67 66 66 66 66 66 67 67 67 68 69 69 69 70 70 71 71 72 74 76 78 80 80 79 78 77 77 77 78 80 83 87 90 93 94 91 87 83 80 75 70 68 68 68 70 71 73 74 74 75 77 77 75 71 66 63 62 61 61 61 60 60 60 60 60 60 60 60 60 60 61 61 61 61 61 61 61 60 60 60 60 60 60 60 59 59 60 61 62 64 65 66 64 63 61 59 58 58 58 57 56 55 54 53 52 52 51 50 50 51 52 53 53 53 53 52 52 52 52 52 51 51 52 55 56 58 57 56 54 53 53 55 57 57 58 55 50 47 47 49 50 51 50 50 50 49 47 47 46 46 47 48 48 48 49 49 50 51 52 55 56 57 57 57 58 60 60 59 58 57 55 55 54 54 54 53 52 52 52 51 49 49 48 48 48 49 49 49 49 50 53 56 59 62 65 65 63 60 59 59 59 60 62 64 65 65 66 66 65 64 61 59 60 62 62 62 61 60 60 60 60 62 62 62 62 63 64 65 65 64 62 61 60 58 58 57 56 55 54 54 54 54 55 55 55 58 59 57 55
183 180 175 173 172 171 171 175 179 183 185 187 187 187 185 182 180 179 177 175 174 173 172 171 171 172 175 178 180 182 183 185 187 190 192 193 193 193 192 192 192 190 189 187 186 185 184 183 183 183 183 182 181 180 179 178 177 176 174 173 173 172 171 170 169 169 169 170 171 172 172 168 163 157 151 146 141 134 130 128 127 126 125 124 124 126 126 125 124 123 122 120 119 116 114 113 113 113 115 119 122 125 128 131 134 136 135 135 135 137 138 138 137 135 134 131 129 126 125 126 126 123 118 112 107 104 102 101 101 99 98 98 98 98 98 98 98 98 98 98 98 98 98 98 98 98 98 98 98 98 98 98 96 96 96 94 92 92 93 94 95 96 98 98 98 98 99 100 102 103 102 100 100 99 98 97 96 95 95 96 97 97 100 102 102 100 99 99 99 100 101 101 102 103 103 106 108 109 108 105 103 100 99 97 96 96 94 93 91 91 89 89 88 87 87 89 91 90 89 89 88 88 87 87 87 87 86 86 85 84 83 82 80 80 80 80 80 80 81 82 83 83 83 83 83 83 83 85 86 86 85 85 86 88 91 96 101 103 104 103 102 100 98 96 96 97 97 96 95 93 92 91 89 88 86 85 84 83 83 83 83 83 87 90 95 97 101 104 105 106 104 101 99 98 98 97 96 95 94 93 92 91 90 89 90 90 91 92 94 94 93 92 91 90 89 87 86 86 86 86 86 86 86 86 86 86 86 86 90 96 104 113 121 126 130 131 130 127 122 116 110 104 96 89 83 83 83 83 83 83 83 83 83 83 83 83 83 84 88 91 93 95 97 99 100 104 107 110 112 114 116 118 119 118 116 114 111 108 105 102 99 95 92 89 87 86 86 86 86 87 87 87 85 82 81 81 82 84 85 87 91 93 95 95 95 95 92 89 86 83 80 80 82 83 83 84 85 84 83 83 82 81 81 80 80 80 80 80 80 80 80 80 80 80 80 80 80 80 82 86 91 96 98 100 100 96 93 93 94 93 92 92 92 92 92 92 92 92 95 98 101 103 104 105 106 107 106 103 101 99 97 94 92 91 89 88 88 88 89 89 89 89 90 89 87 86 84 84 84 84 85 86 86 86 88 90 93 95 96 96 96 94 93 93 93 93 92 92 92 93 95 98 100 101 101 101 100 98 97 95 95 93 92 90 90 90 90 92 93 95 101 106 110 111 111 108 106 102 98 92 89 89 90 91 91 91 89 85 81 79 77 76 76 76 76 76 76 76 76 76 76 76 76 76 76 76 76 77 79 79 79 78 78 78 79 79 78 78 79 79 79 79 79 79 80 80 82 83 85 86 87 89 89 88 85 83 82 80 77 76 76 76 77 77 77 77 77 77 77 77 77 77 77 77 77 77 77 77 77 77 77 79 83 85 87 87 88 86 85 83 80 77 74 73 72 72 72 70 69 67 67 67 66 66 66 66 66 66 66 66 66 67 67 67 68 68 68 69 69 71 73 75 76 78 78 78 77 76 75 75 75 76 79 83 88 91 93 92 90 86 82 76 72 68 67 67 68 71 72 73 74 75 77 77 76 73 68 64 62 62 62 61 60 60 60 60 60 60 60 60 60 60 60 61 61 61 61 60 60 60 60 60 60 60 60 60 59 59 59 60 61 62 64 65 64 63 61 59 59 58 58 58 57 56 56 54 53 51 50 50 50 50 51 52 52 52 52 51 51 51 51 51 51 51 51 54 55 57 57 56 55 53 53 54 56 57 56 55 53 51 51 53 52 52 49 48 48 46 46 47 47 48 49 50 50 51 51 51 52 52 53 55 57 58 58 59 60 63 64 64 63 62 59 58 57 56 56 55 54 53 52 51 50 49 48 48 48 49 49 49 49 49 51 54 56 59 61 61 61 58 57 57 57 59 60 61 63 63 63 63 63 62 61 61 61 62 62 62 61 61 60 60 60 62 62 62 62 62 63 64 65 64 63 62 61 60 59 58 57 56 55 54 54 54 55 55 55 57 58 57 55
182 178 175 173 172 172 174 179 183 187 188 190 192 192 190 188 186 184 182 180 179 177 175 174 174 176 179 181 183 183 185 186 189 192 193 194 194 193 192 192 192 190 188 187 186 185 183 183 183 183 182 181 180 179 178 177 176 175 174 173 171 170 170 169 168 168 168 170 170 170 169 165 161 155 149 145 141 135 131 129 127 125 124 123 123 125 126 125 124 123 122 120 118 115 113 113 113 113 115 119 122 123 126 129 131 132 132 133 134 135 137 137 136 134 132 130 129 126 124 123 124 121 116 110 106 106 104 103 102 100 98 98 98 98 98 98 98 98 98 98 98 98 98 98 98 98 98 98 98 98 98 98 97 97 97 95 93 92 93 94 95 96 98 99 100 100 100 100 101 101 100 100 99 98 97 96 95 95 95 95 96 97 99 100 100 98 98 100 101 101 101 102 102 103 103 107 110 111 110 108 106 103 101 99 98 96 94 92 91 90 89 90 89 89 88 89 90 90 89 89 88 88 87 86 86 86 85 85 84 83 83 82 81 80 80 80 80 80 80 81 82 82 83 83 83 83 83 85 85 85 85 84 84 87 91 96 101 104 105 105 103 101 100 98 97 97 98 96 94 93 92 91 89 88 87 86 84 83 83 83 83 85 89 94 99 101 104 107 108 107 105 102 98 98 97 96 96 94 93 92 92 91 89 89 89 89 91 93 94 94 94 94 93 91 90 87 86 86 86 86 86 86 86 86 86 86 86 86 88 94 101 110 118 124 128 129 128 126 121 116 111 105 96 89 84 83 83 83 83 83 83 83 83 83 83 83 83 85 89 92 94 96 98 100 102 105 108 110 113 116 119 122 123 123 121 119 116 113 110 107 104 100 96 92 90 89 89 89 89 89 88 88 85 82 82 82 82 83 84 86 89 92 94 95 95 96 95 92 89 85 81 81 82 84 84 84 85 85 84 83 82 81 80 80 80 80 80 80 80 80 80 80 80 80 80 80 80 80 82 84 88 93 95 98 99 97 93 91 91 91 91 91 91 91 91 91 91 92 93 96 99 101 103 104 105 107 106 104 103 101 99 96 94 92 90 88 88 88 89 90 90 90 91 89 87 86 84 83 83 84 84 85 85 85 87 88 91 92 94 94 94 93 92 92 92 92 92 92 92 92 94 97 98 100 101 101 100 99 98 96 95 94 93 92 91 91 91 92 93 95 100 107 114 117 117 115 112 107 101 95 90 89 88 88 89 90 88 85 83 81 78 77 76 76 76 76 76 76 76 76 76 76 76 76 76 76 76 77 78 79 79 80 80 80 80 80 79 78 78 79 79 79 79 80 80 80 81 83 84 85 86 87 88 87 84 83 80 77 77 76 76 76 77 77 77 77 77 77 77 77 77 77 77 77 77 77 77 77 77 77 77 77 80 83 86 87 88 86 84 82 80 76 73 71 70 70 70 69 68 67 67 67 66 66 66 66 66 66 66 66 66 66 66 66 67 67 67 68 69 71 72 74 75 75 76 76 75 75 74 73 73 72 75 79 85 89 91 91 92 89 84 79 74 69 67 67 67 70 72 72 73 74 76 77 76 74 69 65 63 62 62 62 61 60 60 60 60 60 60 60 60 60 60 61 61 61 60 60 60 60 60 60 60 60 59 59 59 59 59 60 60 61 63 64 64 63 61 59 59 58 58 58 57 57 56 55 54 51 50 50 50 50 51 51 51 51 51 51 51 51 51 51 51 51 51 52 54 56 56 55 53 52 52 54 55 56 55 55 53 53 52 52 51 50 48 47 47 46 47 49 51 51 52 51 52 52 52 52 53 53 54 56 58 58 60 61 64 67 68 70 69 68 66 65 63 61 60 60 58 56 54 52 50 49 49 49 49 49 49 49 49 49 51 52 53 56 58 58 58 57 56 56 56 57 58 59 60 61 61 61 61 61 61 61 61 61 62 61 61 61 61 61 61 62 62 62 61 62 63 64 64 64 63 62 61 61 60 58 57 56 56 55 55 55 55 55 55 56 57 57 56
180 177 175 173 173 173 177 182 186 189 191 194 197 196 194 192 190 188 186 184 181 180 178 178 177 179 182 183 184 185 186 188 190 193 194 194 194 193 193 193 191 190 188 187 186 184 183 182 182 181 181 180 179 178 177 176 175 174 173 172 171 170 169 168 167 167 167 167 167 166 164 161 158 153 147 143 140 135 132 130 127 125 123 122 122 124 126 125 124 123 122 120 118 115 113 113 113 113 114 118 121 122 124 126 128 130 131 133 135 137 138 137 135 133 131 130 128 125 123 123 121 118 113 107 105 106 105 104 102 100 98 98 98 98 98 98 98 98 98 98 98 98 98 98 98 98 98 98 98 98 98 97 97 97 97 96 93 91 93 95 96 97 98 100 102 103 101 100 100 100 100 99 98 97 97 96 95 95 95 95 96 96 98 98 98 98 99 101 102 102 102 102 103 103 103 106 110 113 113 111 109 106 103 101 99 97 95 92 91 91 91 92 91 91 90 89 89 90 89 89 88 87 87 86 86 85 85 84 83 83 83 82 81 80 80 80 80 80 80 80 81 81 82 82 83 83 83 85 85 85 85 84 84 87 92 96 101 104 105 105 104 102 100 98 98 98 97 95 94 93 92 91 89 88 88 87 85 83 83 83 83 86 92 97 102 104 107 108 108 107 105 101 98 97 96 95 94 93 92 92 91 90 89 89 89 89 92 94 95 95 96 96 95 92 91 88 86 86 86 86 86 86 86 86 86 86 86 86 86 92 100 108 115 121 125 126 124 122 119 114 109 103 96 88 83 83 83 83 83 83 83 83 83 83 83 83 83 86 90 93 95 97 99 101 103 106 108 111 114 117 121 125 127 127 126 123 121 118 115 111 108 105 100 96 94 92 91 90 90 89 88 88 85 82 82 82 82 83 84 85 88 91 93 95 96 96 96 92 89 86 82 82 83 85 85 85 85 86 85 83 81 80 80 80 80 81 81 81 80 80 80 80 80 80 80 80 80 80 81 84 87 90 92 96 97 95 93 90 90 90 91 91 91 91 91 91 91 92 92 94 97 99 101 103 105 107 107 105 104 102 100 97 94 92 90 88 87 87 89 90 91 91 91 89 87 85 84 83 83 83 83 84 84 84 86 87 89 90 91 92 92 92 91 90 90 91 91 91 92 92 94 96 97 100 102 102 101 99 98 97 96 95 94 93 91 91 91 92 93 95 99 107 115 119 121 120 117 112 103 98 91 89 88 88 88 89 88 85 83 81 79 78 76 76 76 76 76 76 76 76 76 76 76 76 76 76 76 77 78 79 79 80 82 82 80 79 78 78 78 79 79 79 79 80 80 80 81 83 84 85 85 87 87 87 84 83 80 77 77 76 76 76 77 77 77 77 77 77 77 77 77 77 77 77 77 77 77 77 77 77 77 77 79 81 85 87 88 86 85 82 80 76 72 70 69 69 69 68 67 67 66 66 66 66 66 66 65 65 65 65 65 65 65 66 66 66 66 68 69 70 71 73 73 73 73 74 74 73 72 71 70 70 71 75 80 85 87 89 92 92 87 82 77 72 67 67 67 70 71 72 72 73 75 77 76 75 70 66 64 62 62 62 61 60 60 60 60 60 60 60 60 60 60 61 61 61 60 60 60 60 60 60 60 59 59 59 59 59 59 59 59 60 62 64 64 64 62 59 59 58 58 58 57 57 56 56 55 51 50 50 50 50 51 51 51 51 51 51 51 51 51 51 51 51 51 51 53 54 54 52 52 52 52 54 55 55 54 53 52 51 50 50 49 48 47 47 47 47 49 52 53 53 52 52 52 52 53 53 54 54 55 56 58 59 61 64 66 69 72 74 75 74 73 72 71 70 69 66 64 61 58 54 51 49 49 49 49 49 49 49 49 49 50 51 52 53 55 57 57 56 56 56 56 56 57 57 58 59 59 60 60 60 60 61 61 61 61 62 62 62 62 61 61 62 61 61 61 61 62 63 63 63 63 62 61 61 60 58 57 57 57 56 55 55 55 55 56 56 56 56 56
178 177 175 173 173 175 179 185 188 191 193 198 200 199 197 196 194 191 188 186 184 183 182 181 180 181 184 185 186 187 188 190 192 194 195 195 194 193 192 192 191 189 188 186 185 183 182 181 180 180 179 179 178 176 175 174 173 173 172 171 170 168 167 166 165 165 164 162 161 161 159 157 154 149 145 141 138 135 132 130 128 125 122 122 122 124 125 125 124 123 121 120 118 114 113 113 113 113 113 116 119 120 123 126 127 129 131 134 136 137 138 136 134 132 130 128 127 124 123 121 119 115 109 104 104 106 106 104 102 99 98 98 98 98 98 98 98 98 98 98 98 98 98 98 98 98 98 98 98 98 98 97 95 95 95 95 93 91 93 95 96 98 99 101 106 107 103 100 99 99 99 98 98 97 96 95 95 95 95 95 95 96 96 96 97 98 100 102 103 104 104 103 103 103 103 104 107 110 112 112 111 108 105 101 99 96 95 94 93 94 94 95 95 95 93 90 90 89 89 89 88 87 86 86 85 85 84 83 83 83 83 83 81 80 80 80 80 80 80 80 80 80 80 81 82 83 82 83 83 83 83 82 84 88 93 98 102 105 107 107 105 103 101 99 98 98 97 95 93 93 91 90 89 88 87 86 86 83 83 83 83 88 95 100 105 106 108 108 108 106 103 101 98 96 95 94 94 92 92 91 90 90 89 89 89 90 92 94 95 97 98 98 97 94 92 88 86 86 86 86 86 86 86 86 86 86 86 86 86 91 98 106 113 118 122 122 120 118 115 111 107 101 94 87 83 83 83 83 83 83 83 83 83 83 83 83 83 87 91 93 95 99 101 103 105 107 109 111 114 117 121 127 129 130 129 127 125 123 119 116 112 109 104 100 97 95 93 92 91 90 89 88 85 83 83 83 83 83 84 86 88 90 93 95 96 96 96 92 89 86 84 83 84 85 85 86 86 86 85 84 81 80 80 80 81 83 83 83 80 80 80 80 80 80 80 80 80 80 80 83 85 88 90 92 94 93 91 89 89 90 90 91 91 91 91 91 91 91 91 92 94 97 99 101 103 105 105 105 104 102 101 98 95 92 90 88 86 86 88 90 90 90 90 88 86 85 83 83 83 83 83 83 83 83 85 86 87 88 88 90 90 90 90 90 90 90 91 91 92 92 93 95 96 98 101 101 101 100 100 99 97 96 94 93 92 92 92 92 92 94 99 105 113 118 121 121 121 116 107 99 93 89 87 86 87 87 87 85 83 81 79 78 77 76 76 76 76 76 76 76 76 76 76 76 76 76 76 77 78 78 79 80 82 82 80 78 77 77 77 78 78 79 79 80 80 80 81 83 84 85 86 89 89 89 86 83 80 77 77 76 76 76 77 77 77 77 77 77 77 77 77 77 77 77 77 77 77 77 77 77 77 77 78 80 84 87 87 87 86 84 80 76 72 70 68 67 67 66 66 66 66 66 65 65 65 65 65 65 65 65 65 65 65 65 65 65 65 67 69 70 71 72 72 71 71 72 72 71 69 68 68 68 69 71 75 80 84 87 89 91 90 85 80 76 70 67 67 69 70 70 70 71 74 76 76 75 71 68 65 63 62 62 61 60 60 60 60 60 60 60 60 60 60 60 60 60 60 60 60 60 60 60 60 59 59 59 59 59 59 59 59 60 61 63 65 65 62 59 59 58 58 58 57 56 56 55 55 51 50 50 50 50 50 50 51 51 51 51 51 51 51 51 51 51 51 51 51 52 51 52 52 52 53 53 53 53 52 51 50 49 49 50 48 47 46 46 46 49 52 54 54 54 53 52 52 52 54 55 56 56 57 58 59 61 63 66 68 71 75 77 78 78 78 77 77 76 75 73 69 66 62 58 54 51 49 49 49 49 49 49 49 49 50 51 52 52 54 55 55 55 55 55 55 55 55 56 56 57 57 58 59 59 59 61 61 61 62 63 64 63 62 62 61 61 61 61 60 60 61 62 62 62 62 61 61 60 59 58 57 56 56 56 55 55 55 55 55 55 56 56 56
178 176 174 174 174 176 180 185 188 193 196 201 202 201 201 199 197 195 192 190 188 187 186 185 184 185 186 187 188 189 190 191 193 195 195 195 195 193 192 191 189 188 187 186 184 182 180 180 179 179 178 177 176 175 174 173 172 171 170 170 169 168 166 165 163 162 161 159 157 156 154 153 149 145 142 140 137 134 132 131 129 126 123 122 122 123 125 125 124 123 121 120 117 113 113 113 113 113 113 114 116 119 123 126 127 129 131 133 135 136 136 134 132 130 128 128 126 124 124 122 118 111 105 104 104 105 106 103 102 98 98 98 98 98 98 98 98 98 98 98 98 98 98 98 98 98 98 98 98 98 97 95 95 94 94 94 93 92 94 96 97 98 100 103 110 109 103 100 99 99 98 98 97 96 96 95 95 95 95 95 95 95 96 96 96 98 101 103 105 105 105 104 104 103 103 103 104 106 110 111 110 107 104 101 99 96 96 96 96 97 98 99 99 99 97 93 91 90 89 89 88 87 86 85 85 84 84 83 83 83 83 83 81 81 81 80 80 80 80 80 80 80 80 81 81 81 80 81 81 81 81 82 85 90 94 99 103 107 108 108 106 104 101 99 98 97 96 94 93 92 91 90 88 87 86 86 85 83 83 83 83 90 96 102 105 106 107 106 105 104 101 99 98 96 94 93 93 92 91 90 90 90 89 89 89 91 93 95 96 98 99 99 99 97 94 90 86 86 86 86 86 86 86 86 86 86 86 86 86 90 97 104 111 116 119 119 117 113 110 107 103 97 90 85 83 83 83 83 83 83 83 83 83 83 83 83 84 88 92 94 97 100 103 105 107 108 109 112 114 117 121 127 130 132 132 130 128 126 124 121 117 113 109 104 100 97 95 93 92 91 90 88 86 85 84 85 85 85 86 87 89 91 93 95 96 95 94 92 88 87 86 85 85 85 86 87 87 86 85 85 81 80 80 82 84 85 86 84 80 80 80 80 80 80 80 80 80 80 80 81 84 86 87 89 90 90 88 88 88 89 90 91 91 92 92 91 91 90 90 91 91 93 96 98 100 102 104 104 103 102 101 99 95 92 89 87 86 86 87 88 88 88 88 87 85 84 83 83 83 83 83 83 83 83 83 84 85 86 86 87 88 88 90 90 90 90 91 91 92 92 92 94 95 97 99 101 102 101 101 100 99 98 96 94 93 93 92 92 92 94 97 103 110 115 118 119 120 118 109 101 95 90 87 86 86 86 86 84 82 80 80 79 77 76 76 76 76 76 76 76 76 76 76 76 76 76 76 77 78 78 79 79 81 81 80 79 78 78 77 78 78 79 80 80 80 80 81 83 84 85 87 91 91 91 88 84 80 77 77 76 76 76 77 77 77 77 77 77 77 77 77 77 77 77 77 77 77 77 77 77 77 77 76 78 83 86 87 87 87 85 82 78 72 69 67 67 66 65 65 65 65 65 65 65 65 65 65 65 65 65 65 65 65 65 65 65 65 66 68 69 71 74 72 69 68 70 70 69 67 66 66 66 66 68 71 75 80 83 86 89 90 87 83 79 73 68 67 69 69 68 68 70 73 75 76 75 72 69 67 65 63 62 61 61 60 60 60 60 60 60 60 60 60 60 60 60 60 60 60 60 60 60 60 59 59 59 59 59 59 59 59 59 60 62 64 65 63 60 59 59 59 58 57 56 55 55 53 51 50 50 50 50 50 50 51 51 51 51 51 51 51 51 51 51 51 51 51 52 52 53 53 51 51 51 52 51 50 49 49 49 49 50 49 47 46 46 46 50 53 55 55 55 53 53 53 53 55 57 57 57 57 58 60 62 65 68 71 74 77 80 82 82 81 80 80 79 79 77 73 69 66 62 57 53 50 49 49 49 49 49 49 50 50 50 51 51 53 54 55 55 55 55 55 55 55 55 55 56 57 57 57 57 59 61 62 63 64 66 67 66 64 62 61 61 60 60 60 60 60 60 61 61 61 60 60 59 58 57 56 56 56 56 56 55 55 55 55 55 55 55 55
177 175 174 174 175 177 180 185 190 196 199 203 204 205 205 204 201 198 196 194 193 191 190 188 187 188 188 189 190 191 191 192 194 195 195 195 195 194 192 191 189 187 186 185 184 182 180 178 178 177 176 176 175 174 173 172 171 170 169 168 167 166 165 164 162 159 159 157 154 152 151 149 147 144 143 140 138 135 134 132 130 127 123 122 122 122 123 124 123 122 121 120 116 113 113 113 113 113 113 113 114 117 121 124 126 128 130 131 133 133 133 131 130 129 128 127 126 125 124 124 118 110 105 105 104 104 105 103 101 98 98 98 98 98 98 98 98 98 98 98 98 98 98 98 98 98 98 98 98 98 97 95 94 93 93 93 93 93 95 96 96 98 100 106 111 107 102 100 98 98 97 97 97 96 96 95 95 95 95 95 95 95 95 95 96 98 101 104 106 107 107 106 105 104 104 104 104 104 107 108 107 105 103 101 99 98 98 98 99 100 102 103 104 104 101 97 94 91 90 90 88 87 86 85 85 84 84 83 83 83 83 83 82 81 81 80 80 80 80 80 80 80 80 80 80 80 80 80 80 80 80 84 87 91 95 99 104 108 109 109 107 105 101 99 98 97 96 94 93 92 90 89 87 86 84 84 84 83 83 83 83 90 96 101 104 105 105 103 102 101 99 98 97 95 94 93 92 91 90 90 89 89 89 89 90 91 93 95 97 98 100 101 101 100 97 93 88 86 86 86 86 86 86 86 86 86 86 86 86 90 96 103 110 115 117 116 113 109 105 102 97 92 86 83 83 83 83 83 83 83 83 83 83 83 83 83 85 89 93 96 99 102 106 107 108 109 110 112 113 116 120 125 129 132 133 132 130 128 127 125 121 117 113 108 104 100 97 95 93 92 91 90 88 87 87 87 88 88 89 89 91 93 94 95 96 94 93 91 90 88 87 86 86 86 86 87 87 87 85 84 82 80 81 83 85 87 87 84 80 80 80 80 80 80 80 80 80 80 80 80 83 85 86 87 87 87 87 86 87 89 90 91 92 93 93 92 91 90 90 90 90 90 92 94 97 99 101 102 102 101 100 99 95 91 88 87 86 86 86 86 86 86 86 85 84 83 83 83 83 83 83 83 83 83 83 83 84 85 86 87 89 91 92 93 93 92 92 93 93 93 94 94 95 96 98 100 101 102 101 101 100 99 97 95 93 93 93 92 92 93 96 101 107 112 114 115 117 116 109 102 96 92 88 86 86 86 86 84 84 83 82 81 79 77 76 76 76 76 76 76 76 76 76 76 76 76 76 76 77 78 78 79 80 81 81 81 80 78 77 77 78 79 80 80 80 80 82 83 84 86 88 92 93 93 90 85 80 77 77 76 76 76 77 77 77 77 77 77 77 77 77 77 77 77 77 77 77 77 77 77 77 75 73 75 80 85 87 88 88 87 84 80 74 69 67 65 65 64 64 64 64 64 64 64 64 64 64 64 64 64 64 64 64 64 64 64 65 66 67 68 71 73 71 67 66 68 69 68 66 64 64 64 63 64 67 70 74 78 82 86 89 88 85 81 76 70 67 67 67 66 67 69 71 74 76 76 73 70 67 65 64 62 61 61 60 60 60 60 60 60 60 60 60 60 60 60 60 60 60 60 60 60 59 59 59 59 59 59 59 59 59 59 60 61 63 64 63 60 59 59 59 58 57 56 55 54 53 50 50 50 50 50 50 50 51 51 51 51 51 51 51 51 51 51 51 51 52 52 52 52 52 50 50 50 51 51 50 49 49 49 49 51 49 47 46 46 47 51 54 55 55 55 54 53 53 53 55 56 57 57 57 58 61 63 66 70 73 76 79 84 86 86 86 85 85 83 82 80 75 70 68 64 60 56 51 49 49 49 49 49 49 49 50 50 50 50 51 52 53 54 54 54 54 54 54 54 55 55 56 56 56 56 58 61 64 65 67 69 69 69 66 63 61 60 60 60 60 59 59 59 60 59 59 59 59 58 57 56 56 56 56 56 55 55 55 55 55 55 55 55 54
176 175 175 175 177 179 182 187 193 199 201 205 207 209 210 209 205 201 198 197 196 195 194 192 190 191 191 191 192 192 192 194 195 196 196 196 195 194 192 191 189 187 185 184 183 181 179 177 177 176 176 175 174 173 172 170 169 168 168 167 166 165 164 162 160 157 156 155 152 150 149 149 146 145 144 142 139 137 135 134 131 128 124 122 122 122 122 122 121 121 120 118 114 113 113 113 113 113 113 113 113 116 120 122 124 126 128 129 130 130 130 129 130 129 128 127 126 125 124 124 117 110 107 107 105 102 103 101 99 98 98 98 98 98 98 98 98 98 98 98 98 98 98 98 98 98 98 98 97 97 95 94 93 93 93 93 93 93 94 94 95 96 100 107 110 105 100 99 98 98 97 97 97 96 96 95 95 95 95 95 95 95 95 95 96 99 102 105 107 108 108 107 106 105 104 104 104 104 106 106 106 104 103 101 99 99 100 101 102 104 105 107 107 107 104 100 95 93 91 90 89 87 86 85 85 84 84 84 84 84 84 84 82 81 81 80 80 80 80 80 80 80 80 80 80 80 80 80 80 80 81 85 88 92 96 100 104 107 109 108 107 105 101 99 98 96 95 93 92 91 89 87 85 84 84 84 84 84 83 83 83 88 94 98 101 101 101 100 99 98 97 97 96 94 93 92 91 90 89 89 89 89 89 89 90 91 93 96 98 99 101 102 103 103 100 96 92 88 86 86 86 86 86 86 86 86 86 86 86 89 95 102 109 114 115 113 109 105 101 96 91 87 83 83 83 83 83 83 83 83 83 83 83 83 83 83 86 90 94 97 101 105 108 108 109 110 111 112 113 115 118 122 126 129 131 131 131 130 129 128 125 121 117 112 108 102 99 97 94 93 93 92 91 90 90 90 91 91 92 92 94 94 95 96 96 94 93 93 92 90 88 87 87 86 86 86 86 87 85 84 83 81 80 83 85 87 87 83 80 80 80 80 80 80 80 80 80 80 80 80 82 83 84 85 86 86 85 85 86 88 89 91 93 94 94 92 91 89 89 89 89 89 89 91 93 95 98 100 100 100 99 98 95 90 88 88 86 86 86 85 85 85 84 83 83 83 83 82 82 82 82 83 83 83 83 83 84 86 88 90 92 94 95 96 96 95 94 94 94 94 95 95 95 96 97 98 99 100 101 101 101 100 99 96 94 94 93 92 92 92 95 99 104 108 110 111 113 113 108 102 97 93 89 87 86 86 86 86 86 86 85 83 81 78 77 77 76 76 76 76 76 76 76 76 76 76 76 76 77 77 77 78 79 80 81 81 80 77 77 77 78 79 80 80 81 81 82 84 85 86 89 94 95 94 92 87 82 77 77 76 76 76 77 77 77 77 77 77 77 77 77 77 77 77 77 77 77 77 77 76 76 72 69 71 76 81 86 88 88 88 86 82 75 69 66 65 64 63 63 63 63 63 64 64 64 64 64 64 64 64 64 64 64 64 64 64 65 66 66 66 68 70 68 65 64 66 67 66 64 63 62 62 62 62 64 66 69 73 77 82 87 88 85 82 76 71 68 65 65 65 66 67 70 73 76 76 74 71 68 66 64 63 61 61 60 60 60 60 60 59 59 59 60 60 60 60 60 60 60 60 60 59 59 59 59 59 59 58 58 59 59 59 59 60 61 63 63 61 59 59 59 58 56 56 55 54 52 50 50 50 50 50 51 51 51 51 51 51 51 51 51 51 51 51 51 51 50 50 50 50 49 49 49 50 50 50 50 49 49 49 51 52 49 47 46 46 49 53 54 55 56 56 55 54 53 53 55 56 57 57 57 58 62 65 67 71 75 77 81 87 90 91 91 91 90 89 87 84 78 73 68 65 62 58 53 50 49 49 49 49 49 49 50 50 50 50 50 50 51 53 53 54 54 54 54 54 54 55 55 55 55 56 58 61 66 68 69 72 72 72 68 65 62 60 60 60 59 59 59 59 59 59 59 58 58 57 57 56 56 56 56 56 55 55 55 55 55 55 55 54 54
176 175 175 176 177 181 185 190 195 201 203 207 210 213 213 212 209 205 201 199 199 198 197 195 194 193 193 193 193 193 194 195 196 196 196 196 194 193 192 191 189 187 184 183 183 181 179 177 176 175 175 174 173 172 170 169 168 167 166 165 164 163 162 160 157 155 154 152 150 148 148 148 147 146 145 143 140 137 136 135 133 130 126 123 122 122 122 121 121 120 119 116 113 113 113 113 113 113 113 113 113 114 118 120 123 124 126 127 128 128 127 127 128 129 128 127 125 124 124 122 116 110 108 108 106 102 101 99 97 97 97 98 98 98 98 98 98 98 98 98 98 98 98 98 98 98 98 97 97 96 95 94 93 93 93 93 93 93 94 94 94 95 100 107 108 102 99 98 98 97 97 96 96 96 95 95 95 95 95 95 95 95 95 95 97 100 102 105 108 110 109 108 107 105 104 104 104 106 108 109 107 105 105 102 101 101 102 104 105 107 109 110 110 108 106 102 96 93 91 90 89 87 86 85 85 84 84 84 85 85 84 84 82 81 81 81 80 80 80 80 80 80 80 80 80 80 80 80 80 80 81 84 89 92 96 100 104 107 108 107 107 104 101 98 97 95 94 92 91 90 87 85 84 83 83 83 83 83 83 83 83 86 90 94 96 97 97 96 96 95 95 95 94 93 92 91 90 89 89 89 89 89 89 89 90 91 93 95 97 99 101 103 104 105 103 99 95 91 87 86 86 86 86 86 86 86 86 86 86 88 94 102 108 112 113 110 106 101 96 91 86 83 83 83 83 83 83 83 83 83 83 83 83 83 83 83 86 91 95 99 103 107 109 110 111 112 112 112 112 113 116 120 123 126 128 129 129 129 130 130 128 124 120 116 111 105 101 98 96 95 95 95 94 93 93 94 94 94 95 95 95 96 96 96 96 95 95 94 93 91 89 88 87 86 85 85 86 86 85 85 82 80 80 82 84 86 85 81 80 80 80 80 80 80 80 80 80 80 80 80 81 82 82 83 84 84 84 84 85 87 89 91 93 94 94 92 90 88 88 88 88 87 87 88 89 91 94 97 98 99 98 97 95 91 88 88 86 86 86 85 85 85 83 83 83 83 83 82 82 82 82 82 83 83 83 85 86 88 91 93 95 97 97 98 98 97 97 96 95 96 96 96 96 97 97 97 98 99 101 101 101 101 101 98 94 94 94 92 92 92 94 97 102 105 106 107 109 109 105 100 97 93 90 89 88 87 88 89 89 89 88 86 82 79 79 79 78 76 76 76 76 76 76 76 76 76 76 76 76 76 77 77 78 79 80 81 79 77 77 78 79 79 80 80 81 82 83 84 85 86 91 95 95 95 93 90 84 78 77 77 77 77 77 77 77 77 77 77 77 77 77 77 77 77 77 77 77 77 77 76 75 68 66 68 72 77 82 86 89 89 87 84 76 70 67 65 63 62 62 62 62 63 63 63 63 63 64 64 64 63 63 63 63 63 64 64 65 65 65 65 65 65 64 63 62 63 64 64 62 61 61 60 60 60 61 63 66 68 72 77 82 85 84 81 76 72 68 64 64 64 65 66 69 72 75 76 75 72 69 67 65 63 61 61 60 60 60 60 60 59 59 59 59 59 59 59 59 60 60 60 60 59 59 59 59 59 58 58 58 58 58 59 59 60 60 61 62 61 59 59 59 58 56 55 54 54 51 49 49 49 49 50 51 51 51 51 51 51 51 51 51 51 50 50 49 49 48 47 47 47 47 48 48 49 49 49 49 49 50 51 53 52 48 46 45 46 50 54 55 56 56 57 56 56 55 55 55 56 56 56 56 59 63 66 68 72 75 78 82 89 93 95 96 96 95 94 92 89 83 76 70 66 64 60 54 51 50 49 49 49 49 49 50 50 50 50 50 50 51 52 53 53 53 53 53 53 53 54 54 55 55 55 57 62 68 70 71 74 74 73 71 67 63 60 60 60 59 59 59 59 59 59 58 58 57 57 57 56 56 56 56 56 55 55 54 54 54 54 54 54 54
176 176 176 177 177 181 188 194 198 203 205 210 213 216 216 214 212 208 205 201 200 199 198 198 197 195 195 194 194 195 195 195 196 196 196 195 194 192 191 190 189 186 184 183 182 180 179 176 175 175 174 173 172 170 169 168 167 165 164 163 162 161 160 158 156 153 151 150 148 147 147 147 147 146 145 143 141 138 137 136 134 131 127 125 123 122 122 121 120 120 119 117 115 113 113 113 113 113 113 113 113 113 116 118 121 122 124 125 126 125 125 126 127 128 127 125 124 123 122 120 115 112 110 109 107 102 100 97 97 97 97 98 98 98 98 98 98 98 98 98 98 98 98 98 98 98 98 97 96 95 95 94 93 93 93 93 93 93 94 94 94 95 100 105 106 101 97 97 97 97 97 95 95 95 95 95 95 95 95 95 95 95 95 95 98 101 103 106 109 110 109 109 107 106 104 103 104 108 111 112 111 109 107 104 103 104 104 105 108 111 112 112 112 110 107 103 97 93 91 89 88 87 86 85 85 86 85 85 85 85 84 84 82 81 81 81 80 80 80 80 80 81 81 81 80 80 80 80 80 80 80 83 87 90 95 99 103 106 107 107 105 103 100 98 96 94 93 91 89 88 85 84 84 83 83 83 83 83 83 83 83 83 85 89 92 93 93 93 93 93 94 94 93 92 91 90 90 89 89 89 89 89 88 89 89 90 92 94 95 98 101 103 106 106 106 102 98 94 90 86 86 86 86 86 86 86 86 86 86 88 94 101 108 111 110 108 103 97 91 86 83 83 83 83 83 83 83 83 83 83 83 83 83 83 83 83 86 91 96 100 104 108 110 112 113 113 112 110 110 111 113 117 120 122 124 126 127 127 128 130 130 126 122 119 114 108 103 99 98 98 98 97 97 96 96 97 96 96 96 96 96 96 97 97 97 96 96 95 93 91 90 89 86 85 84 84 85 86 85 85 82 80 80 82 83 84 84 81 80 80 80 80 80 80 80 80 80 80 80 80 80 81 81 82 82 82 83 83 84 85 87 89 92 94 94 92 89 88 87 87 87 86 86 87 87 88 90 93 94 96 97 96 95 92 88 88 87 86 86 85 85 85 83 83 83 83 83 82 82 82 82 82 83 83 84 85 87 90 92 94 97 98 98 99 98 98 98 96 96 97 97 97 97 97 97 97 97 99 100 101 101 101 102 99 95 94 93 92 92 92 93 96 99 101 102 104 105 106 103 99 97 94 92 91 90 89 90 91 92 91 90 87 83 81 81 81 80 78 77 76 76 76 76 76 76 76 76 76 76 76 76 77 77 77 78 79 77 77 77 79 79 80 81 81 82 83 84 85 86 87 91 95 96 96 94 92 87 80 77 77 77 77 77 77 77 77 77 77 77 77 77 77 77 77 77 77 77 77 76 75 71 64 63 65 69 72 77 82 88 89 88 85 77 71 67 65 63 62 62 62 62 62 63 63 63 63 64 63 63 63 63 63 63 63 63 64 65 65 64 64 63 63 62 62 62 62 62 61 61 60 60 60 60 60 60 60 62 64 67 70 76 80 81 78 74 71 67 63 63 64 64 66 68 71 74 76 76 74 70 68 66 64 62 61 61 61 60 60 60 59 59 59 59 59 59 59 59 59 59 60 60 59 59 59 58 58 58 58 58 58 58 59 59 59 60 60 61 60 59 59 59 58 56 55 54 52 49 49 49 49 49 50 51 51 51 51 51 51 51 51 51 51 50 49 47 47 47 47 47 47 47 47 48 48 49 49 49 50 51 52 52 50 47 45 45 46 50 54 56 57 57 57 57 57 57 56 56 56 56 56 56 59 63 66 69 72 75 79 82 89 94 98 100 100 100 98 96 92 86 79 72 68 65 61 56 51 50 49 49 49 49 50 50 50 50 50 50 51 51 52 52 52 53 53 53 53 53 54 54 55 55 55 57 63 70 72 74 76 77 75 72 68 64 61 60 60 59 59 59 59 59 59 58 58 57 57 57 56 56 56 56 56 55 55 54 54 54 54 54 54 54
177 176 177 179 179 183 191 197 201 205 208 212 216 219 219 217 214 212 208 204 201 200 200 200 198 197 196 195 195 196 196 196 196 195 195 195 194 192 190 190 188 186 183 182 181 180 178 176 174 173 172 172 171 169 169 168 167 165 163 161 160 160 158 157 155 152 150 148 147 146 146 147 146 145 144 142 141 138 137 136 135 131 128 126 125 123 122 121 121 121 120 119 117 114 113 113 112 112 112 112 112 112 114 116 118 120 122 123 124 123 123 124 126 127 126 123 122 122 121 120 116 114 112 110 107 103 100 98 98 98 98 98 98 98 98 98 98 98 98 98 98 98 98 98 98 98 98 97 95 95 94 94 93 93 93 93 93 94 94 94 94 95 98 103 102 99 97 97 97 98 97 95 95 95 95 95 95 95 95 95 95 95 95 96 99 102 104 106 109 110 110 109 108 107 105 103 104 108 111 113 114 111 109 107 105 106 106 106 110 113 116 116 114 112 108 103 97 94 92 90 88 87 86 86 86 87 86 84 84 84 83 83 82 82 82 81 81 82 81 81 81 82 83 82 80 80 80 80 80 80 80 81 84 88 93 97 102 104 105 105 103 101 99 96 94 92 91 88 87 86 84 83 83 83 83 83 83 83 83 83 83 83 83 84 88 89 89 89 90 92 93 93 92 91 91 90 89 89 89 89 89 89 88 88 89 89 90 92 95 98 102 104 107 108 108 105 101 97 93 89 86 86 86 86 86 86 86 86 86 88 94 101 107 110 108 106 100 93 87 83 83 83 83 83 83 83 83 83 83 83 83 83 83 83 83 83 86 91 96 100 105 108 111 113 113 113 112 109 108 109 111 113 116 118 120 122 124 125 126 128 128 127 123 119 115 110 105 101 100 100 101 101 100 99 99 98 97 97 97 97 97 97 98 97 97 97 96 95 94 92 91 90 86 84 83 83 83 86 86 86 82 81 80 82 82 83 83 81 80 80 80 81 81 81 81 80 80 80 80 80 80 80 80 80 81 81 82 82 83 84 86 87 90 93 92 90 88 86 86 87 87 85 86 86 86 86 87 89 91 93 95 94 94 92 89 88 87 86 86 85 85 85 84 84 83 83 83 83 82 82 82 82 83 84 85 86 88 91 93 96 98 99 100 100 99 100 99 98 97 97 97 97 97 97 97 97 97 98 99 100 100 101 102 100 96 94 93 92 92 92 92 94 96 98 99 101 102 103 102 99 97 95 93 93 92 91 92 93 94 93 91 89 85 84 83 83 82 80 79 77 76 76 76 76 76 76 76 76 76 76 76 76 76 76 77 77 77 77 77 79 79 81 81 82 83 84 85 86 87 88 92 96 98 97 95 94 90 83 78 77 76 76 77 77 77 77 77 77 77 77 77 77 77 77 77 77 77 77 77 73 63 62 60 62 65 69 73 77 83 87 87 85 78 72 68 65 63 62 61 61 61 62 62 63 63 63 63 63 63 63 63 62 62 62 62 63 63 63 63 62 62 61 61 61 61 60 60 60 60 60 60 60 60 60 59 59 59 61 63 65 69 73 75 74 71 69 65 62 63 64 64 65 68 70 73 76 76 74 72 69 67 65 62 61 60 60 60 60 60 59 59 59 59 59 59 59 59 59 59 59 59 59 59 59 58 58 58 58 58 58 58 58 59 59 60 60 60 60 59 58 58 57 56 55 53 50 49 49 49 49 49 49 51 51 51 51 51 51 51 50 50 49 49 47 46 46 47 46 46 46 46 47 48 48 48 48 49 49 50 51 50 48 46 46 46 46 50 55 56 57 57 57 57 57 57 57 56 56 56 56 56 59 64 67 70 72 75 79 82 87 93 98 101 102 103 101 99 95 89 82 74 69 66 62 57 51 50 49 49 49 49 50 50 50 50 50 51 51 51 52 52 52 53 53 53 53 53 53 54 55 55 56 58 64 71 75 77 78 79 77 72 68 64 61 60 60 59 59 59 59 59 58 58 58 57 57 57 56 56 56 56 56 55 54 54 54 54 53 53 53 53
179 177 179 181 181 185 193 199 203 208 210 214 218 221 222 220 218 215 211 206 202 201 201 201 200 199 197 196 196 196 196 196 196 195 195 195 194 192 190 190 188 186 183 181 180 179 178 175 173 172 172 171 170 169 169 168 167 165 162 160 159 158 157 155 153 151 148 146 146 146 146 146 145 144 143 142 140 138 137 137 135 132 129 127 126 123 122 121 121 121 121 120 119 118 114 113 112 112 112 112 112 112 112 113 115 118 120 121 121 120 120 122 124 125 124 121 120 121 120 120 118 116 114 112 108 104 101 99 98 98 98 98 98 98 98 98 98 98 98 98 98 98 98 98 98 98 97 95 94 94 94 94 94 94 94 94 94 94 94 94 95 95 97 99 98 97 97 97 98 100 98 95 95 95 95 95 95 95 95 95 95 95 95 98 101 102 104 107 109 111 111 110 108 107 106 103 103 106 109 111 112 111 109 108 108 109 109 108 111 114 119 119 117 112 108 103 97 94 92 91 89 88 87 87 87 87 86 84 83 83 83 83 82 82 82 82 83 84 84 83 83 84 84 83 80 80 80 80 80 81 80 80 82 86 90 94 98 101 102 102 101 99 97 94 92 90 90 87 85 84 84 83 83 83 83 83 83 83 83 83 83 83 83 83 84 84 85 86 88 90 92 91 91 90 90 90 89 89 89 89 89 89 88 88 88 88 89 92 95 98 102 106 109 111 110 108 104 101 97 93 88 86 86 86 86 86 86 86 86 88 94 101 106 108 106 103 97 90 84 83 83 83 83 83 83 83 83 83 83 83 83 83 83 83 83 83 86 90 95 100 105 108 111 112 112 112 110 109 106 106 108 110 112 114 116 118 120 121 123 124 126 125 122 118 115 111 107 103 103 104 105 105 103 101 100 99 98 98 98 99 99 100 100 99 98 97 95 95 94 93 91 89 86 84 83 83 83 84 85 84 83 81 81 82 82 83 83 81 81 81 81 81 81 81 81 80 80 80 80 80 80 80 80 80 80 81 82 82 82 83 84 86 88 91 90 88 87 86 86 86 86 85 85 86 86 86 86 87 89 91 93 93 93 92 90 89 88 86 86 85 85 85 85 85 84 84 84 83 82 82 82 83 84 84 84 85 87 91 94 97 99 100 101 100 100 100 100 98 98 98 98 98 97 96 96 96 96 98 98 100 100 101 102 100 96 94 93 92 92 92 92 93 95 97 98 99 100 101 101 99 98 96 95 94 94 94 94 95 96 94 92 90 87 86 85 84 83 82 81 79 77 76 76 76 76 76 76 76 76 76 76 76 76 76 76 76 77 77 78 79 79 81 82 83 84 84 85 86 87 89 92 96 98 98 96 95 93 88 82 79 78 77 77 77 77 77 77 77 77 77 77 77 77 77 77 77 77 77 77 70 60 59 59 59 62 65 70 74 78 83 86 84 78 72 68 66 63 61 61 61 61 61 62 63 63 63 63 63 62 62 62 62 61 61 62 62 62 61 61 61 60 58 58 58 58 57 58 60 59 59 59 60 60 60 59 59 59 60 60 62 64 67 69 70 68 65 62 62 63 64 65 65 68 69 72 74 75 74 72 70 68 66 63 61 60 60 60 60 60 59 59 59 59 59 59 59 59 59 59 59 59 59 59 59 58 58 58 58 58 58 58 58 59 59 60 60 60 59 59 58 57 56 55 54 52 50 49 49 49 49 49 49 51 51 51 51 51 51 51 50 49 48 47 47 48 48 48 47 46 46 46 46 47 47 48 48 48 49 49 49 47 47 47 47 47 47 48 53 55 56 56 57 57 57 57 57 56 56 56 56 56 60 64 67 70 72 75 79 81 85 90 95 98 101 103 102 100 96 90 82 74 70 66 62 57 52 50 50 50 50 50 50 51 51 51 51 51 51 51 52 52 52 52 53 53 53 53 53 54 55 56 58 60 65 72 75 77 79 80 78 73 68 63 61 60 60 59 59 59 58 58 58 58 58 57 57 57 57 57 56 56 56 55 54 54 54 54 53 53 52 52
181 180 180 182 183 187 195 201 205 210 212 215 219 222 222 223 221 218 214 208 204 202 203 203 201 200 198 197 197 197 196 196 196 195 195 195 194 192 190 189 188 186 183 181 180 178 177 175 172 171 170 170 170 170 169 168 167 165 163 160 158 157 155 154 152 150 147 146 146 147 147 145 144 143 142 141 139 137 135 135 135 132 130 127 124 122 122 122 123 123 122 121 121 120 116 113 112 112 112 112 112 112 112 113 113 115 116 118 118 117 117 119 121 122 121 118 118 119 119 119 119 119 118 115 109 104 102 99 98 98 98 98 98 98 98 98 98 98 98 98 98 98 98 98 98 97 95 95 94 94 94 94 94 94 94 94 94 94 94 94 95 95 97 97 97 97 97 98 100 101 99 96 95 95 95 95 95 95 95 95 95 95 96 99 101 103 106 108 110 111 111 111 109 107 106 104 103 104 106 106 108 108 108 109 111 112 112 111 111 114 121 122 118 111 106 101 98 94 92 91 90 89 89 88 88 88 87 84 83 83 83 82 82 82 82 82 84 86 85 84 85 86 85 84 81 80 80 80 81 84 82 80 81 83 86 89 93 95 96 97 97 97 95 92 89 89 90 86 84 83 83 83 83 83 83 83 83 83 83 83 83 83 83 83 83 83 83 84 86 88 90 90 90 90 89 88 88 89 89 89 89 88 88 88 88 87 88 91 94 97 102 106 110 112 113 111 108 104 100 96 92 88 86 86 86 86 86 86 86 88 95 101 105 106 104 99 93 86 83 83 83 83 83 83 83 83 83 83 83 83 83 83 83 83 83 83 85 89 94 99 104 107 109 110 110 110 109 108 105 103 105 107 109 111 113 114 116 118 119 120 122 122 120 118 114 111 108 105 105 106 107 107 104 102 100 99 98 98 100 101 103 104 103 101 99 96 95 95 94 93 91 88 85 84 83 83 83 83 83 83 83 82 81 82 82 82 82 82 81 81 81 80 80 80 80 80 80 80 80 80 80 80 80 81 81 81 82 81 81 82 83 85 87 89 89 88 86 85 85 86 85 85 85 86 86 86 86 87 89 90 92 92 93 92 91 90 88 86 86 85 85 85 85 86 86 85 84 83 81 81 81 83 83 83 83 84 86 89 93 97 99 101 102 102 101 101 100 100 99 99 98 98 98 96 96 96 96 97 98 100 101 102 101 99 96 95 93 92 92 92 92 92 94 96 97 97 98 99 99 99 98 97 96 96 96 96 97 98 98 96 93 90 88 87 86 85 84 83 81 80 78 76 76 76 76 76 76 76 76 76 76 76 76 76 76 76 77 78 79 79 80 81 82 84 84 85 86 87 88 89 92 96 99 98 97 96 95 93 87 83 81 80 78 77 77 77 77 77 77 77 77 77 77 77 77 77 77 76 73 64 60 59 58 57 59 61 66 72 75 80 83 83 78 73 69 66 63 61 60 60 60 61 62 63 64 63 63 63 62 61 61 60 60 60 60 61 60 60 59 58 56 54 54 54 54 54 55 57 57 56 58 59 59 59 58 58 58 60 60 60 61 62 64 65 64 62 60 62 64 65 65 66 68 69 71 73 73 73 72 70 69 67 64 61 60 60 60 60 60 60 60 59 59 59 59 59 59 59 59 59 59 59 58 58 58 58 58 58 58 58 58 58 58 58 59 59 59 58 58 57 57 56 56 55 52 50 49 49 49 49 49 49 52 52 51 51 51 50 50 49 47 48 50 51 52 52 51 50 48 47 46 46 47 47 47 47 48 48 48 48 47 47 47 48 47 46 46 49 52 54 54 55 55 56 57 57 56 56 56 56 57 61 65 67 70 72 75 78 81 83 87 90 93 96 100 101 99 96 89 80 73 69 66 62 57 52 50 50 50 50 50 50 51 51 51 51 51 51 51 52 52 52 52 53 53 53 53 54 54 56 58 59 61 67 73 75 77 80 80 78 74 68 63 61 60 60 59 59 58 58 58 58 58 58 57 57 57 57 57 56 56 56 54 54 54 54 53 52 52 52 51
183 182 182 183 185 188 195 202 206 211 213 216 220 222 223 224 222 219 216 211 205 203 204 203 202 201 199 197 197 197 197 196 196 196 196 195 194 192 190 189 187 185 182 180 179 178 176 174 171 170 170 170 170 171 171 169 168 167 165 162 158 156 154 153 151 149 147 146 146 147 147 144 143 142 141 139 137 136 134 133 134 133 130 127 123 122 122 124 124 124 123 123 123 121 117 113 112 112 111 111 111 111 112 112 112 113 113 114 115 114 114 115 117 118 117 115 116 116 117 118 119 122 122 116 109 104 102 99 98 98 98 98 98 98 98 98 98 98 98 98 98 99 99 98 98 96 95 95 95 95 94 94 94 94 94 94 94 95 95 95 95 95 97 97 97 97 98 99 102 102 100 96 95 95 95 95 95 95 95 95 95 95 97 100 103 105 108 109 111 111 112 112 110 108 106 104 103 103 103 103 104 105 106 107 110 114 115 114 112 113 119 120 115 108 103 99 95 93 90 90 90 90 90 90 90 90 88 85 83 83 83 82 82 82 82 82 85 86 86 85 86 87 85 84 81 80 80 80 82 86 84 82 81 82 82 86 88 90 91 93 94 94 92 90 89 89 89 87 83 83 83 83 83 83 83 83 83 83 83 83 83 83 83 83 83 83 83 83 84 86 88 88 89 89 88 87 88 89 89 89 88 88 88 88 88 87 86 89 92 95 100 105 111 114 115 115 112 108 104 100 96 92 88 86 86 86 86 86 86 87 95 101 104 104 102 96 89 83 83 83 83 83 83 83 83 83 83 83 83 83 83 83 83 83 83 83 84 87 92 97 102 105 107 109 109 109 109 107 104 102 102 104 107 109 110 111 113 114 115 116 118 118 117 116 112 110 108 106 106 106 106 105 103 100 98 98 99 100 102 103 105 107 106 103 99 96 95 95 95 93 91 88 85 83 83 83 83 83 83 83 83 83 82 82 82 82 82 81 81 81 80 80 80 80 80 80 80 80 80 80 80 80 81 82 82 82 81 80 80 80 81 83 85 87 87 86 84 83 84 84 84 85 86 86 87 87 87 87 89 90 91 91 92 92 91 89 88 86 86 85 85 85 85 86 87 86 83 82 81 81 81 82 83 83 83 84 85 88 93 97 101 103 103 103 102 102 101 100 100 99 99 99 98 97 95 95 95 95 96 99 101 102 101 99 96 95 94 92 92 92 92 92 93 95 96 96 97 98 98 98 98 98 97 97 97 98 98 99 99 97 94 91 89 88 87 86 85 83 81 80 78 76 76 76 76 76 76 76 76 76 76 76 76 76 76 76 77 78 79 80 80 81 83 84 84 85 86 88 88 89 91 96 99 99 99 98 96 96 91 88 86 83 81 79 77 77 77 77 77 77 77 77 77 77 77 77 77 76 68 63 62 61 59 56 56 58 62 68 73 77 80 81 78 74 69 66 63 60 60 60 60 61 63 65 65 64 63 62 62 61 60 60 59 59 59 60 59 57 56 54 54 54 54 54 54 54 54 54 54 54 55 56 56 56 55 55 57 59 60 59 59 58 60 61 60 60 59 63 65 66 66 66 68 69 71 72 72 72 72 70 70 68 65 62 61 60 60 60 60 60 60 59 59 59 59 59 59 59 59 59 59 59 58 58 58 58 58 58 58 58 58 58 58 58 59 59 59 57 57 56 56 57 56 55 53 50 50 50 49 49 49 49 52 52 51 51 51 50 49 47 47 50 54 55 55 55 55 53 51 49 48 47 47 47 47 47 47 48 48 48 48 48 48 47 47 46 46 46 48 51 52 52 53 55 57 57 56 55 55 56 57 61 65 67 70 72 74 77 79 82 85 87 89 91 96 97 97 94 87 78 72 68 65 60 55 51 50 50 50 50 50 51 51 51 51 51 51 51 52 52 52 52 52 53 53 53 53 54 55 57 59 61 63 69 73 76 77 79 78 77 74 67 62 60 59 59 59 58 58 58 58 58 57 57 57 57 57 57 57 56 56 55 54 54 54 54 53 52 52 51 51
184 183 183 184 185 188 194 201 207 211 213 217 220 222 223 224 223 219 217 212 206 203 204 204 203 202 199 197 197 197 197 196 196 196 196 195 194 192 190 189 187 185 182 180 179 177 176 173 170 170 170 170 171 171 172 171 170 168 166 163 159 156 153 152 151 149 146 146 146 147 146 144 142 141 141 139 137 135 133 132 133 132 130 127 123 122 122 125 125 125 124 124 123 122 118 113 113 112 111 111 111 111 111 112 112 112 112 112 112 112 112 113 114 115 114 113 114 115 116 117 119 122 123 116 109 104 101 99 99 99 99 98 98 98 98 98 98 98 98 98 98 100 101 99 98 96 95 95 95 95 94 94 95 95 95 95 95 95 95 95 95 95 97 97 97 98 99 100 103 103 100 96 95 95 95 95 95 95 96 95 95 95 97 100 103 105 108 110 111 111 112 112 111 108 106 104 102 102 102 102 103 103 105 107 109 114 115 115 113 113 115 116 111 105 100 97 93 90 89 89 90 91 91 91 91 91 89 86 84 83 83 82 82 82 82 83 85 87 86 86 87 87 85 84 81 80 80 80 82 87 85 83 82 82 82 84 85 87 88 90 92 92 91 89 89 89 90 87 83 83 83 83 83 83 83 83 83 83 83 83 83 83 83 83 83 83 83 83 84 85 87 87 88 88 88 87 87 89 89 89 88 88 88 88 88 87 86 88 92 94 99 104 111 115 116 117 115 111 107 102 98 94 90 86 86 86 86 86 86 88 95 101 104 103 101 94 86 83 83 83 83 83 83 83 83 83 83 83 83 83 83 83 83 83 83 83 83 86 91 96 101 104 107 108 108 108 108 106 103 102 102 103 106 108 109 110 111 112 113 114 115 116 115 114 112 110 108 105 105 105 105 104 101 99 98 97 99 101 103 103 105 107 106 103 99 96 95 96 95 93 91 88 85 83 83 83 83 83 83 83 84 83 82 82 82 82 83 81 80 80 80 80 80 80 80 80 80 80 80 80 80 81 82 82 82 82 81 80 80 80 80 82 84 85 85 83 82 83 83 83 83 85 87 87 88 88 88 88 89 90 90 91 91 91 90 89 87 86 86 85 85 85 85 87 87 85 83 81 80 80 80 81 83 83 83 83 85 88 93 98 101 103 104 103 102 102 102 101 100 100 100 99 98 97 95 94 94 95 96 98 101 102 101 98 96 96 94 93 92 92 92 92 93 95 95 95 96 97 97 98 98 98 97 97 98 99 99 99 99 97 95 92 89 89 87 87 85 82 81 80 78 76 76 76 76 76 76 76 76 76 76 76 76 76 77 77 77 78 79 80 80 81 83 84 84 85 86 87 88 89 90 95 99 100 99 99 97 96 93 92 90 86 83 82 78 77 77 77 77 77 77 77 77 77 77 77 77 75 67 64 64 63 60 56 56 56 59 65 71 76 79 79 78 74 70 66 63 60 60 60 60 61 64 66 65 65 63 62 61 60 60 60 58 58 59 59 58 55 54 54 54 54 54 54 54 54 54 54 54 54 54 54 54 54 54 54 55 58 59 59 59 56 58 59 60 60 60 64 66 67 67 67 68 70 71 71 72 72 71 70 70 68 65 62 61 60 60 60 60 60 60 59 59 59 59 59 59 59 59 59 59 59 58 58 58 58 58 58 58 58 58 58 58 58 59 59 59 57 56 56 56 57 56 55 53 51 51 50 50 49 49 49 51 52 52 51 51 49 48 47 48 52 56 57 57 57 56 54 52 50 49 47 47 47 47 47 47 48 48 48 48 48 48 47 46 46 46 46 47 50 51 51 53 55 56 56 56 55 55 56 57 61 64 67 70 71 73 77 79 82 84 86 88 89 93 95 95 93 86 77 71 68 64 59 54 51 50 50 50 51 51 51 51 51 51 51 51 52 52 52 52 52 53 53 53 53 53 54 56 58 59 62 64 70 74 76 78 78 77 76 73 67 62 60 59 59 59 58 58 58 58 58 57 57 57 57 57 56 56 56 56 55 54 54 53 53 53 52 52 51 51
186 185 184 184 187 189 194 201 207 211 213 217 220 222 223 225 224 220 217 213 207 203 203 204 204 202 200 198 196 196 196 196 196 195 195 195 193 192 190 189 187 185 182 180 179 176 174 172 170 170 170 171 172 173 174 174 173 170 167 163 159 155 152 151 150 147 145 146 146 146 144 143 142 140 139 137 136 134 132 131 131 131 130 126 123 122 124 125 126 126 125 126 125 122 119 115 113 112 111 111 111 111 111 112 114 113 112 110 110 110 110 111 112 113 112 111 112 115 116 117 119 122 121 115 108 103 101 98 98 98 98 98 98 98 98 98 98 98 98 98 98 100 101 100 98 96 95 95 95 95 95 95 95 95 95 95 95 95 95 95 95 95 97 97 97 98 100 101 103 103 100 97 95 95 95 95 95 96 97 96 95 95 98 101 104 107 109 111 112 112 112 113 111 108 106 103 101 101 101 101 102 103 104 105 108 112 114 114 113 111 110 109 105 100 97 94 90 89 89 89 90 91 91 91 91 92 90 86 84 83 83 82 82 83 83 83 85 87 87 87 87 87 86 84 80 80 80 79 82 87 86 83 82 82 82 83 83 85 86 88 90 90 90 89 89 89 90 87 83 83 83 83 83 83 83 83 83 83 83 83 83 83 83 83 83 83 83 83 84 84 85 86 86 87 87 88 89 89 89 89 88 88 88 88 88 87 86 86 90 92 97 103 109 113 117 118 117 114 110 105 101 97 93 89 87 86 86 86 86 88 95 101 103 102 99 92 84 83 83 83 83 83 83 83 83 83 83 83 83 83 83 83 83 83 83 83 83 84 89 94 98 102 105 106 106 106 106 105 102 101 101 101 104 106 107 108 109 110 111 112 112 113 112 112 110 108 107 105 104 103 103 102 99 97 96 96 99 101 102 103 104 105 106 103 99 96 95 95 95 93 90 87 85 83 83 83 83 83 84 84 85 83 82 82 82 83 83 81 80 80 80 80 80 80 80 80 80 80 80 80 80 81 82 82 82 82 80 80 80 80 80 80 82 83 82 81 80 81 81 81 83 86 89 89 89 89 88 88 89 90 90 91 90 89 89 87 86 85 85 85 85 85 85 85 85 83 82 81 80 80 80 81 83 83 83 83 85 88 94 99 102 105 104 103 103 103 102 102 101 100 100 99 98 97 94 93 93 93 95 98 100 101 101 98 96 96 95 93 92 91 91 91 92 93 93 94 94 96 97 98 98 98 97 97 97 98 98 99 98 96 94 91 90 91 89 87 86 84 82 81 79 78 76 76 76 76 76 76 76 76 76 76 76 76 77 77 77 79 80 80 80 81 83 83 84 85 86 87 87 88 90 94 99 100 100 100 99 98 96 95 93 89 85 83 80 78 77 77 77 77 77 77 77 77 77 77 77 73 67 64 64 63 61 58 56 56 57 62 68 73 77 78 76 74 70 66 63 60 60 60 60 60 63 65 65 64 63 62 61 60 60 60 58 56 56 58 56 54 54 54 54 54 54 54 54 54 54 54 54 54 54 54 54 54 54 54 54 56 58 59 56 54 56 57 58 59 61 64 66 67 67 67 69 70 71 71 71 71 71 70 70 68 64 63 61 61 60 60 59 59 59 59 59 59 59 59 59 59 59 59 59 58 58 58 58 58 58 58 58 58 58 58 58 58 59 59 59 58 57 56 56 57 56 55 53 52 52 51 51 50 49 49 50 52 52 51 50 48 48 48 50 53 56 57 57 57 57 55 54 52 50 48 47 47 47 47 47 47 47 47 47 48 47 47 46 46 46 46 47 48 49 49 51 53 54 54 55 55 55 56 57 60 64 67 70 71 73 76 78 80 83 85 86 87 90 92 92 90 84 76 71 67 62 56 52 51 50 50 51 51 51 51 51 51 52 52 52 52 52 52 52 52 53 53 53 53 53 55 57 59 61 64 66 70 74 77 78 77 76 75 73 66 62 60 59 59 59 58 58 58 58 57 57 57 57 57 57 56 56 55 55 55 54 54 53 53 53 52 51 51 51
187 186 185 185 187 189 194 201 207 211 213 217 219 221 223 225 225 220 216 213 208 203 203 203 203 202 201 198 196 196 195 195 195 195 194 194 192 191 190 189 187 184 182 180 178 175 173 171 170 171 172 173 174 175 176 177 176 172 167 163 159 155 151 149 148 145 144 146 146 146 143 142 141 140 138 136 134 133 131 130 129 130 128 125 122 122 125 127 127 127 127 128 127 124 120 117 115 113 111 111 110 110 111 113 115 115 112 108 107 107 107 108 109 110 109 110 111 115 117 117 120 121 118 113 107 103 101 98 97 97 97 97 98 98 98 97 97 98 98 98 98 99 100 100 99 97 96 95 95 95 95 95 95 95 95 95 95 95 95 95 95 95 97 97 97 98 101 102 103 103 101 97 95 95 95 95 95 97 97 95 95 95 98 102 105 107 109 112 113 112 111 112 112 110 106 103 100 99 99 100 102 102 103 103 105 109 110 110 109 106 103 100 97 94 92 90 89 89 90 91 91 91 91 92 92 92 90 86 84 83 83 83 82 83 83 83 85 87 88 88 88 87 86 83 80 80 80 79 81 87 88 84 82 82 83 83 83 83 84 85 87 89 89 88 88 89 89 85 83 83 83 83 83 83 83 83 83 83 83 83 83 83 83 83 83 83 83 83 83 83 84 84 85 85 87 88 90 89 89 89 88 88 88 88 88 87 86 86 87 90 94 100 106 111 116 119 118 117 113 109 105 101 97 93 90 87 86 86 86 89 95 100 101 100 96 89 83 83 83 83 83 83 83 83 83 83 83 83 83 83 83 83 83 83 83 83 83 83 86 91 95 99 101 102 103 103 103 102 101 101 101 101 101 104 105 106 106 106 107 108 109 109 109 109 107 106 105 104 102 101 100 99 97 95 95 95 97 100 101 101 102 103 104 102 99 96 95 94 93 92 90 87 85 83 83 83 83 83 86 86 87 84 82 82 82 82 82 81 80 80 80 80 80 80 80 80 80 80 80 80 80 80 81 81 80 80 80 80 80 80 80 80 80 80 80 80 80 80 80 80 82 86 90 91 90 90 89 89 89 90 90 90 89 87 87 86 84 84 83 83 83 84 84 83 83 82 81 81 80 80 80 81 82 83 83 84 85 88 94 99 102 105 104 103 103 103 103 102 101 100 100 100 98 96 93 92 92 92 94 96 98 99 99 98 96 96 95 93 92 91 91 91 91 92 92 92 93 96 99 99 99 98 97 97 96 96 96 97 97 95 92 91 91 93 91 89 87 85 83 82 81 79 76 76 76 76 76 76 76 76 76 76 76 76 77 77 78 79 80 81 81 82 83 83 84 84 85 86 86 87 89 92 98 101 102 102 102 102 101 101 98 94 89 86 83 81 79 77 77 77 77 77 77 77 77 77 76 71 67 64 63 62 61 61 57 56 56 58 63 69 73 75 75 72 69 66 64 60 59 59 59 59 61 63 64 63 62 62 62 62 61 61 59 55 54 55 54 54 54 54 54 54 54 54 54 54 54 54 54 54 54 54 54 54 54 54 54 55 58 58 54 54 56 57 58 60 62 65 66 67 67 68 69 70 71 71 71 71 70 70 69 68 65 63 62 61 60 60 59 59 59 60 59 59 59 59 59 59 59 58 58 58 58 58 58 58 57 57 58 58 58 58 58 59 59 59 59 59 59 58 58 57 57 56 55 54 53 53 53 52 50 49 50 52 52 51 50 48 48 50 52 54 56 56 55 55 55 54 54 53 51 50 48 48 47 47 47 47 47 47 47 48 47 47 46 46 46 47 47 47 46 46 48 50 53 53 54 54 55 56 57 60 64 67 69 71 72 75 77 78 80 83 84 85 86 88 89 87 82 75 70 65 59 53 51 51 50 50 51 51 51 51 51 51 52 52 52 52 52 52 52 52 53 53 53 53 54 57 59 61 63 66 69 72 75 77 77 76 75 73 71 66 61 60 59 59 59 58 58 58 58 57 57 57 56 56 56 56 55 55 55 55 54 54 53 53 52 51 51 50 50
188 187 186 186 187 189 193 200 206 211 212 216 217 219 222 223 223 220 215 211 208 203 202 202 202 202 201 198 196 195 195 194 194 194 194 192 191 190 189 187 185 183 181 179 176 174 171 169 170 171 173 175 176 177 178 178 176 172 167 163 159 154 150 147 146 143 143 146 146 144 142 140 139 138 136 134 133 131 130 128 127 128 126 123 122 123 126 128 129 129 130 129 129 126 123 121 119 116 113 110 109 109 112 115 116 116 112 107 107 107 107 107 107 107 108 110 112 114 115 117 119 118 115 111 107 103 100 98 97 97 97 97 98 98 98 97 97 98 98 98 98 99 99 98 97 96 96 95 95 95 95 95 95 95 95 95 95 95 95 95 95 95 97 98 99 100 103 104 104 104 101 97 95 95 95 95 95 96 97 95 95 95 98 101 105 107 110 114 113 110 110 113 114 111 107 104 100 98 98 99 101 102 102 101 102 105 106 105 103 101 98 95 91 90 89 89 89 90 92 92 92 92 92 93 93 91 89 86 83 83 83 83 83 83 83 83 84 87 88 88 88 87 86 82 80 80 80 80 81 87 88 85 83 83 83 83 83 83 84 84 86 87 87 88 89 89 88 84 83 83 83 83 83 83 83 83 83 83 83 83 83 83 83 83 83 83 83 83 83 83 83 84 84 85 86 88 90 89 89 89 88 88 88 87 87 87 86 86 86 88 92 97 102 107 112 117 117 117 115 113 109 105 101 97 94 90 87 86 86 90 96 99 99 97 93 86 83 83 83 83 83 83 83 83 83 83 83 83 83 83 83 83 83 83 83 83 83 83 84 88 92 96 98 99 100 100 100 100 100 100 101 101 101 102 103 103 103 104 104 105 107 107 106 106 103 103 102 101 100 99 98 96 95 95 95 95 95 98 99 98 99 101 101 101 99 96 95 93 92 90 88 87 84 83 83 83 83 84 87 89 89 86 82 82 82 82 81 80 80 80 81 82 81 81 81 80 80 80 80 80 80 80 80 80 80 80 80 80 80 80 80 80 80 80 80 80 80 80 80 80 82 85 88 89 89 88 88 88 88 89 89 88 87 86 85 84 82 82 81 81 82 83 83 82 82 81 80 80 80 80 80 80 82 83 84 84 85 88 92 96 101 103 103 103 102 102 102 101 101 100 100 99 97 95 92 92 92 92 92 94 95 96 97 97 96 96 95 93 93 91 91 91 91 91 91 91 93 96 100 100 100 99 97 96 96 96 95 95 95 93 90 90 93 94 92 90 87 85 83 82 81 79 76 76 76 76 76 76 76 76 76 76 76 76 77 77 78 80 81 81 81 82 83 83 84 84 85 86 86 87 88 91 96 101 104 105 106 106 106 106 104 100 94 90 87 83 80 77 77 77 77 77 77 77 77 77 74 70 66 64 62 62 62 61 58 57 56 57 60 65 69 72 72 70 68 65 63 60 59 59 59 59 60 61 61 61 61 62 63 64 63 62 59 55 54 54 54 54 54 54 54 54 54 55 55 54 54 54 54 54 54 54 54 54 54 54 54 54 56 56 54 54 57 57 58 60 63 65 66 67 68 68 69 70 70 70 70 70 70 69 69 68 65 63 62 61 60 60 60 60 60 60 60 60 59 59 59 59 59 58 58 58 58 58 58 58 57 57 57 57 57 58 59 59 60 60 60 60 60 60 59 59 59 58 57 56 56 56 56 54 52 50 51 52 52 52 51 49 50 53 55 56 56 55 54 53 52 51 52 52 51 51 49 48 47 47 47 47 47 48 49 49 48 47 47 47 47 48 47 46 46 46 46 48 51 52 53 54 54 55 57 60 63 67 69 71 72 74 76 77 78 80 82 83 83 84 85 83 79 73 68 63 56 52 51 51 51 51 51 51 51 51 52 52 52 52 52 52 52 52 52 53 53 53 54 54 55 58 60 62 64 67 70 73 76 76 76 75 73 71 69 65 61 59 59 59 58 58 58 57 57 57 57 56 56 56 56 55 55 55 55 55 54 53 53 53 52 51 50 50 49
189 188 187 187 188 189 192 199 205 210 212 215 216 217 220 221 221 219 215 209 206 203 202 202 202 201 201 198 195 195 194 193 193 193 192 191 190 189 188 187 185 183 180 178 175 173 170 168 169 172 174 176 177 179 179 177 174 170 165 161 157 153 149 145 143 143 144 146 145 142 140 139 137 136 135 133 131 129 128 125 124 124 123 122 122 123 127 129 131 131 131 131 130 128 126 125 123 119 114 108 108 110 113 116 117 116 112 107 107 107 107 107 107 109 111 112 112 113 113 114 115 113 112 109 105 102 100 98 98 98 98 98 98 98 98 97 97 98 98 98 98 98 97 97 97 96 96 95 95 95 95 95 95 95 95 97 97 97 96 96 96 97 98 100 101 102 104 105 106 105 102 97 95 95 95 95 95 95 95 95 95 95 96 99 104 107 111 115 112 108 110 115 115 112 108 104 99 97 98 99 99 100 100 99 99 100 101 100 98 97 94 92 89 89 90 91 91 92 93 93 93 93 93 93 92 88 86 84 83 83 83 83 83 83 83 84 84 86 88 88 87 86 84 81 80 80 80 80 81 84 87 86 85 85 85 84 83 84 84 84 85 86 87 89 90 90 88 84 83 83 83 83 83 83 83 83 83 83 83 83 83 83 83 83 83 83 83 83 83 83 83 84 84 84 86 88 90 89 88 87 87 87 87 87 87 87 87 86 86 86 89 94 98 102 107 111 114 114 114 114 112 109 106 102 99 94 91 88 88 92 96 98 97 94 90 84 83 83 83 83 83 83 83 83 83 83 83 83 83 83 83 83 83 83 83 83 83 83 83 85 89 93 96 97 98 98 99 99 100 100 100 101 101 101 101 101 102 102 103 104 105 105 104 102 100 100 99 98 97 96 95 95 95 95 95 95 95 96 97 96 97 98 99 99 98 96 95 93 91 89 87 86 83 83 83 83 83 83 88 90 90 88 83 82 82 81 81 80 80 81 82 84 83 83 82 81 81 80 80 80 80 80 80 80 80 80 80 80 80 80 80 80 80 80 80 80 80 80 80 80 80 82 83 84 85 85 86 86 87 87 87 86 85 84 83 82 80 80 80 80 80 81 82 81 80 80 79 79 79 79 79 80 80 81 82 82 83 85 88 92 97 99 101 101 101 100 100 99 99 99 98 98 95 93 92 91 90 90 92 93 93 93 94 95 95 95 94 94 93 91 91 90 90 90 90 91 93 95 99 101 101 99 97 96 95 95 95 94 93 91 88 90 94 94 92 89 87 85 83 82 80 78 76 76 76 76 76 76 76 76 76 76 76 76 77 77 79 80 81 82 82 83 83 83 84 85 85 86 86 87 87 89 94 99 105 108 111 111 111 110 109 105 99 95 91 88 83 80 77 77 77 77 77 77 77 77 71 68 65 63 62 61 60 60 58 58 56 57 59 63 66 68 69 68 66 63 62 60 59 59 59 59 59 59 59 59 60 62 64 65 64 59 57 54 54 54 54 54 54 54 54 54 55 56 55 54 54 54 54 54 54 54 54 54 54 54 54 54 54 54 54 54 56 57 58 61 63 66 67 68 68 69 69 70 70 70 70 70 70 69 69 68 65 63 62 62 61 60 60 60 60 60 60 60 60 60 59 59 59 58 58 58 58 57 57 57 57 57 57 57 57 58 59 59 60 60 61 61 61 61 61 60 60 59 59 59 59 59 57 54 53 52 53 54 54 53 52 51 51 55 56 57 56 54 53 51 50 50 50 50 50 50 49 48 48 48 47 48 48 49 50 50 50 49 47 47 47 47 47 46 46 46 46 46 49 50 52 52 53 54 57 60 63 66 69 70 72 74 75 76 77 78 80 81 81 81 81 80 76 70 66 60 54 51 51 51 51 51 51 51 51 51 52 52 52 52 52 53 53 53 53 53 53 54 55 56 58 60 62 63 65 69 72 74 76 76 75 73 72 70 67 63 60 59 58 58 58 58 57 57 57 57 56 56 55 55 55 54 54 54 54 54 53 53 52 52 51 50 50 49 48
191 189 189 188 188 189 192 199 204 209 211 213 214 215 217 218 218 217 213 208 204 203 202 201 201 200 199 197 195 194 193 192 193 192 192 191 189 188 187 185 183 181 179 176 175 172 169 167 169 173 174 176 178 179 178 175 171 166 164 160 155 151 147 144 143 143 145 146 143 140 138 137 136 135 133 131 129 127 125 122 122 122 122 122 122 123 127 130 132 132 132 133 132 130 129 127 124 120 113 108 108 110 114 117 118 116 112 107 107 107 107 107 108 111 113 113 113 113 112 112 112 112 112 108 105 102 100 99 99 99 99 99 98 98 98 97 97 98 98 98 97 97 97 97 97 96 96 95 95 95 95 95 95 96 97 99 100 99 98 98 99 100 100 101 102 104 106 106 107 106 102 97 95 95 95 95 95 95 95 95 95 95 95 98 101 106 110 113 109 106 109 114 115 111 107 103 99 96 96 97 97 97 96 96 96 96 97 96 95 94 94 92 90 90 91 92 93 93 94 94 94 94 94 93 92 87 85 83 83 83 83 83 83 84 84 86 85 86 87 87 86 85 82 80 80 80 80 80 80 81 84 86 87 88 89 87 85 84 84 85 85 86 88 89 90 90 88 85 83 83 83 83 83 83 83 83 83 83 83 83 83 83 83 83 83 83 83 83 83 83 83 84 84 84 86 88 90 89 87 86 86 86 86 86 86 86 86 86 86 86 87 91 95 98 102 106 108 110 111 112 111 110 108 106 103 99 95 92 91 93 95 97 95 92 86 83 83 83 83 83 83 83 83 83 83 83 83 83 83 83 83 83 83 83 83 83 83 83 83 83 86 89 92 93 95 96 97 99 99 99 100 100 101 101 101 101 101 102 103 103 104 104 102 99 97 97 96 96 95 95 95 95 95 95 95 95 95 95 95 95 95 96 97 97 97 96 94 92 90 89 88 86 83 83 83 83 83 83 88 91 92 89 83 82 82 82 81 81 82 83 83 84 83 83 83 82 81 80 80 80 80 80 80 80 80 80 80 80 80 80 80 80 80 80 80 80 80 80 80 80 80 80 80 80 81 82 84 85 86 85 85 85 83 82 80 80 80 80 80 79 79 79 79 79 79 79 79 79 79 78 78 79 79 79 80 80 80 82 85 89 93 96 98 99 99 99 98 98 97 97 97 96 93 91 91 90 90 90 90 92 92 92 93 93 94 94 94 94 93 91 90 89 89 89 89 89 92 94 98 101 101 100 97 96 95 95 95 93 92 89 88 89 94 94 92 89 86 85 83 81 80 77 76 76 76 76 76 76 76 76 76 76 76 77 78 78 80 81 82 83 83 83 84 84 85 85 86 87 87 87 87 88 91 97 103 108 112 114 114 114 112 108 103 99 95 92 88 84 80 79 77 77 77 77 76 74 69 66 64 62 61 60 59 59 58 58 57 57 58 62 64 65 66 66 64 62 62 60 59 59 59 59 58 57 56 58 59 60 62 62 59 55 54 54 54 54 54 54 55 55 55 55 56 58 55 54 54 54 54 54 54 54 54 54 54 54 54 54 54 54 54 54 55 56 58 61 63 65 68 69 69 69 69 69 69 69 69 69 69 69 69 68 65 63 62 62 61 60 60 60 60 60 60 60 60 60 60 60 59 59 59 58 58 57 57 57 57 57 57 57 57 57 59 60 61 61 61 62 62 62 62 61 60 60 60 60 60 59 56 53 53 55 57 58 57 55 54 52 52 54 56 56 55 54 52 51 50 50 50 50 50 50 49 47 47 47 48 49 49 50 50 51 50 50 49 47 47 46 46 46 46 46 46 46 47 48 50 51 52 54 56 59 62 66 69 70 72 73 74 75 76 77 79 80 80 80 80 78 74 69 66 60 53 52 51 51 51 51 51 51 51 52 52 52 53 53 53 53 53 53 53 54 55 55 57 59 61 62 64 65 67 71 74 75 76 76 74 72 70 68 65 62 59 59 58 58 57 57 57 57 57 57 56 55 55 55 54 54 54 53 53 53 53 52 52 51 51 50 49 48 48
192 190 190 190 190 190 191 197 202 207 209 211 211 212 213 215 215 214 211 206 203 202 201 201 200 199 197 195 194 193 192 191 191 192 192 191 189 187 186 184 183 180 177 175 174 172 169 167 169 173 174 176 179 179 176 171 165 162 161 158 153 149 145 143 142 142 145 144 141 138 137 135 134 133 131 130 128 125 123 122 121 121 121 121 122 124 126 130 131 132 133 134 134 133 131 127 122 117 111 107 107 110 115 118 118 116 110 107 107 107 107 108 110 113 115 116 117 116 114 112 112 113 114 110 105 103 101 100 100 100 99 99 98 98 98 97 96 97 98 98 97 97 97 97 97 97 95 95 95 95 95 95 96 98 100 102 102 102 101 101 101 102 102 103 103 106 108 109 108 107 104 99 95 95 95 95 95 95 95 95 95 95 95 96 100 104 108 108 105 103 107 110 111 108 105 101 97 94 94 94 94 94 93 93 93 93 95 95 94 93 93 92 91 92 93 94 95 95 94 94 94 94 94 94 93 90 87 85 83 83 83 83 83 84 86 88 87 88 88 87 86 85 83 81 81 80 80 80 80 80 82 86 90 91 92 90 89 86 86 87 87 88 88 89 91 91 89 85 83 83 83 83 83 83 83 83 83 83 83 83 83 83 83 83 83 83 83 83 83 83 83 84 84 84 85 87 88 88 86 86 86 86 86 86 86 86 86 86 86 86 86 88 91 94 96 100 102 104 105 107 109 108 108 106 105 103 99 96 94 94 95 95 93 88 83 83 83 83 83 83 83 83 83 83 83 83 83 83 83 83 83 83 83 83 83 83 83 83 83 83 83 85 88 90 92 94 96 99 99 99 100 100 101 101 101 101 101 101 102 102 102 102 101 98 96 95 95 95 95 95 95 95 95 95 95 95 95 95 95 95 95 95 97 96 96 95 93 91 91 91 90 88 86 84 83 83 83 83 89 92 93 91 84 83 83 83 82 83 84 84 84 84 83 82 81 80 80 80 80 80 80 80 80 81 81 80 80 80 80 80 81 80 80 80 80 80 80 80 80 80 80 80 80 80 80 81 83 84 84 84 83 83 81 80 80 80 80 79 78 78 78 78 78 78 78 78 78 79 79 78 77 77 78 77 77 77 77 79 83 86 90 93 95 97 97 97 96 96 95 95 95 94 91 90 89 88 88 88 88 90 90 91 91 92 92 93 93 94 93 92 90 88 89 88 88 88 91 93 96 99 100 100 98 97 96 95 94 93 91 89 88 89 92 94 91 88 86 84 82 81 79 76 76 76 76 76 76 76 76 76 76 76 76 77 78 79 81 82 82 83 84 84 85 86 86 87 88 88 88 88 88 88 89 94 100 107 110 113 116 115 114 111 106 102 98 95 93 89 86 83 80 78 77 77 76 71 67 65 63 61 61 60 58 58 57 57 57 56 56 60 62 63 63 63 61 61 61 60 60 59 58 57 56 54 54 55 56 56 57 56 54 54 54 55 55 55 55 56 58 59 59 58 60 60 56 55 54 54 54 54 54 54 54 54 54 54 54 54 54 54 54 54 54 56 58 61 63 65 68 69 69 69 69 69 69 69 69 69 69 69 69 68 66 63 62 62 62 60 60 60 60 60 59 59 59 59 60 61 61 59 59 58 58 57 57 57 57 57 57 57 57 57 59 60 61 61 62 62 62 62 62 62 61 60 60 60 59 58 55 54 57 60 62 62 61 59 57 54 53 53 54 55 55 54 53 52 50 50 50 51 51 50 48 47 47 47 48 51 51 50 51 51 51 50 49 48 47 46 46 46 46 46 46 47 47 47 48 51 52 54 56 59 62 65 68 70 71 73 74 74 75 76 78 80 80 80 79 77 73 68 66 60 53 52 52 52 51 51 51 51 51 52 52 53 53 53 53 53 53 54 55 56 57 57 60 62 64 65 66 67 69 73 76 77 76 75 73 70 68 65 63 61 59 58 58 57 57 57 57 57 57 57 56 55 54 54 54 53 53 53 53 53 52 52 51 51 51 50 49 48 48
194 192 192 192 191 190 190 195 200 205 206 208 208 208 209 211 211 211 208 205 202 201 201 200 200 197 195 193 192 192 191 191 191 191 191 190 188 186 185 183 181 179 176 174 173 171 168 166 167 171 174 176 177 176 172 168 162 158 158 155 151 147 143 142 142 142 144 142 139 136 135 133 132 131 130 129 127 125 123 122 120 120 121 121 124 125 125 128 130 131 133 134 135 133 129 124 119 113 108 107 107 110 113 116 117 114 109 107 107 107 107 108 113 117 119 121 121 120 116 114 112 112 114 110 105 102 101 101 100 100 100 100 99 98 97 96 95 97 98 98 98 98 98 97 97 97 95 95 95 95 95 96 98 101 103 104 103 103 102 102 102 103 103 104 105 106 110 110 110 108 105 101 96 95 95 95 95 95 95 95 95 95 95 96 99 102 105 104 101 101 103 105 105 103 101 98 95 92 92 92 92 91 91 92 92 92 94 94 93 93 93 92 92 93 95 96 96 96 95 95 95 95 95 95 95 93 91 89 87 84 83 84 86 88 89 90 90 90 89 89 88 86 85 84 83 82 80 80 80 80 81 86 91 92 93 92 91 89 89 90 90 90 89 89 91 92 90 85 83 83 83 83 83 83 83 83 83 83 83 83 83 83 83 83 83 83 83 83 83 83 83 84 84 84 84 86 87 87 86 86 86 86 86 86 86 86 86 86 86 86 86 86 88 91 92 94 97 99 100 102 104 104 105 104 104 103 100 97 95 95 94 93 89 85 83 83 83 83 83 83 83 83 83 83 83 83 83 83 83 83 83 83 83 83 83 83 83 83 83 84 85 88 91 93 94 96 98 99 99 99 100 100 100 100 100 101 101 101 101 101 102 101 99 97 95 95 95 95 95 95 95 95 95 95 95 95 95 95 95 96 96 96 98 98 97 95 93 93 93 93 92 91 89 86 84 84 84 84 89 92 94 92 85 83 83 83 83 84 85 85 84 83 82 80 80 80 80 80 80 80 80 80 81 83 84 82 80 80 81 82 83 82 81 80 80 80 80 80 80 80 80 80 80 80 80 80 81 82 82 82 81 81 79 79 79 79 79 78 78 78 78 78 78 78 77 77 77 78 78 77 77 77 77 77 77 77 77 77 81 83 85 88 92 94 94 95 94 93 93 92 91 91 89 88 87 86 86 87 86 87 88 89 89 90 90 91 92 93 93 93 91 88 88 87 87 88 89 91 93 96 98 99 98 97 96 95 93 92 90 88 87 87 90 92 89 87 85 83 82 80 79 76 76 76 76 76 76 76 76 76 76 76 76 77 79 81 82 83 83 84 84 85 86 87 87 88 89 90 90 90 90 89 89 91 96 102 108 110 114 115 115 114 110 106 103 100 99 95 92 89 85 83 81 79 75 69 65 64 62 61 61 60 57 57 57 57 56 55 56 57 59 61 61 61 61 61 60 60 60 59 58 57 54 54 54 54 54 54 54 53 53 54 55 56 56 56 58 61 64 65 64 64 64 63 58 56 54 54 54 54 54 54 54 54 54 54 54 54 54 54 54 54 54 56 59 61 63 65 67 69 69 69 69 68 68 68 68 68 68 69 69 69 67 63 62 62 62 60 60 60 60 60 59 59 59 59 60 62 62 61 59 59 58 57 57 57 57 57 57 57 57 57 59 61 61 61 62 63 63 62 62 61 60 60 60 60 59 57 56 58 61 63 65 65 65 63 61 58 56 55 55 55 55 54 53 52 51 50 50 50 50 50 48 47 47 47 49 51 51 51 51 52 51 50 48 48 47 47 46 46 46 46 47 48 48 48 48 50 52 53 55 59 63 65 67 69 71 72 73 74 75 76 78 80 80 80 79 76 73 68 66 60 53 52 52 52 52 51 51 51 51 52 52 53 53 53 53 54 55 56 59 60 60 60 62 64 65 67 68 68 70 73 77 77 76 74 71 68 66 63 62 60 58 58 57 57 57 57 57 57 57 56 55 55 54 54 54 53 53 53 53 53 52 51 51 51 51 50 49 48 48
195 194 194 194 193 191 191 193 198 203 203 203 203 203 205 206 206 207 206 203 200 200 200 200 199 196 194 192 191 191 191 190 190 190 190 189 188 186 184 183 180 178 175 173 172 171 168 165 165 168 171 173 173 171 169 164 159 155 155 153 150 145 142 141 142 142 142 141 138 136 134 133 131 130 129 128 127 125 124 122 120 119 119 121 127 126 123 125 128 130 133 134 134 132 126 120 115 110 107 107 107 108 111 113 113 111 108 107 107 107 106 109 117 122 124 125 125 124 120 116 113 111 109 107 103 100 100 99 99 99 100 99 99 98 97 95 95 96 97 98 99 100 99 97 97 97 95 95 95 95 95 97 100 103 105 106 105 105 104 104 104 104 105 105 106 108 111 111 110 109 106 102 98 95 95 95 95 95 95 95 95 95 95 95 97 99 100 99 98 97 98 98 98 97 96 94 93 92 91 91 90 90 90 91 92 93 93 94 93 93 93 92 92 94 95 96 96 96 96 96 96 96 95 96 96 95 94 92 90 87 85 88 90 92 92 92 92 92 91 91 90 88 87 85 83 82 81 80 81 82 83 85 90 92 92 92 92 90 90 92 92 91 90 90 91 92 90 87 85 83 83 83 83 83 83 83 83 83 83 83 83 83 83 83 83 83 83 84 84 83 83 84 84 84 84 85 86 86 86 86 86 86 86 86 86 86 86 86 86 86 86 86 85 88 89 90 91 93 94 96 97 98 99 100 100 100 98 96 94 93 92 91 85 83 83 83 83 83 83 83 83 83 83 83 83 83 83 83 83 83 83 83 83 83 83 83 83 83 84 87 90 93 96 98 99 99 100 100 100 100 100 100 100 100 100 100 100 99 100 100 100 99 98 95 95 95 95 95 95 95 95 95 95 95 95 95 95 96 97 98 98 99 100 100 99 96 95 95 95 94 94 92 90 87 85 86 86 85 90 93 95 93 86 83 83 83 84 84 84 83 82 81 81 80 80 80 81 80 80 80 80 82 83 83 83 83 82 81 83 84 85 84 82 80 80 80 81 81 80 80 80 80 80 80 80 80 80 80 80 80 79 79 79 79 79 79 79 78 78 78 78 78 78 77 77 77 77 77 77 77 77 77 77 77 77 77 77 77 81 83 83 85 87 91 92 92 91 90 89 89 88 88 87 86 85 84 84 85 84 85 85 86 87 87 88 89 90 93 94 95 93 90 88 87 87 87 88 90 92 94 95 96 96 95 94 93 91 90 88 87 86 86 88 88 87 85 84 82 81 80 77 76 76 76 76 76 76 76 76 76 76 76 77 78 80 82 83 84 84 85 85 86 87 87 88 89 91 93 94 94 93 92 91 91 93 97 103 107 111 112 113 114 113 111 108 107 106 103 101 98 94 90 86 84 77 70 65 63 62 61 61 60 56 56 56 56 56 55 56 57 59 60 60 60 60 59 59 59 60 59 59 57 54 54 54 54 54 54 54 54 55 56 56 56 57 59 63 67 70 70 69 68 67 65 60 56 54 54 54 54 54 54 54 54 54 54 54 54 54 54 54 54 54 56 58 61 63 65 66 68 68 68 68 68 67 66 66 67 67 68 68 68 66 63 62 62 62 61 60 60 60 60 59 59 59 59 60 61 62 62 60 59 58 57 57 57 57 57 57 57 57 57 59 60 61 61 62 62 62 62 61 61 60 59 59 59 59 59 60 62 64 66 67 68 68 66 64 61 61 60 57 56 55 54 53 52 51 50 50 50 49 49 48 48 48 48 49 51 52 52 52 53 52 50 49 48 48 47 46 46 46 46 47 48 48 48 49 50 51 53 55 58 62 65 67 68 70 71 73 74 74 76 78 80 80 80 79 77 74 70 66 60 53 52 52 52 52 51 51 52 52 52 53 53 53 53 53 54 57 60 62 63 63 63 64 65 67 68 69 69 70 73 76 77 76 73 69 67 65 63 61 60 58 57 56 56 56 56 56 56 56 56 55 54 54 54 54 53 53 53 53 53 52 52 51 51 51 50 50 49 48
195 195 195 195 194 192 192 192 196 199 200 200 200 200 201 202 203 204 204 201 200 200 199 199 198 195 193 191 191 191 190 190 190 189 189 188 187 186 184 183 180 177 174 172 172 171 168 164 163 165 168 169 168 167 165 160 156 154 153 153 149 143 140 141 143 143 142 140 137 135 133 131 130 129 129 128 127 126 125 122 120 119 119 122 127 126 122 123 125 128 131 132 132 128 122 116 112 108 107 107 107 107 109 110 110 110 108 107 106 105 105 109 119 125 127 129 129 127 123 118 115 112 108 105 102 100 99 98 98 99 99 99 99 98 98 95 95 96 97 97 98 100 100 98 98 97 96 95 95 95 95 97 101 104 106 108 108 107 106 105 105 105 106 107 108 109 112 112 110 110 107 104 100 97 95 95 95 95 95 95 95 95 95 95 95 96 97 96 96 95 95 95 94 93 93 93 92 92 91 91 90 90 89 91 92 93 93 94 94 94 93 92 93 95 95 96 96 96 96 96 96 96 96 96 96 96 95 93 91 90 88 91 92 94 94 94 93 93 92 92 91 88 85 83 81 80 80 80 82 84 86 86 89 91 90 90 90 91 91 92 93 92 91 91 92 92 91 89 88 84 83 83 83 83 83 83 83 83 83 83 83 83 83 83 83 83 83 85 85 84 84 84 83 84 84 85 87 87 87 87 88 88 87 87 87 86 86 86 86 86 86 86 85 85 86 87 88 90 91 92 92 93 94 95 95 95 94 93 92 91 90 87 83 83 83 83 83 83 83 83 83 83 83 83 83 83 83 83 83 83 83 83 83 83 83 83 83 83 85 90 95 99 101 102 102 102 102 102 102 101 100 100 100 100 100 100 99 99 99 98 98 97 96 95 95 95 95 95 95 95 95 95 95 95 95 95 95 97 99 100 100 101 102 102 101 99 97 96 96 95 95 93 91 88 87 87 87 86 90 94 95 94 87 83 83 83 84 84 83 83 82 81 82 82 82 82 82 80 80 80 80 82 83 83 83 83 83 83 84 86 86 86 84 82 82 82 82 82 82 81 81 80 80 80 80 80 80 80 80 79 79 79 79 79 79 79 79 79 79 79 79 79 78 77 77 77 77 77 77 77 77 77 77 77 77 77 77 78 81 83 84 84 85 88 89 89 88 87 86 86 85 85 85 84 84 84 84 84 84 84 84 84 85 85 86 87 89 93 94 95 95 93 90 87 86 86 87 89 90 92 92 93 94 93 92 91 89 88 86 85 84 85 85 86 85 85 84 82 80 78 76 76 76 76 76 76 76 76 76 76 76 76 77 79 81 82 83 85 85 86 86 87 88 88 90 92 96 99 100 100 98 97 95 93 93 95 97 102 106 107 109 112 113 113 112 111 110 109 107 105 101 97 92 87 81 74 69 64 62 61 61 59 57 56 56 56 56 56 57 58 59 60 60 59 59 59 59 59 59 59 58 55 54 54 54 54 54 54 55 58 59 60 60 60 60 63 68 72 75 75 73 71 68 66 63 58 55 55 55 54 54 54 54 54 54 54 54 54 54 54 54 54 54 56 57 60 62 64 65 66 67 67 67 66 65 65 65 66 67 67 67 66 65 63 62 62 62 61 61 60 60 60 60 59 59 59 60 61 62 62 61 60 58 57 57 57 57 57 57 56 56 56 59 60 60 60 61 62 62 61 61 60 59 59 59 59 59 61 63 65 66 66 68 69 68 67 66 63 64 63 61 58 56 55 54 53 51 50 50 49 49 49 49 49 49 49 49 51 53 53 53 53 53 51 50 49 49 47 47 47 47 47 47 48 48 48 48 49 51 53 54 57 62 65 66 68 69 71 72 73 74 76 78 80 80 80 79 77 74 70 66 59 52 52 52 52 52 52 52 52 52 52 53 53 53 53 54 55 58 62 63 64 64 65 65 66 67 69 69 70 70 72 76 77 76 73 69 66 64 62 61 59 57 57 56 56 56 56 56 56 56 56 55 54 54 54 54 54 54 54 54 53 53 52 51 51 51 51 50 50 49
195 195 195 195 195 193 192 192 194 196 197 197 197 197 197 199 201 202 203 201 200 200 198 198 197 195 193 191 191 191 190 190 189 189 189 188 187 185 184 183 180 176 174 172 171 171 168 164 162 163 163 164 163 162 160 157 154 153 153 151 147 142 140 142 143 142 140 138 137 135 132 131 130 129 129 128 127 126 125 123 120 118 118 122 126 125 122 121 122 124 126 128 127 123 117 113 110 108 107 107 107 107 108 109 109 108 107 106 104 104 104 109 118 126 130 133 133 130 126 122 117 113 110 106 102 100 97 96 96 98 98 98 98 98 96 95 95 95 96 95 96 100 100 98 98 97 96 95 95 95 95 97 100 104 106 108 109 109 108 107 106 106 108 109 110 111 113 113 112 111 109 106 101 99 98 96 95 95 95 95 95 95 95 95 95 95 95 95 95 95 95 95 93 93 93 93 92 92 91 91 90 89 89 90 92 92 93 93 94 94 93 93 94 95 95 95 95 95 95 95 95 95 95 95 95 95 95 94 93 92 91 92 93 94 94 94 94 93 92 91 89 86 81 81 81 80 80 82 84 85 86 87 88 89 89 89 90 90 90 91 91 92 92 92 92 93 92 92 91 87 85 84 83 83 83 83 83 83 83 83 83 83 83 83 83 83 84 87 87 85 84 83 83 83 83 86 87 88 88 89 89 89 88 88 87 87 87 86 86 86 86 85 85 85 85 85 86 87 88 88 88 89 90 91 91 91 90 89 89 89 87 84 83 83 83 83 83 83 83 83 83 83 83 83 83 83 83 83 83 83 83 83 83 83 83 83 83 83 87 93 100 104 106 106 107 107 107 107 106 104 102 101 100 100 100 100 99 98 98 97 96 95 95 95 95 95 95 95 95 95 95 95 95 95 95 95 95 97 99 100 102 103 103 103 103 101 99 98 97 96 95 94 92 90 89 88 87 88 92 96 97 95 87 83 83 83 84 85 85 84 84 84 84 85 84 83 82 81 80 80 80 81 81 82 82 82 83 84 86 87 88 88 87 84 84 84 84 84 84 83 81 80 80 80 80 80 80 80 80 80 80 79 79 79 79 80 80 81 81 81 81 80 80 79 78 77 77 77 77 77 77 77 77 77 77 77 77 79 81 83 84 84 83 86 87 87 86 86 84 84 83 83 84 83 83 83 83 83 84 84 84 84 84 85 86 86 89 93 95 96 96 96 92 89 86 86 86 88 88 90 91 91 91 91 90 89 87 86 84 84 83 83 84 85 84 84 83 81 80 77 76 76 76 76 76 76 76 76 76 76 76 76 77 81 82 83 84 85 85 86 86 87 89 90 92 96 101 105 107 106 105 103 100 97 95 95 94 97 101 102 104 108 110 112 111 110 109 110 110 108 105 101 97 90 85 79 73 68 63 61 60 59 57 56 55 55 55 56 58 59 59 60 59 59 59 59 59 59 58 57 55 54 54 54 54 54 54 54 57 63 65 66 66 66 66 69 73 77 80 81 78 73 70 68 65 60 56 56 56 55 54 54 54 54 54 54 54 54 54 54 54 54 54 54 56 58 61 63 63 64 65 65 65 64 64 64 64 65 66 66 66 65 63 62 62 62 62 61 61 60 60 60 60 60 60 60 60 61 62 62 62 60 59 57 57 57 57 57 56 56 56 56 58 59 60 60 60 61 61 61 60 59 59 59 59 59 61 63 64 66 66 67 68 69 68 67 66 64 65 65 64 61 58 55 54 54 52 51 50 49 49 49 49 49 49 50 51 52 53 54 54 54 53 52 51 50 49 49 48 47 47 47 47 47 48 48 48 49 50 52 54 56 60 63 65 67 68 70 72 73 74 76 78 80 80 79 78 77 74 70 66 59 52 52 52 52 52 52 52 52 52 52 53 53 54 54 55 57 60 62 63 64 65 65 66 66 67 69 69 69 69 71 75 77 75 72 68 65 63 61 60 59 57 56 56 56 56 56 56 56 56 56 55 55 55 55 54 54 54 54 54 53 53 52 52 52 52 51 51 50 50
195 195 196 195 195 194 192 191 191 193 194 194 194 194 195 197 199 202 202 201 200 200 198 197 196 195 193 191 191 191 190 190 189 188 188 187 186 185 184 182 180 176 173 171 170 170 169 166 163 161 160 159 159 156 154 153 152 151 151 150 146 141 139 140 141 139 138 137 136 134 131 131 130 129 130 129 129 128 126 124 120 117 118 122 125 124 121 120 120 121 123 124 122 118 114 111 110 108 107 107 107 107 108 108 108 108 106 104 104 104 104 108 116 124 130 136 137 134 129 125 120 115 112 108 104 100 97 95 95 96 97 98 98 97 95 95 95 95 95 95 95 98 100 98 97 97 97 96 96 96 96 96 98 102 107 110 111 111 111 109 108 108 109 111 112 114 114 113 112 112 110 107 103 101 101 99 97 95 95 95 95 95 95 95 95 95 95 95 95 95 95 94 93 93 93 93 92 92 92 92 90 88 88 89 91 92 92 92 92 93 93 94 94 94 94 95 95 95 95 95 95 95 95 95 95 95 94 94 93 93 93 93 93 93 93 93 93 92 91 89 85 82 80 83 84 83 83 83 85 85 86 87 88 88 88 89 89 90 90 90 90 91 92 93 93 93 93 92 91 90 90 89 87 85 83 83 83 83 83 83 83 83 83 83 83 83 86 90 90 86 84 83 83 83 85 87 89 89 90 91 91 91 90 89 88 88 88 87 86 86 86 85 85 85 85 85 85 86 86 86 86 86 87 88 88 88 87 86 86 85 84 83 83 83 83 83 83 83 83 83 83 83 83 83 83 83 83 83 83 83 83 83 83 83 83 83 83 83 88 95 102 107 109 110 111 112 112 111 110 108 105 102 100 100 100 99 98 97 96 95 95 95 95 95 95 95 95 95 95 95 95 95 95 95 95 95 95 97 99 101 104 105 105 105 105 104 103 101 99 98 96 94 92 91 90 89 89 89 93 97 99 96 88 83 83 83 84 86 86 87 87 87 87 87 85 84 82 82 80 80 80 80 80 80 81 82 84 86 88 88 90 91 89 86 86 86 86 86 86 85 83 80 80 80 80 80 80 80 80 80 80 80 81 81 81 82 83 84 84 83 82 82 82 81 80 78 77 77 77 77 77 76 76 76 76 76 76 78 81 83 83 83 83 83 84 85 84 84 83 83 83 83 82 81 81 81 82 83 83 83 83 83 83 84 85 86 89 92 93 95 97 98 95 91 87 85 85 86 87 87 89 89 89 89 88 87 86 84 83 83 83 83 84 85 84 84 83 80 79 78 76 76 76 76 76 76 76 76 76 76 76 76 78 82 83 84 84 85 86 86 87 88 91 92 94 100 105 110 113 113 111 109 105 102 99 96 94 94 97 98 99 103 107 108 107 105 104 107 108 107 106 103 99 94 89 83 77 71 65 61 60 59 57 56 55 55 55 57 59 59 59 59 59 58 58 58 57 57 56 55 54 54 54 54 54 54 54 55 60 67 71 72 73 73 74 75 77 82 85 86 83 78 73 71 67 62 57 57 58 55 54 54 54 54 54 54 54 54 54 54 54 54 54 54 55 57 60 61 62 62 63 63 63 63 63 62 62 64 65 66 65 64 62 62 62 62 62 61 61 61 61 60 60 60 60 60 60 60 61 62 62 61 59 57 57 57 57 57 56 56 56 56 57 58 59 59 59 60 60 59 58 58 57 58 59 60 62 64 65 67 67 67 67 67 67 67 66 66 66 66 65 62 59 56 54 53 53 51 50 49 49 49 49 50 50 51 53 53 54 54 54 54 53 53 52 51 51 50 48 47 47 47 47 47 48 48 48 49 50 51 53 55 58 61 63 66 67 69 71 72 73 75 78 79 79 77 76 75 73 69 65 59 52 51 51 51 52 52 52 52 52 52 53 53 54 54 56 58 61 63 63 64 66 66 66 66 67 67 68 67 68 69 73 75 75 71 66 64 62 60 59 58 56 56 56 56 56 55 55 56 56 55 55 55 55 55 54 54 54 54 54 54 53 53 53 53 52 51 51 50 50
194 195 196 196 196 194 192 191 191 191 191 191 191 193 196 198 199 201 201 201 200 200 199 197 196 195 193 192 192 191 191 190 188 187 187 186 186 184 183 181 179 176 172 171 170 170 169 167 164 161 159 158 157 153 151 150 149 149 150 149 146 141 139 139 139 139 138 136 135 133 131 131 130 131 132 131 130 128 126 123 119 116 116 120 123 123 121 118 119 120 121 121 119 115 113 111 110 108 107 107 107 107 107 107 107 106 105 104 104 104 104 107 114 122 129 136 140 137 133 128 123 118 114 109 105 101 98 95 95 95 96 97 97 96 95 95 95 95 95 95 96 97 98 98 97 97 97 97 97 97 97 97 98 101 107 112 113 113 112 111 109 108 110 112 114 114 113 113 112 112 110 108 104 102 102 102 99 97 95 95 95 95 95 95 95 95 95 95 94 94 94 94 93 93 93 93 93 93 92 92 90 88 87 87 89 90 91 91 92 92 93 93 93 94 94 94 94 94 94 94 94 94 94 94 94 94 94 94 93 93 93 93 93 93 92 91 91 90 88 84 81 80 82 86 87 86 86 84 85 85 86 87 88 88 88 89 89 90 90 90 90 90 92 94 94 94 94 92 92 92 92 92 91 87 84 83 83 83 83 83 83 83 83 83 83 84 88 91 90 87 84 83 83 83 86 89 91 91 92 92 93 93 91 90 89 89 88 87 86 86 86 86 85 85 85 85 85 85 86 86 86 86 86 86 86 86 86 85 84 83 83 83 83 83 83 83 83 83 83 83 83 83 83 83 83 83 83 83 83 83 83 83 83 83 83 83 83 84 89 96 103 109 112 114 116 118 118 115 113 111 108 104 101 100 100 99 98 96 95 95 95 95 95 95 95 95 95 95 95 95 95 95 95 95 95 95 95 97 100 103 106 107 107 108 108 107 106 105 103 101 99 96 94 92 91 90 90 90 95 98 100 98 89 84 83 83 84 86 87 88 89 89 88 87 86 84 83 82 80 80 80 80 80 80 81 82 84 87 89 90 92 92 89 87 87 88 88 87 87 85 84 81 82 82 81 80 80 80 81 81 82 83 83 84 84 85 85 86 85 85 84 84 83 83 82 81 79 77 77 77 77 76 76 76 76 76 76 77 80 81 82 82 83 83 83 83 83 83 83 82 82 82 81 81 81 81 81 82 83 83 83 83 83 84 85 86 87 90 92 95 99 99 97 93 89 86 85 84 85 85 86 86 86 86 86 86 85 83 83 83 83 83 84 84 84 84 83 80 78 77 77 76 76 76 76 76 76 76 76 76 76 76 79 82 84 84 85 86 86 87 87 88 92 94 97 103 107 113 117 119 118 115 112 108 104 99 95 94 94 95 96 100 102 104 102 99 97 98 102 103 103 101 98 95 91 86 82 74 67 62 60 59 56 56 56 56 54 56 57 58 58 59 58 58 58 58 57 54 54 54 54 54 54 54 54 54 54 57 63 71 76 76 77 77 78 78 80 85 91 92 90 84 79 75 71 67 63 62 60 55 54 54 54 54 54 54 54 54 54 54 54 54 54 54 55 56 59 61 61 61 62 62 62 61 61 61 61 62 63 65 65 63 61 61 61 61 62 61 61 61 61 61 60 60 60 60 59 60 60 62 62 61 59 58 57 57 57 56 56 56 56 56 57 58 58 58 59 59 59 58 57 57 57 58 60 61 62 65 66 67 67 66 66 65 65 66 66 66 66 66 64 62 59 56 53 51 51 50 50 49 49 49 50 51 52 52 53 54 55 55 55 55 54 53 52 52 51 50 49 49 48 47 47 47 48 48 48 49 49 50 51 53 55 59 62 64 66 68 70 72 72 74 76 77 76 74 73 72 70 68 65 59 53 51 51 51 52 52 52 52 52 52 53 54 55 55 56 59 62 63 63 64 65 66 66 66 66 66 67 67 67 68 71 73 73 69 65 63 61 59 59 57 56 56 55 55 55 55 55 55 55 55 55 55 55 55 55 55 54 54 54 54 54 54 54 54 53 52 51 50 50
193 195 196 195 195 194 191 191 191 191 191 191 191 194 197 199 200 201 202 202 201 201 200 198 197 196 194 193 192 192 191 190 187 186 185 184 184 183 182 181 179 176 172 170 170 170 170 169 166 164 161 159 157 154 150 149 149 148 148 148 146 141 138 138 137 137 137 136 134 132 131 131 132 134 133 132 131 128 126 123 120 117 115 118 121 121 119 117 117 118 119 118 116 114 113 112 110 109 108 107 107 107 106 105 105 104 104 104 104 104 104 106 113 120 127 135 140 140 136 132 126 121 116 111 107 102 98 95 95 95 95 96 96 96 95 95 95 95 95 95 95 96 97 97 97 97 97 97 98 98 99 99 99 101 105 112 113 111 111 110 107 106 108 110 111 111 111 111 111 111 111 109 104 103 104 104 102 98 96 96 95 95 95 95 95 95 95 95 94 94 94 94 94 94 94 93 93 93 93 93 91 89 86 86 87 88 89 90 91 92 93 93 93 94 94 94 94 93 93 92 92 92 93 94 94 94 94 93 93 93 92 92 91 91 91 89 89 87 83 80 80 81 84 87 89 88 87 86 86 86 87 88 88 88 88 89 89 90 90 90 90 90 92 93 93 93 93 92 92 92 92 92 92 90 88 86 85 84 83 83 83 83 83 84 84 86 89 91 90 87 83 83 83 84 88 90 92 93 94 94 95 94 93 92 91 90 89 89 88 87 87 87 87 86 86 85 85 84 84 84 84 85 85 85 85 84 84 83 83 83 83 83 83 83 83 83 83 83 83 83 83 83 83 83 83 83 83 83 83 83 83 83 83 83 83 83 83 84 90 97 104 110 115 117 119 121 121 118 115 112 109 105 100 99 99 99 98 95 95 95 95 95 95 95 95 95 95 95 95 95 95 95 95 95 95 95 95 98 102 105 108 109 109 110 110 110 109 109 108 105 103 100 97 94 93 92 91 92 96 99 101 100 91 85 84 84 85 86 88 89 91 90 89 87 86 85 84 82 80 80 80 80 80 80 80 82 84 88 90 90 92 93 89 88 88 88 88 87 86 85 84 83 84 85 84 83 81 82 84 85 86 87 87 87 86 87 87 87 87 86 86 85 84 84 83 82 80 79 77 77 77 76 76 76 76 76 76 76 78 81 81 82 82 82 82 82 82 82 82 82 81 81 81 80 80 80 81 82 82 83 83 83 83 83 84 85 86 88 92 96 99 100 98 95 91 87 85 84 84 84 85 85 85 85 85 85 85 83 83 83 83 83 83 84 84 84 83 80 77 76 76 76 76 76 76 76 76 76 76 76 76 76 80 82 84 84 85 86 87 87 87 88 90 93 97 102 107 114 119 122 124 121 118 113 109 103 97 94 93 93 94 96 97 99 97 93 89 89 93 96 97 96 94 93 91 88 84 77 69 63 60 59 58 58 57 57 55 54 55 56 57 57 56 56 56 56 55 54 54 54 54 54 54 55 55 55 56 59 66 74 78 78 78 79 79 80 84 90 95 96 95 90 85 81 76 72 70 67 61 54 53 53 54 54 54 54 54 54 54 54 54 54 54 54 55 56 58 61 61 61 61 60 60 59 59 59 60 61 62 63 63 63 61 60 60 61 61 61 61 61 61 61 60 60 59 59 59 59 59 61 62 62 60 59 57 56 56 56 56 56 56 56 56 57 57 58 58 59 58 58 57 57 58 59 60 61 62 65 66 66 66 65 64 63 63 64 64 64 64 64 62 60 58 55 52 49 49 49 50 50 50 50 51 51 53 53 53 54 54 55 55 55 54 53 52 52 51 49 49 50 50 47 47 47 47 47 47 49 49 50 50 52 54 57 61 63 65 67 69 71 72 73 74 74 73 71 70 69 67 66 64 60 54 51 51 51 52 52 52 52 52 53 53 54 55 55 57 60 62 63 63 63 64 64 65 65 65 66 66 66 65 66 69 72 71 67 64 62 61 60 59 57 56 55 55 55 55 54 54 55 55 55 54 55 55 55 55 54 54 54 54 54 54 53 53 53 53 51 51 50 49
