ncols         748
nrows         31
xllcorner     -72.0657666667
yllcorner     42.51164
cellsize      1.0E-5
NODATA_value  -9999
332 332 331 331 330 329 329 329 329 329 329 330 330 329 329 329 327 327 327 326 326 325 324 324 324 323 323 323 323 323 323 323 324 325 325 325 325 325 324 323 324 326 326 328 331 332 332 331 332 334 334 332 329 327 326 326 326 326 329 329 330 330 330 331 332 333 330 328 329 331 332 332 330 329 327 326 324 324 325 326 327 329 331 334 336 338 338 337 336 333 330 326 324 324 323 323 322 321 319 318 318 318 318 318 318 318 318 318 318 318 318 318 318 318 318 318 322 323 321 320 320 321 324 324 324 324 324 324 324 324 324 324 324 325 327 328 327 326 326 327 328 331 336 343 348 351 352 353 356 359 362 363 365 364 364 365 365 365 369 373 376 382 388 393 396 397 398 400 401 399 399 403 405 407 407 406 405 401 397 396 399 400 399 398 398 397 396 396 396 397 397 395 393 392 391 392 390 389 389 388 387 387 386 386 386 386 388 393 396 397 395 391 387 383 379 375 372 369 368 368 368 368 366 364 362 362 362 363 364 367 369 369 369 369 369 368 366 365 368 370 368 366 367 368 366 366 366 368 370 373 375 377 378 379 379 379 380 381 381 383 384 386 387 388 391 395 397 397 398 399 399 399 400 402 404 404 404 405 409 414 418 422 424 423 422 417 413 414 414 412 411 407 404 402 399 396 392 388 383 379 380 382 381 380 379 375 373 372 368 368 369 369 364 360 360 360 360 359 359 360 365 370 374 378 383 387 389 392 391 389 389 391 392 394 398 400 404 410 413 415 415 419 421 420 416 416 418 421 421 421 423 424 424 425 425 426 430 434 438 440 442 444 444 443 440 437 434 429 425 419 414 408 399 391 387 380 375 375 377 380 382 384 387 391 395 396 396 395 395 394 394 394 394 395 396 395 395 392 390 386 385 384 384 385 386 386 385 381 378 372 367 365 367 368 370 372 371 369 368 369 372 374 373 367 362 368 373 371 367 364 363 363 364 363 365 365 365 364 362 357 353 352 347 342 344 347 346 343 339 337 335 333 334 334 334 332 329 327 326 322 315 314 316 320 321 323 325 327 328 328 329 328 327 325 324 321 320 317 313 312 311 311 311 311 310 310 309 309 310 311 311 309 306 301 296 292 289 287 286 286 285 285 286 286 288 295 303 310 315 320 326 332 338 345 353 360 367 373 378 383 388 391 396 400 402 404 406 406 405 403 398 389 378 371 366 364 363 362 361 360 358 356 355 354 352 352 352 351 351 350 349 347 345 343 340 339 339 339 339 338 336 333 329 327 322 319 314 311 308 306 304 303 303 304 301 296 293 292 290 289 286 284 281 279 279 279 279 280 282 283 282 281 281 281 284 287 287 285 285 284 285 285 286 285 284 284 285 285 283 282 282 281 280 279 278 278 278 278 277 277 275 273 273 276 278 280 281 283 285 286 287 289 290 291 293 294 296 298 300 303 304 304 302 300 296 293 289 287 284 281 277 273 270 267 264 261 259 257 250 245 240 235 230 228 227 229 230 230 231 232 232 229 227 227 226 224 221 218 216 212 208 203 199 197 194 187 179 175 177 182 188 190 190 193 195 196 196 195 194 192 188 184 180 179 180 178 176 174 171 172 173 175 175 175 176 179 182 183 183 184 185 185 185 182 176 168 160 152 144 142 142 142 142 143 146 147 145 141 136 132 128 125 122 122 121 122 122 125
333 333 332 331 331 330 330 329 329 329 329 330 330 329 329 329 328 327 327 326 326 325 324 324 324 323 323 323 323 323 323 323 323 324 324 324 324 325 325 323 323 326 326 327 330 330 330 330 332 334 332 330 328 326 326 326 326 326 329 329 330 330 330 331 331 330 327 325 326 327 328 328 327 325 323 322 321 319 320 320 321 323 325 328 332 335 337 335 333 331 329 326 324 324 323 322 321 320 319 318 318 318 318 318 318 318 318 318 318 318 318 318 318 318 318 318 322 322 320 320 321 321 324 324 324 324 324 324 323 323 324 324 324 325 327 328 328 327 326 327 329 332 338 344 348 350 351 353 355 359 361 362 363 364 364 365 365 368 372 376 380 385 392 396 399 400 401 403 403 402 401 404 407 408 408 406 404 399 395 395 399 399 398 397 397 396 395 394 394 395 396 395 393 391 390 389 389 388 388 388 386 386 386 386 386 386 388 391 395 395 393 390 385 380 376 374 370 367 367 367 366 366 364 363 362 362 362 362 364 366 368 369 369 367 367 366 364 364 369 370 367 365 366 366 366 365 366 371 373 375 378 378 379 379 379 381 381 381 383 383 384 387 388 389 391 395 399 399 399 398 398 398 400 401 403 403 403 403 406 411 415 419 421 421 421 416 411 411 408 407 407 404 401 399 397 394 391 386 381 377 377 379 380 380 379 375 373 372 369 369 370 369 365 361 360 360 360 359 359 360 365 369 371 375 380 384 386 389 388 388 390 393 395 397 399 400 406 412 413 415 415 419 419 417 416 416 418 421 421 421 425 425 426 425 425 428 433 437 441 444 447 449 448 446 442 438 435 431 426 421 416 409 398 391 386 382 378 378 380 383 385 386 389 394 397 397 396 396 396 394 394 394 393 394 395 395 395 391 388 385 384 384 383 384 384 384 385 384 381 377 371 366 362 361 362 364 366 365 366 366 369 372 371 368 362 363 370 368 364 359 358 359 360 360 362 363 363 362 360 356 352 351 347 341 339 341 341 339 335 334 333 331 331 332 333 332 329 329 326 322 315 315 319 321 323 324 325 328 328 330 330 330 327 325 324 321 320 317 313 312 311 312 312 311 310 310 308 307 309 309 309 308 305 301 296 291 287 286 286 286 285 285 286 286 286 292 300 307 313 318 323 329 335 342 350 357 363 369 375 380 386 391 396 400 402 404 405 405 405 402 398 390 379 371 367 366 364 364 363 360 360 358 357 357 355 355 355 354 354 353 352 350 348 344 342 341 340 340 339 338 337 333 329 327 322 319 316 311 309 306 303 302 302 304 300 295 293 291 289 286 283 281 279 279 278 278 279 280 280 281 281 281 281 281 282 284 285 283 282 282 284 285 285 284 284 285 285 284 283 283 283 281 281 281 280 280 280 279 279 278 276 276 276 278 279 281 282 283 286 286 287 290 291 293 294 296 298 300 303 305 306 306 304 301 298 293 290 287 284 282 278 275 272 269 266 262 259 257 251 245 241 235 230 229 230 232 232 233 233 233 233 231 229 228 228 226 223 220 217 215 211 205 200 197 195 190 181 175 175 180 186 188 190 193 195 197 197 195 194 192 188 183 179 178 179 176 173 171 169 172 173 174 174 174 176 178 180 182 183 184 186 186 186 182 176 169 161 153 144 142 142 142 142 143 146 147 145 141 137 133 129 126 122 122 121 121 121 124
334 333 332 332 331 330 330 329 329 329 329 330 330 329 329 329 328 327 327 326 326 325 324 324 324 323 323 323 323 323 323 323 323 323 323 323 323 324 325 323 323 324 325 326 328 328 328 328 332 333 331 328 327 326 326 326 326 326 329 329 329 329 329 330 330 329 325 323 323 323 324 324 323 321 320 320 319 318 318 318 319 320 322 325 329 332 335 334 332 330 329 327 325 324 323 321 321 320 318 318 318 318 318 318 318 318 318 318 318 318 318 318 318 318 318 318 321 322 320 320 322 322 324 324 323 323 323 324 323 323 324 324 324 325 328 329 329 328 327 327 330 333 339 345 349 349 350 352 355 358 360 361 362 363 363 365 366 369 374 378 382 387 393 397 400 401 402 404 404 403 402 405 407 408 408 406 403 398 394 394 398 398 398 396 396 395 395 392 392 394 394 393 392 390 388 388 388 387 387 387 386 385 385 386 386 386 388 391 393 393 392 388 384 379 376 374 370 367 366 366 366 365 364 362 362 362 362 362 363 365 367 369 368 367 365 364 363 363 369 370 366 365 365 365 365 365 368 373 374 376 378 378 379 380 380 381 381 382 383 384 385 387 389 389 391 395 398 398 398 398 398 398 399 400 402 402 402 402 405 409 414 418 420 420 420 416 410 408 404 403 403 402 400 398 395 393 390 385 380 376 374 376 377 379 378 375 373 371 369 370 371 369 366 361 360 360 361 360 360 360 365 368 369 371 377 381 383 385 386 387 390 393 396 397 399 400 406 411 412 415 416 418 419 416 415 416 418 420 420 421 425 426 426 425 426 429 434 439 442 446 449 451 451 449 445 440 436 432 427 422 417 408 398 391 388 385 382 380 383 385 386 388 391 394 397 397 397 396 396 394 394 394 392 392 394 395 394 391 387 384 384 384 384 383 383 382 383 383 382 379 375 370 366 362 360 359 359 360 361 364 367 369 370 368 362 360 365 366 361 357 356 357 358 358 359 361 362 361 359 355 350 350 348 341 338 338 337 335 332 331 330 329 330 331 332 332 329 328 326 322 315 316 320 322 323 324 326 328 329 330 330 330 328 326 323 321 319 316 313 312 311 312 312 312 311 310 307 306 306 306 306 305 303 300 296 290 286 286 286 286 286 286 286 286 286 291 299 307 312 317 322 328 334 340 347 354 360 366 372 378 385 391 395 399 402 403 404 405 404 401 398 391 380 372 368 366 365 364 363 361 360 358 358 358 357 356 355 356 355 355 354 352 349 345 342 341 341 340 340 339 337 334 330 327 323 319 316 312 309 306 303 302 301 302 299 295 293 291 288 285 281 279 278 277 276 277 278 279 280 281 281 281 280 280 281 283 283 282 281 281 283 284 283 283 284 286 285 284 283 283 283 282 281 281 281 280 281 280 279 278 277 277 277 279 280 281 283 284 286 287 288 290 292 294 295 297 299 301 304 306 307 306 304 302 298 293 290 287 284 282 279 275 272 270 267 263 260 257 251 245 240 235 230 229 230 232 232 233 233 234 234 232 230 229 229 227 224 221 218 215 212 206 201 198 195 190 181 175 175 178 184 187 191 194 195 197 197 195 193 191 188 183 178 177 176 175 172 170 169 172 173 173 173 174 176 177 180 181 183 184 186 187 186 182 176 170 162 153 146 142 142 142 142 144 147 148 145 141 137 134 130 126 123 122 121 121 121 124
335 335 334 333 332 331 330 330 329 329 329 331 331 329 329 329 328 327 327 326 326 325 325 325 324 324 324 323 323 323 323 323 323 323 323 323 323 323 324 323 323 323 324 324 325 326 326 327 329 330 328 326 325 325 325 326 326 326 328 329 329 329 329 329 328 326 322 320 320 319 318 319 318 318 318 318 318 318 318 318 318 318 319 320 323 327 331 331 331 330 330 327 326 325 322 321 321 319 318 318 318 318 318 318 318 318 318 318 318 318 318 318 318 318 318 318 320 319 320 322 323 324 323 323 323 323 323 323 323 323 324 324 324 326 329 331 330 329 329 330 332 336 342 346 349 349 350 352 353 357 358 360 361 362 362 365 367 372 377 381 385 391 396 400 403 405 406 406 406 405 405 406 409 409 408 405 401 395 392 395 398 398 398 395 395 393 391 388 388 391 391 389 388 387 386 384 384 385 385 386 385 384 385 386 386 387 389 390 391 390 388 385 381 377 375 374 371 368 366 365 364 364 362 362 362 362 362 362 362 364 366 366 366 365 363 361 362 363 368 367 366 364 364 364 364 366 372 376 377 378 379 379 380 381 382 382 383 383 384 384 386 388 390 391 392 393 396 396 396 397 397 397 399 399 400 400 400 401 402 405 410 414 417 418 418 416 411 406 402 399 399 398 397 395 392 391 387 384 379 374 371 371 373 375 376 374 372 371 371 371 371 369 367 362 361 362 362 360 359 360 365 368 366 368 371 375 379 383 386 388 391 396 399 400 401 402 407 411 413 415 416 417 417 415 414 416 418 419 419 420 425 428 427 427 428 432 437 442 445 449 452 454 455 453 449 444 440 435 429 424 417 407 398 393 392 390 385 384 387 388 390 392 394 396 398 398 397 397 396 394 394 394 392 392 392 392 390 387 385 383 383 384 384 383 382 380 379 380 381 381 380 377 373 370 364 359 354 352 354 360 364 366 368 367 363 358 358 359 357 355 355 355 355 356 356 359 359 359 357 352 347 349 349 344 337 334 332 331 329 326 326 326 326 327 329 330 329 327 324 320 317 318 321 323 324 325 326 328 329 330 330 330 328 326 323 320 317 315 313 313 313 313 313 312 311 311 307 303 301 301 301 301 300 299 296 291 286 286 286 286 286 286 286 286 286 289 296 304 310 315 320 325 331 337 343 349 355 362 368 375 382 390 394 397 400 402 403 403 403 400 397 392 383 373 368 367 365 365 363 362 361 360 361 362 361 360 359 359 359 358 358 357 353 349 346 344 342 341 341 340 339 336 331 329 324 321 318 313 310 305 303 301 299 299 298 294 292 290 287 283 280 277 275 274 274 275 278 279 280 282 282 282 281 280 280 280 280 280 280 280 281 281 282 283 285 287 286 284 284 284 285 284 284 284 284 283 283 282 281 280 279 279 279 280 281 283 284 284 286 287 289 291 293 295 296 298 301 303 306 308 308 308 304 301 297 293 290 287 284 283 280 276 274 272 269 264 261 257 252 245 240 234 231 230 230 230 232 234 234 235 235 233 231 231 232 229 225 222 218 216 212 208 203 199 195 189 181 175 174 178 183 187 192 195 196 197 197 195 193 190 186 181 177 174 173 172 170 167 168 172 173 173 173 175 177 177 178 180 182 184 187 187 186 182 178 172 165 156 149 145 144 142 142 146 149 149 146 142 137 135 131 127 124 122 121 121 121 123
337 336 336 335 334 332 331 330 329 329 329 332 332 329 329 329 328 327 327 326 326 326 326 325 324 323 323 323 323 323 323 323 323 323 323 323 323 323 323 322 322 322 323 324 324 324 325 326 328 329 327 326 325 324 324 326 326 327 328 328 329 329 329 329 327 323 319 320 320 318 318 318 318 318 318 318 318 318 318 318 318 318 318 318 320 322 326 329 329 329 329 327 326 325 322 321 320 319 318 318 318 318 318 318 318 318 318 318 318 318 318 318 318 318 318 318 318 319 321 323 323 324 323 323 323 323 323 323 323 323 324 324 324 327 330 331 332 331 330 331 334 339 344 346 349 350 350 352 352 354 356 358 360 362 363 366 369 373 378 381 386 392 398 402 408 410 410 409 407 406 406 407 409 409 408 404 400 394 392 395 398 398 397 394 393 389 386 384 384 387 387 385 384 385 383 380 380 381 382 383 383 383 385 386 386 388 389 389 390 389 385 382 379 376 375 374 371 369 367 365 364 364 362 362 362 362 362 362 362 363 365 365 365 363 362 361 362 363 366 366 365 364 364 364 364 369 375 379 379 379 380 380 381 382 382 383 384 384 384 385 387 390 390 391 392 393 395 395 395 397 397 397 399 399 399 400 399 398 399 400 405 409 412 414 414 414 411 407 403 399 396 395 394 393 391 389 386 382 378 374 370 368 370 372 374 373 371 370 371 371 369 368 366 363 362 362 362 360 359 360 365 368 366 366 369 373 378 384 387 389 394 400 403 403 403 406 411 413 415 416 416 416 415 414 413 415 418 418 418 420 425 429 429 429 430 435 440 443 446 451 454 456 458 458 454 449 444 437 432 424 417 407 399 397 397 393 387 386 389 392 394 396 397 399 399 398 397 397 396 395 394 394 393 392 390 389 387 384 382 380 382 385 385 382 381 378 376 376 377 379 380 380 378 376 373 367 359 352 350 353 360 363 365 365 364 358 356 356 356 359 359 358 356 356 356 357 357 357 354 351 346 346 348 345 338 334 332 329 326 323 322 322 322 323 325 327 328 325 320 317 317 320 323 323 325 325 326 328 329 330 330 329 327 325 322 319 317 315 314 314 314 314 314 312 311 311 307 302 298 297 298 298 298 297 295 291 287 286 286 286 285 285 286 285 285 287 293 300 306 312 317 323 329 334 340 345 351 357 364 371 378 387 392 396 398 401 402 402 401 398 395 392 385 375 369 367 365 365 364 363 363 363 364 365 364 364 363 362 362 361 361 361 359 354 351 348 345 342 341 340 340 337 333 331 326 322 319 314 310 306 302 300 297 296 295 292 290 288 285 283 280 276 274 273 273 275 277 278 280 282 282 283 282 280 279 280 280 280 280 280 281 281 283 286 287 288 287 286 286 286 286 286 286 286 285 284 283 282 282 281 280 281 281 281 282 283 284 285 287 287 289 292 294 296 298 301 303 305 306 308 308 307 304 300 296 292 290 286 284 283 280 278 275 273 270 267 262 258 252 245 239 235 234 233 231 230 231 233 234 235 235 233 231 232 233 230 226 223 219 216 213 209 204 199 195 188 179 174 173 178 183 189 193 195 196 197 197 195 192 189 184 179 175 172 171 170 167 164 167 171 172 172 172 175 177 177 178 179 182 183 186 186 184 181 179 173 166 159 152 147 144 143 143 147 150 150 147 143 139 137 134 130 126 124 121 120 121 123
338 338 337 336 335 333 332 330 329 329 329 331 331 329 329 329 328 328 327 327 327 327 327 325 324 323 323 323 323 323 324 324 324 323 323 323 322 322 322 321 321 321 322 323 323 323 324 325 327 329 329 326 325 324 324 326 328 328 329 329 329 329 329 330 328 323 319 319 320 318 318 318 318 318 318 318 318 318 318 318 318 318 318 318 318 318 321 325 326 326 326 326 325 324 321 320 319 318 318 318 318 318 318 318 318 318 318 318 318 318 318 318 318 318 318 318 318 319 323 324 324 323 323 323 323 323 323 323 323 323 324 324 325 328 331 331 332 331 330 332 334 340 344 347 349 350 350 351 351 353 355 357 360 362 363 367 370 374 378 381 387 394 400 405 411 414 414 412 409 406 406 407 409 409 407 403 399 393 391 394 398 397 395 391 389 385 382 380 380 382 382 381 380 380 379 375 376 377 379 380 383 383 385 386 386 387 388 389 389 386 382 380 378 376 375 374 372 370 368 365 364 364 362 362 362 362 362 362 363 364 365 364 364 363 362 362 362 362 365 364 363 364 364 364 364 371 378 380 381 380 380 381 382 383 383 384 384 384 385 386 388 390 391 392 393 393 395 395 395 396 396 397 398 398 399 400 399 397 396 396 399 404 408 410 410 409 407 403 401 397 393 392 392 391 390 388 386 380 377 373 368 366 368 371 373 372 370 369 371 371 369 367 365 363 362 362 362 360 360 360 364 366 365 367 370 375 381 387 389 392 397 404 407 408 408 410 414 416 416 416 415 414 414 413 412 414 416 417 418 423 428 430 430 431 433 438 442 445 448 452 454 458 462 462 460 454 447 440 432 425 418 408 401 400 399 394 387 388 392 395 397 399 400 401 400 399 398 398 397 395 395 393 393 392 390 389 387 383 380 378 381 384 382 380 377 375 373 372 373 375 379 380 380 379 377 373 367 356 349 348 353 358 361 364 363 359 356 356 360 364 364 361 359 356 355 355 355 355 353 350 346 343 345 344 338 333 330 326 323 320 318 318 317 318 319 323 324 321 316 316 320 323 324 324 325 326 326 328 328 329 329 327 326 324 322 319 317 315 314 314 314 314 314 313 312 311 307 301 296 295 295 296 296 295 293 291 288 286 286 286 285 285 286 285 285 286 290 297 303 310 315 321 327 331 337 342 346 352 359 366 374 381 388 392 395 397 399 401 400 397 394 391 385 376 369 366 365 364 364 363 364 366 367 367 367 367 366 365 365 365 365 364 362 358 354 351 348 344 342 340 339 337 334 332 327 323 319 315 312 307 302 299 296 294 294 291 290 288 285 283 280 276 273 272 272 273 275 277 279 281 282 282 281 280 279 279 280 280 280 280 281 282 285 288 288 288 288 289 289 288 287 287 287 287 287 285 284 283 283 282 281 282 282 282 282 284 284 285 287 287 290 293 295 297 299 302 304 306 306 307 306 305 303 299 295 292 289 286 284 283 281 279 276 274 272 268 264 259 253 246 239 237 236 236 234 231 231 233 235 235 235 232 231 232 233 230 227 224 220 217 214 209 204 199 194 187 179 173 173 179 185 191 195 196 197 197 197 194 190 186 182 177 172 170 169 167 164 162 166 170 171 170 172 174 176 177 177 179 180 182 184 184 182 180 178 174 166 160 153 148 145 144 144 148 150 150 148 145 142 140 138 134 129 125 121 120 120 122
339 339 338 337 336 335 333 331 330 329 329 330 331 330 330 330 329 329 329 330 330 328 328 326 325 323 323 323 323 323 324 324 324 324 324 323 322 322 322 321 321 321 321 322 323 323 323 323 325 328 329 328 326 324 325 328 330 331 330 329 329 330 331 331 328 322 318 318 318 318 318 318 318 318 318 318 318 318 321 322 319 318 318 318 318 318 318 319 319 320 322 324 323 321 319 318 318 318 318 318 318 318 318 318 318 318 318 318 318 318 318 318 318 318 318 318 318 322 323 323 323 323 322 322 322 323 323 323 323 323 324 324 325 328 331 331 331 331 331 332 334 340 344 347 349 349 349 350 350 352 355 358 360 362 364 368 371 374 378 381 387 395 401 408 413 416 416 413 411 406 405 407 409 408 405 401 396 390 389 393 395 394 391 386 383 380 377 375 375 375 375 375 373 373 372 372 373 375 378 380 383 383 385 385 386 387 387 387 387 382 380 379 378 377 376 376 374 373 370 366 364 364 362 362 361 362 362 362 363 364 365 364 364 363 363 362 361 361 362 363 363 364 365 365 367 374 378 382 382 382 382 383 385 385 386 386 386 386 386 387 388 391 391 392 393 393 395 395 395 396 396 396 398 398 399 399 399 397 394 393 394 398 401 403 404 404 402 399 397 394 390 389 389 390 389 388 385 380 375 371 366 363 366 370 371 370 368 368 370 371 370 368 364 362 362 362 361 360 360 360 361 362 363 367 372 378 384 389 393 396 400 404 407 408 408 412 416 417 417 416 414 413 412 411 411 413 415 417 420 425 429 430 431 433 435 439 443 446 449 453 455 460 465 467 463 457 449 441 434 425 418 409 402 402 399 393 388 392 395 398 400 401 401 402 402 402 400 399 397 395 394 393 392 392 390 389 386 383 380 378 378 379 378 376 374 372 370 368 368 370 375 378 380 379 377 376 372 363 353 347 347 351 357 361 362 359 356 358 365 367 367 364 362 360 356 354 353 353 351 348 345 340 340 341 336 329 326 323 319 317 316 316 316 316 316 317 318 317 316 318 323 324 324 325 326 326 327 327 327 327 326 325 324 322 322 319 317 316 316 316 315 314 314 313 312 311 307 300 295 292 293 293 292 292 290 289 288 286 286 286 286 286 286 286 286 286 290 297 302 309 314 320 325 329 333 338 343 348 355 362 370 377 383 388 391 394 396 397 398 395 393 390 386 376 369 366 364 364 364 365 366 368 369 370 370 370 369 368 368 369 368 367 365 362 357 353 349 346 343 340 338 337 334 333 328 323 318 314 312 308 303 299 296 294 292 290 289 288 285 283 280 276 273 272 272 272 274 276 278 280 280 279 278 278 279 279 279 280 280 281 283 285 287 289 289 290 291 291 291 290 290 290 290 289 288 286 284 284 284 284 284 284 283 283 283 284 284 285 287 287 290 294 296 298 301 302 305 305 305 304 303 302 300 297 294 291 288 285 283 283 282 280 278 276 273 269 265 260 254 246 241 239 237 237 234 231 231 234 238 236 233 231 230 231 232 230 227 225 221 218 214 209 203 199 193 186 177 172 177 182 187 192 195 197 198 198 197 193 188 184 180 176 171 167 166 165 161 160 164 167 169 170 172 173 174 175 176 179 180 182 183 183 181 180 177 172 165 160 154 150 146 144 145 150 152 150 148 147 144 143 141 137 131 127 122 119 119 121
340 340 339 338 337 336 334 332 331 329 329 330 330 329 329 329 329 330 332 333 333 331 329 327 326 324 323 323 323 323 324 324 324 323 323 323 322 321 321 321 321 321 321 322 323 323 323 323 323 325 325 324 324 323 326 331 332 333 333 330 329 330 332 331 327 321 318 318 318 318 318 318 318 318 318 318 318 318 322 328 324 319 318 318 318 317 318 318 317 318 318 321 322 319 318 318 318 318 318 318 318 318 318 318 318 318 318 318 318 318 318 318 318 318 318 318 320 323 323 322 322 322 322 322 322 323 323 323 323 323 326 326 326 327 330 330 331 331 332 332 333 339 344 347 349 349 349 350 350 352 356 358 360 362 365 368 372 375 378 381 387 395 401 408 413 416 416 413 410 406 404 405 407 405 402 397 392 388 388 390 391 390 386 379 377 373 372 370 370 370 370 370 370 370 370 370 371 375 378 381 382 383 384 384 385 386 386 386 383 379 378 378 378 377 377 376 375 373 371 367 365 364 362 362 361 362 362 363 364 364 364 364 364 362 362 362 361 361 361 363 364 365 366 367 370 375 378 382 382 382 383 385 386 387 387 387 386 386 386 387 388 390 391 392 393 393 395 395 395 396 396 396 397 398 398 398 398 397 393 391 390 392 395 397 398 398 397 395 393 391 387 386 386 388 389 387 384 380 375 369 363 362 365 367 368 368 366 367 369 371 371 368 364 361 361 361 359 359 359 359 359 359 361 366 373 380 386 392 397 399 401 403 405 405 407 413 416 417 416 415 412 411 410 410 411 413 415 419 423 426 429 430 431 432 435 441 444 446 449 453 457 462 467 469 465 457 449 441 434 426 419 410 403 401 398 393 392 396 398 400 402 402 402 402 402 402 400 399 398 396 394 393 391 391 389 388 385 382 380 378 377 376 376 374 373 372 369 366 366 366 369 374 377 377 377 375 372 366 359 350 346 346 351 357 360 359 356 359 366 368 369 367 365 363 357 353 353 352 350 347 344 339 336 337 332 326 322 319 316 316 316 316 316 316 316 316 316 316 317 321 323 325 325 325 326 326 326 327 326 326 325 325 323 322 322 320 318 317 317 316 315 314 314 313 312 310 306 299 294 291 290 290 289 289 289 288 287 286 286 286 286 286 286 286 286 287 291 297 301 307 313 318 323 327 330 335 339 344 350 358 365 372 378 384 387 390 392 393 394 394 392 389 385 376 369 366 364 364 364 366 369 370 372 372 372 372 372 371 372 372 372 371 369 365 361 356 351 347 344 341 339 336 334 332 328 324 318 314 312 308 304 300 297 294 291 289 288 287 286 285 280 275 272 271 271 271 273 275 277 279 278 277 278 278 279 279 279 280 281 283 285 288 289 290 290 291 291 292 292 291 292 293 293 292 291 289 287 285 285 285 285 285 284 283 283 284 284 285 286 287 290 294 297 299 301 302 304 304 302 301 300 299 297 295 293 290 287 284 283 283 283 282 281 279 276 272 267 262 255 247 242 239 237 237 234 231 232 236 241 239 234 231 229 230 231 229 227 225 221 218 213 207 201 197 191 184 174 172 179 184 189 193 196 197 198 198 196 191 186 182 178 174 170 166 165 163 158 158 163 166 168 170 171 172 173 174 176 179 180 181 182 182 181 179 176 171 165 159 155 151 147 144 146 152 153 151 149 148 146 146 144 139 132 128 123 120 119 120
341 341 341 339 338 337 336 334 332 329 329 330 330 329 329 329 329 332 335 336 335 333 331 329 327 326 325 323 323 323 323 323 324 322 322 322 321 321 321 321 321 321 321 321 322 322 322 322 322 322 321 320 321 322 326 329 331 332 334 331 329 329 328 327 325 320 318 318 318 318 318 318 318 318 318 318 318 319 323 329 330 324 318 318 318 317 318 318 318 318 318 318 319 317 318 318 318 318 318 318 318 318 318 318 318 318 318 318 318 318 318 318 318 318 318 318 320 323 322 321 321 321 321 321 322 323 323 323 323 323 325 325 325 326 328 330 331 331 332 332 334 338 343 346 349 349 349 350 350 353 357 357 359 362 365 370 373 376 379 381 387 395 401 407 412 415 416 413 410 406 403 402 403 401 398 393 389 386 386 387 387 385 380 374 372 370 370 370 370 370 370 370 370 370 370 370 371 376 379 382 382 381 382 383 383 384 384 383 380 376 376 377 377 377 378 378 376 373 371 369 366 364 363 363 362 362 362 363 364 364 364 363 363 362 362 362 362 362 362 364 365 367 367 370 373 376 379 381 381 382 384 386 388 389 389 389 388 387 387 387 388 389 391 392 394 394 395 395 395 396 396 396 397 397 397 397 397 396 393 389 386 386 389 391 392 392 392 390 389 387 386 384 383 385 387 386 383 380 374 368 363 360 362 364 365 365 364 365 367 370 370 368 363 360 360 359 359 359 359 358 359 359 359 363 373 382 387 393 398 399 401 401 402 402 407 413 415 415 415 413 410 410 410 410 411 413 416 420 423 426 428 429 430 432 435 441 444 446 449 453 457 463 467 469 465 457 449 442 435 427 421 413 406 401 398 394 396 399 402 404 404 404 404 404 402 402 401 401 399 397 395 393 391 391 389 387 385 383 382 382 381 380 380 379 378 377 375 371 368 365 364 366 369 372 373 373 371 366 362 355 348 345 346 351 356 358 355 358 363 367 369 368 367 364 358 353 352 351 350 347 344 338 332 331 328 323 319 316 316 316 316 316 316 316 316 316 316 317 320 323 323 325 325 325 325 325 326 326 325 325 325 325 323 323 323 322 320 319 317 317 315 315 315 313 312 310 304 297 291 289 289 289 289 288 287 286 286 286 286 286 286 286 286 286 286 287 292 296 299 304 310 316 322 325 328 332 336 341 347 354 361 368 374 379 382 385 387 389 390 390 389 387 383 376 370 367 365 365 366 368 371 372 373 374 374 375 375 375 375 375 375 374 372 368 364 359 355 350 346 343 339 336 333 332 328 323 318 314 311 308 304 301 297 294 290 287 286 284 285 283 279 274 272 270 270 270 272 274 276 276 276 276 278 278 279 279 279 281 283 285 287 289 290 291 291 292 293 293 293 294 295 296 296 296 294 292 289 287 287 286 286 286 284 283 283 283 283 284 286 287 290 294 297 300 301 302 302 300 298 297 297 296 295 293 290 288 286 284 284 284 284 284 283 281 279 274 269 263 256 250 244 240 237 236 234 232 234 239 243 242 237 232 229 229 230 227 225 223 221 217 211 206 200 195 190 184 173 173 180 186 190 193 196 197 198 198 195 190 185 181 177 173 168 165 165 161 157 158 163 166 168 170 170 171 173 174 176 179 179 180 181 180 179 178 175 170 163 158 155 154 149 144 147 153 154 152 150 149 148 146 143 139 133 129 125 121 119 119
342 342 342 340 339 338 337 335 333 330 330 330 330 330 329 329 330 335 338 337 336 334 332 329 329 328 326 324 324 323 323 323 323 322 322 322 321 321 321 321 321 320 320 320 321 321 321 321 321 321 320 320 320 321 323 325 326 328 330 329 328 326 325 324 322 319 318 318 318 318 318 317 318 318 318 318 318 318 324 330 332 329 321 317 317 318 318 318 318 318 318 318 317 317 318 318 318 318 318 318 318 318 318 318 318 318 318 318 318 318 318 318 318 318 318 318 320 322 321 321 321 321 321 322 323 324 324 323 323 323 325 324 324 325 328 329 330 331 332 333 335 338 342 346 348 348 349 350 351 353 356 357 359 362 366 370 374 376 379 382 388 394 400 406 410 414 415 413 410 406 403 400 400 398 395 390 386 385 385 385 384 381 376 371 370 370 370 370 370 370 370 370 370 370 369 369 370 375 379 383 383 380 380 382 382 383 382 381 377 375 375 376 376 377 378 378 376 373 371 370 367 364 363 363 362 362 362 363 363 363 363 363 363 362 361 361 362 362 363 365 367 368 370 372 375 378 381 381 382 383 385 387 390 391 391 390 390 389 387 387 388 389 390 392 394 394 395 395 395 396 396 396 397 397 396 396 396 395 392 389 383 382 382 385 386 386 386 385 384 384 384 382 382 382 384 384 381 378 373 367 361 359 359 361 362 362 362 364 367 370 370 366 362 359 359 359 359 359 360 360 359 359 359 363 372 382 389 394 398 399 400 400 401 401 407 413 415 414 413 411 410 410 410 410 411 414 417 420 423 426 427 428 429 431 434 440 444 446 448 452 457 462 467 468 464 457 450 443 436 430 422 414 407 401 398 398 400 403 406 408 408 408 407 407 405 403 402 401 400 398 395 394 392 391 389 387 385 384 384 386 387 387 387 387 386 385 382 379 374 369 364 361 362 365 368 368 368 366 363 358 351 345 344 346 352 355 353 355 360 363 366 367 366 364 358 352 350 350 349 347 343 336 329 326 325 321 317 316 316 316 316 316 316 316 316 316 316 319 322 323 324 325 325 325 325 324 324 325 324 324 324 324 324 324 324 322 321 319 317 316 315 314 314 313 311 309 303 297 291 291 292 292 290 288 286 286 286 286 286 286 286 286 286 286 286 287 292 296 299 303 308 314 319 322 326 329 333 339 345 351 357 363 369 374 378 380 382 384 386 386 385 384 381 375 371 368 365 365 367 370 372 374 375 376 377 377 378 378 378 378 378 378 375 371 367 362 358 354 350 345 341 336 333 332 329 323 318 314 311 308 304 301 297 293 289 286 284 282 281 280 277 273 271 269 269 269 271 272 274 275 275 275 277 278 278 279 279 282 284 286 288 289 291 292 292 293 293 293 294 295 298 300 300 299 297 295 292 290 288 287 286 286 284 283 283 282 282 283 285 287 290 294 296 299 299 300 299 296 294 293 294 294 293 290 287 286 285 283 284 284 285 285 284 284 282 276 271 264 256 250 245 240 237 236 234 233 237 241 243 241 238 234 230 228 227 225 222 221 219 215 209 204 200 196 194 187 174 172 180 185 189 193 195 197 198 197 193 188 183 179 175 171 166 164 164 159 155 159 163 166 167 169 169 171 173 174 176 178 179 180 180 179 178 176 173 168 162 157 155 153 149 147 147 152 154 153 151 149 148 146 143 139 134 130 126 122 119 119
344 344 343 341 340 339 338 336 334 331 330 330 330 330 330 330 333 338 338 338 336 334 333 332 331 330 328 327 327 325 324 323 323 322 322 322 322 322 321 321 321 320 320 320 320 320 320 320 320 320 320 320 320 320 322 322 323 325 326 326 325 323 322 321 320 318 318 318 318 318 318 317 318 318 318 318 318 318 323 330 332 329 322 317 317 318 318 318 318 318 318 318 318 318 318 318 318 318 318 318 318 318 318 318 318 318 318 318 318 318 318 318 318 318 318 319 320 321 321 321 321 321 322 322 323 323 323 323 323 323 323 323 323 324 327 328 330 331 333 335 337 338 341 346 348 348 350 351 352 353 356 357 360 364 367 371 374 377 379 382 388 393 398 404 408 412 413 413 410 406 402 400 398 396 391 387 384 383 383 382 381 378 375 371 370 370 370 370 370 369 369 370 370 370 369 369 370 375 380 385 384 380 378 380 381 382 381 380 376 373 373 374 375 378 378 378 376 374 372 370 368 366 363 363 362 362 362 363 363 363 363 363 363 361 360 360 362 362 364 366 368 369 371 373 377 380 382 383 383 384 386 388 391 393 393 393 392 391 389 388 388 389 390 392 394 394 395 395 395 396 397 397 396 396 396 395 395 394 392 389 384 379 379 381 382 382 381 381 381 381 381 381 379 380 382 383 380 376 372 366 360 357 357 358 360 360 360 362 366 370 370 367 362 358 359 359 359 362 365 365 363 362 361 364 372 382 390 396 399 399 398 400 401 401 406 413 415 413 411 410 410 412 412 410 412 416 419 420 421 424 426 427 428 430 432 438 443 445 447 452 456 461 465 466 463 458 452 445 439 433 425 417 408 401 400 402 405 407 409 411 411 410 409 408 407 407 406 403 401 399 397 395 393 391 389 386 386 386 387 389 391 393 393 393 392 390 388 386 381 375 368 362 359 359 362 364 364 364 362 358 353 348 343 343 348 352 351 352 356 359 361 363 364 363 358 352 348 347 347 347 342 335 327 323 322 318 316 316 316 316 316 316 316 316 316 316 318 321 324 325 326 325 325 325 324 324 323 322 322 322 323 323 324 324 324 322 321 319 317 315 314 314 313 311 310 307 301 297 293 295 296 296 292 289 286 286 286 286 286 286 286 286 286 286 286 288 292 296 300 303 308 313 317 321 326 328 331 336 342 348 354 358 363 368 372 374 377 379 381 382 381 381 379 375 372 369 367 367 369 372 375 377 378 379 380 380 381 381 382 382 382 381 379 375 370 365 361 357 353 349 344 337 334 334 330 323 318 314 311 308 304 301 297 293 288 285 285 282 280 278 275 272 270 269 269 269 270 271 272 273 273 274 276 276 277 278 279 283 285 286 288 289 291 293 294 295 295 295 296 298 300 303 303 302 300 298 295 292 290 288 286 286 285 284 283 281 281 281 283 286 290 293 295 295 295 295 293 291 290 290 291 290 289 286 284 284 283 282 283 285 287 287 286 284 281 277 272 266 256 250 246 241 238 236 235 235 239 242 242 241 237 234 230 227 224 222 220 220 217 214 209 204 200 197 197 192 178 169 175 182 187 191 193 195 195 194 191 187 183 178 174 170 165 162 161 156 155 159 163 165 166 168 169 170 173 174 176 178 178 179 178 178 176 174 170 164 159 156 152 149 147 147 148 151 153 152 151 150 149 147 145 139 135 131 127 123 119 119
345 345 344 342 341 340 339 337 335 332 330 330 330 330 330 332 336 339 339 338 337 336 335 334 333 332 330 330 329 328 326 324 323 323 323 323 323 323 323 323 323 323 322 322 320 320 320 319 319 320 319 319 319 319 320 320 321 322 323 323 323 321 321 319 318 318 318 318 318 318 318 318 318 318 318 318 318 318 322 329 331 328 321 318 318 318 318 318 318 318 318 318 318 318 318 318 318 318 318 318 318 318 318 318 318 318 318 318 318 318 318 318 318 319 319 318 320 321 321 321 321 321 322 322 323 323 322 322 322 322 322 322 322 323 325 327 330 332 335 337 339 340 341 345 348 349 350 351 353 354 356 358 362 365 368 372 375 378 380 383 388 393 396 401 406 409 411 411 408 404 400 399 397 392 388 384 382 382 381 380 378 376 374 371 371 370 370 370 370 369 369 370 370 370 369 369 370 375 381 386 386 381 377 379 380 381 381 380 375 371 371 372 375 378 379 379 377 375 373 371 369 366 364 363 362 361 362 363 363 363 363 362 362 360 360 360 362 362 365 368 368 370 372 374 378 381 382 384 384 385 387 390 393 394 395 394 394 392 390 388 388 388 389 392 393 393 395 395 395 396 397 397 396 396 395 394 394 393 391 389 384 380 378 378 379 379 378 378 378 378 379 378 377 377 380 381 379 375 370 365 359 356 355 355 357 358 358 359 363 368 369 367 361 357 358 360 362 364 369 369 366 365 364 367 374 383 391 396 399 399 398 399 401 401 404 411 412 411 410 410 411 415 416 412 413 418 420 420 421 423 426 426 427 429 432 436 441 444 446 451 456 460 462 463 462 457 452 447 442 436 428 421 412 406 406 408 410 410 411 413 413 411 409 410 410 410 409 406 402 400 399 396 395 393 390 387 387 387 389 392 395 398 399 399 398 396 393 390 386 381 374 368 362 355 356 357 359 359 358 356 353 348 343 342 345 348 349 349 351 353 356 358 360 359 357 351 347 346 347 346 342 334 327 323 320 317 316 316 316 316 316 316 316 316 316 316 318 321 325 326 326 326 326 325 324 324 323 321 321 321 322 322 323 323 323 322 320 318 316 314 314 313 312 311 309 305 299 297 296 297 297 295 291 288 286 286 286 286 286 286 287 287 287 287 287 288 292 296 300 304 308 312 316 321 326 329 330 334 339 345 350 354 358 362 365 368 370 372 374 376 377 377 377 375 372 370 369 369 371 373 376 378 380 381 382 383 384 384 385 386 386 385 383 379 373 368 364 360 356 352 347 340 334 333 330 325 319 314 312 308 305 302 297 293 288 285 286 285 281 278 275 272 270 268 268 268 268 269 270 272 272 273 275 276 276 278 279 282 284 286 289 290 292 294 295 296 297 297 298 300 303 306 306 304 303 301 298 294 291 289 287 286 286 285 284 282 281 280 281 284 287 289 291 290 289 288 286 286 288 288 287 285 284 281 282 282 281 281 283 285 287 287 286 284 280 277 272 265 256 250 245 241 239 237 237 239 242 243 243 241 237 234 230 226 224 221 219 219 217 214 210 205 201 199 198 195 183 168 168 175 182 186 189 191 191 190 188 185 181 177 172 168 164 160 158 155 154 159 162 164 165 167 168 170 173 174 176 177 177 178 177 175 174 171 166 160 155 152 148 146 145 147 148 150 152 152 152 152 150 147 145 141 136 132 128 124 121 119
346 346 345 343 342 341 340 338 336 333 330 330 330 331 332 334 337 338 338 338 338 337 336 336 335 333 332 332 332 331 329 326 324 323 323 324 325 325 325 325 327 327 327 325 322 320 320 318 318 319 319 318 318 318 318 318 319 320 321 321 321 321 321 319 318 318 318 318 318 318 318 318 318 318 318 318 318 318 320 326 329 325 319 318 318 318 318 318 318 318 318 318 318 318 318 318 318 318 318 318 319 319 319 320 319 318 318 318 318 318 318 318 318 319 318 318 320 321 321 321 322 322 323 323 322 322 321 322 322 322 322 322 322 323 324 328 330 333 336 339 340 342 342 345 347 349 351 353 354 355 357 360 364 367 369 373 376 379 381 384 388 392 395 400 403 406 408 408 406 402 399 398 394 389 385 382 381 380 380 378 377 375 373 371 371 370 370 370 370 370 370 370 370 370 369 369 370 375 383 388 388 384 377 376 378 381 381 380 376 371 369 371 375 379 379 379 377 375 374 372 370 367 365 364 362 361 361 362 362 362 362 362 362 360 360 360 362 362 365 368 369 370 372 374 378 381 382 385 385 386 388 391 393 396 397 396 395 394 392 390 388 387 389 392 393 393 395 395 395 396 397 397 396 396 395 393 393 392 390 389 384 381 378 377 377 378 377 375 376 376 376 376 374 373 376 377 376 372 367 364 359 355 353 352 353 355 355 356 359 364 366 364 360 356 357 360 362 363 367 368 365 366 369 371 377 384 389 394 397 398 398 398 400 400 402 407 410 409 409 410 411 416 416 414 414 418 422 422 422 422 425 426 426 428 431 434 439 442 444 449 454 457 460 460 459 456 452 449 444 438 430 424 418 414 414 414 414 414 415 415 414 413 413 414 413 413 411 408 403 401 401 399 396 395 390 389 389 389 391 395 398 401 403 403 403 400 397 393 388 384 378 373 366 356 351 351 353 353 353 352 350 346 342 340 342 345 346 346 347 349 351 354 355 354 353 349 346 345 345 344 341 333 326 323 320 318 317 316 316 316 316 316 316 316 316 316 318 321 324 325 325 326 326 325 324 324 323 321 321 320 320 320 321 321 321 321 320 317 314 312 311 311 310 309 307 302 298 297 297 296 295 292 288 287 287 287 287 287 287 287 287 287 287 288 288 289 292 296 301 305 307 311 316 321 327 331 331 332 336 341 346 350 354 357 359 362 364 366 368 370 371 372 373 372 371 371 371 372 373 376 379 380 382 382 384 385 386 387 388 389 389 388 386 382 376 371 367 363 358 354 349 342 335 333 329 327 321 315 312 309 306 302 298 294 290 285 284 285 283 281 278 274 270 269 268 267 266 267 268 269 270 272 274 275 275 277 279 282 284 286 289 290 292 295 296 297 299 300 301 303 306 308 308 306 304 303 300 296 292 290 289 288 288 287 285 283 281 278 280 282 283 285 285 284 283 282 281 283 286 286 284 281 279 278 280 279 278 280 282 284 287 287 285 281 279 276 272 262 253 247 243 241 240 239 241 243 244 243 242 241 238 235 230 226 224 221 220 219 217 215 210 206 202 201 200 198 190 174 165 166 172 178 182 185 186 186 185 183 180 175 171 167 163 159 156 154 153 158 161 163 164 165 167 169 172 174 175 176 176 176 175 174 171 168 162 156 151 147 144 143 144 146 148 150 152 153 153 153 151 147 144 142 138 133 130 126 122 119
347 346 346 345 344 342 341 339 337 334 332 330 331 332 333 335 337 338 338 338 338 337 336 336 336 335 335 335 335 333 331 329 326 325 325 326 327 327 328 328 330 331 330 327 324 322 321 318 318 318 318 318 318 318 318 318 318 320 320 320 321 320 320 320 318 318 318 318 318 318 318 318 318 318 318 318 318 318 318 322 324 320 318 318 318 318 318 318 318 318 318 318 318 318 318 318 318 321 321 321 321 320 320 320 320 320 319 318 318 318 318 318 318 319 318 318 320 321 321 323 323 323 323 322 321 320 320 321 321 321 322 322 322 323 324 328 332 335 338 341 342 344 345 345 347 349 351 354 356 359 360 363 366 369 371 374 378 381 383 385 389 392 394 397 401 404 406 405 403 400 398 396 391 386 383 380 380 380 378 376 375 373 371 370 370 370 370 370 370 370 370 370 370 370 369 369 371 376 384 390 389 385 379 375 376 380 380 379 376 371 368 370 375 380 380 379 377 375 374 372 371 369 367 365 364 361 359 361 361 362 361 361 361 359 359 359 361 362 365 368 369 371 372 375 378 381 382 384 384 387 390 393 396 397 398 397 396 395 392 391 388 386 387 391 393 393 395 395 395 396 397 397 396 396 395 393 392 391 390 388 384 381 378 376 376 378 378 375 374 374 374 374 372 370 371 372 371 368 364 361 357 354 352 350 350 351 352 352 355 358 359 359 357 356 357 359 360 361 364 365 364 367 372 373 377 382 385 389 394 396 398 398 398 400 401 403 407 408 409 410 412 415 416 415 415 419 422 422 421 422 424 425 425 427 430 434 436 440 443 448 453 456 458 458 458 455 452 450 446 439 433 427 423 420 420 419 419 419 419 418 417 417 417 417 416 414 411 408 403 402 401 400 397 395 391 392 391 389 392 397 401 404 405 405 405 402 399 393 388 384 380 373 369 361 350 347 348 348 348 347 345 342 340 340 340 342 343 343 344 345 347 348 350 349 349 347 344 344 344 344 339 332 327 323 321 319 317 316 316 316 316 316 316 316 316 317 318 321 323 324 325 325 325 325 324 324 324 322 321 320 320 320 320 320 321 320 319 316 313 311 310 310 309 307 304 301 298 297 297 296 292 290 287 287 287 287 287 287 287 287 288 288 288 288 289 289 292 297 302 305 307 311 316 321 327 331 332 332 333 337 342 345 348 351 353 355 357 359 361 363 365 367 368 368 370 372 373 375 376 378 380 381 382 383 384 386 388 390 391 392 392 391 388 385 379 374 369 365 361 357 351 344 337 333 329 327 323 316 312 309 307 304 301 297 293 288 284 283 282 281 280 277 273 270 269 267 266 266 267 268 269 271 273 274 274 275 277 281 284 286 288 290 293 295 296 297 299 301 303 306 309 310 310 308 305 303 301 298 295 292 290 289 289 288 286 283 281 278 277 278 279 280 280 278 277 277 279 281 282 282 282 279 275 275 276 276 277 278 279 282 284 283 282 279 277 275 269 259 251 244 243 242 241 242 244 246 245 243 241 240 238 236 230 225 224 224 224 221 217 215 212 207 204 204 202 200 195 185 169 162 163 168 172 177 180 181 182 180 177 173 170 166 162 158 155 152 152 156 160 161 162 164 166 168 172 173 175 176 176 175 174 172 169 166 160 153 148 144 141 141 143 145 146 149 153 154 154 153 151 145 141 140 138 135 131 127 122 119
348 348 347 346 345 342 341 340 338 336 333 332 332 333 335 335 337 337 337 338 338 337 337 337 337 337 338 337 336 335 333 331 329 327 327 328 329 329 330 331 333 332 330 327 325 324 323 319 318 318 318 318 318 318 318 318 318 318 319 319 318 319 319 320 318 318 318 318 318 318 318 318 318 318 318 318 318 318 318 319 319 318 318 318 318 318 318 318 318 318 318 318 318 318 318 318 321 324 324 324 323 322 321 321 320 320 319 318 318 318 318 318 318 318 318 318 320 321 321 322 322 322 322 321 321 320 320 320 321 321 321 322 322 323 324 329 333 336 338 341 343 345 346 346 347 348 352 356 359 362 363 366 369 372 374 377 380 382 383 386 390 392 393 395 398 402 403 402 400 398 397 394 388 384 382 381 379 378 376 376 374 372 371 370 370 370 370 370 370 370 370 370 370 370 370 370 374 379 387 391 389 387 380 375 375 378 379 379 376 371 367 369 375 380 382 380 378 375 373 372 371 370 368 368 367 364 359 359 360 360 359 359 359 359 359 359 361 362 364 367 369 371 373 376 379 381 382 384 384 387 391 395 398 400 399 398 397 395 393 391 388 386 386 390 393 393 394 395 395 397 397 397 396 396 396 393 392 391 389 388 384 381 377 374 375 378 379 377 374 373 372 372 371 369 367 368 368 365 361 359 356 352 349 349 349 349 349 349 351 353 354 354 354 356 357 357 358 359 361 362 363 368 373 373 376 381 386 390 394 397 398 398 398 401 401 403 407 409 411 412 413 414 415 415 416 420 421 421 419 421 423 424 424 426 429 434 436 438 442 446 451 454 455 456 456 455 452 450 446 439 434 431 428 426 425 425 424 424 422 421 421 421 420 419 417 414 412 409 407 404 402 400 397 395 393 392 392 391 393 399 403 405 406 405 404 401 397 392 385 381 378 373 369 364 353 347 345 345 345 344 342 340 340 340 340 340 340 340 341 342 343 344 345 346 346 345 342 341 342 341 336 331 327 324 322 321 318 316 316 316 316 317 317 318 320 320 321 321 322 323 323 325 325 325 324 324 324 323 321 320 319 319 319 319 319 319 317 314 311 310 309 308 307 305 302 299 297 296 296 294 291 290 287 287 287 287 287 287 288 288 288 288 288 289 289 290 294 299 302 305 307 311 316 321 326 330 332 333 332 334 336 339 342 344 345 347 349 352 354 356 359 361 362 364 368 372 376 377 379 380 381 382 384 384 386 388 390 392 393 393 394 393 390 386 381 376 371 367 363 358 353 346 338 335 330 326 323 317 312 310 309 306 303 300 295 291 287 283 280 278 278 277 275 272 270 268 266 265 265 265 267 269 271 272 272 273 275 279 283 285 288 290 293 296 296 297 300 301 304 307 309 311 310 309 307 305 303 300 297 294 292 291 289 288 286 282 281 278 276 275 276 276 275 274 273 274 278 279 279 279 281 277 272 271 270 274 276 274 275 277 279 279 278 277 276 273 267 258 250 244 244 243 243 245 247 247 245 242 240 239 239 236 230 225 225 227 227 224 220 215 212 210 207 206 205 202 198 190 176 167 161 160 162 168 174 177 179 179 176 173 169 165 161 158 154 150 150 153 157 159 161 164 166 168 172 173 174 176 176 175 173 171 167 164 159 153 145 141 140 140 141 142 144 148 154 155 154 153 151 146 140 138 137 135 132 128 124 120
348 348 348 347 345 343 342 341 338 337 335 332 332 335 336 336 337 337 337 338 338 337 338 338 338 338 339 339 338 337 335 333 331 329 329 330 331 332 333 333 333 331 329 327 326 326 324 321 320 318 318 318 318 318 318 318 318 318 318 318 318 318 318 320 318 318 318 318 318 318 318 318 318 318 318 318 318 318 318 318 318 318 318 318 318 318 318 318 318 318 318 318 318 318 318 321 324 326 326 327 326 324 322 321 319 318 318 318 318 318 318 318 318 318 318 318 320 320 321 321 321 321 321 320 320 320 320 320 320 320 321 321 322 323 324 329 334 337 340 342 344 346 347 347 347 348 353 359 362 364 366 370 373 375 377 379 382 383 385 388 391 393 394 395 396 399 400 399 398 397 396 394 389 384 382 382 379 377 377 376 375 373 370 370 370 370 370 370 370 370 370 370 370 370 370 374 378 382 388 391 389 387 381 376 374 376 378 378 375 370 366 368 374 380 383 382 378 375 373 372 371 370 370 370 370 368 363 359 358 358 359 359 359 359 359 359 361 362 364 367 369 371 374 377 380 382 382 384 384 388 392 396 399 401 401 400 397 396 393 392 389 386 385 388 392 393 393 395 395 397 398 398 397 397 396 394 392 390 389 387 384 381 377 374 374 377 380 380 377 374 370 370 370 368 366 365 365 363 360 356 353 350 349 349 349 349 349 349 349 351 353 354 356 358 360 358 358 358 359 361 363 370 373 374 377 382 389 393 396 400 401 399 399 401 403 407 410 413 414 415 415 414 415 415 417 419 421 420 418 419 422 423 424 425 428 434 436 437 439 443 448 450 452 453 453 454 453 451 447 440 438 435 432 431 431 431 429 427 425 424 424 423 422 420 418 416 414 411 410 405 401 400 398 396 394 392 392 391 394 399 403 405 405 403 401 397 394 389 382 377 374 371 368 364 355 348 345 344 344 341 340 340 340 340 340 339 339 339 339 339 340 341 342 342 344 343 340 339 338 337 334 331 327 325 323 322 319 317 316 316 317 318 320 321 323 323 323 323 322 323 324 325 325 325 325 325 324 323 322 321 319 318 318 318 318 317 316 313 310 309 307 305 304 301 299 297 296 295 294 292 291 290 287 287 287 287 287 288 288 288 289 289 289 289 289 290 295 299 302 305 307 311 316 321 325 329 331 333 334 334 334 336 337 338 340 341 343 346 349 351 354 356 358 362 368 372 376 377 379 381 382 383 384 385 386 389 390 392 393 393 394 393 391 387 383 378 373 368 364 360 355 348 340 336 331 326 323 319 314 311 310 308 305 302 298 294 289 285 281 278 276 276 274 272 270 269 267 266 265 264 266 268 269 269 270 271 273 276 281 284 287 290 293 296 297 297 299 301 304 307 309 310 309 309 307 306 304 302 299 296 294 292 290 287 285 281 281 279 277 275 273 273 272 272 272 273 277 277 276 276 277 273 268 265 266 270 271 270 269 271 274 275 275 274 273 270 263 257 249 245 244 244 245 248 248 247 244 241 239 238 239 235 229 226 226 228 229 227 224 219 215 211 210 209 207 204 200 192 184 179 171 164 159 160 167 172 175 176 175 173 168 163 160 156 152 149 148 151 154 158 161 164 167 168 172 173 175 176 176 175 173 171 166 162 158 154 145 139 139 139 139 140 142 147 153 155 154 152 150 146 142 138 136 135 132 128 125 122
349 349 348 347 346 344 343 341 339 337 335 333 333 335 337 337 338 337 337 338 338 338 338 338 338 339 340 341 340 339 337 334 332 331 332 333 334 335 334 333 332 330 328 328 328 328 326 325 324 321 319 318 318 318 318 318 318 318 318 318 318 318 318 320 319 318 318 318 318 318 318 318 318 318 318 318 318 318 318 318 318 318 318 318 318 318 318 318 318 318 318 318 318 318 322 325 326 328 329 330 328 326 323 320 318 318 318 318 318 318 318 318 318 318 318 318 320 320 320 320 320 320 320 320 320 320 320 320 320 320 321 321 321 323 324 329 334 338 341 343 345 347 348 348 348 349 356 361 364 366 370 373 376 379 380 382 383 385 387 389 392 394 396 398 396 396 397 397 397 396 396 394 389 385 385 384 383 380 378 378 377 374 371 370 370 370 370 370 370 370 370 370 370 370 372 381 384 384 388 391 389 388 382 377 373 375 376 376 374 369 365 366 371 380 384 383 378 375 373 370 370 370 371 373 373 371 367 362 358 358 358 358 358 358 358 359 361 362 364 367 369 372 375 379 381 383 383 384 385 388 392 396 399 401 401 400 398 396 393 392 389 386 385 385 390 392 393 394 395 397 398 398 397 397 396 394 392 390 387 386 384 381 378 374 374 376 381 382 380 375 370 368 367 366 364 362 362 360 357 354 351 349 349 349 349 349 349 349 350 352 354 356 359 361 363 361 358 358 358 361 364 371 375 376 378 385 391 395 398 402 403 401 400 402 406 410 413 416 417 418 417 416 415 415 418 419 419 418 418 419 421 422 423 425 428 433 436 438 439 442 445 448 450 452 453 454 454 452 448 444 442 440 437 435 436 435 433 429 427 427 426 425 424 422 420 417 414 412 410 404 401 401 399 398 395 393 392 392 395 399 402 403 401 399 397 393 391 386 379 373 369 367 366 363 356 350 346 344 342 340 340 340 339 339 339 339 339 339 337 337 337 338 339 339 341 341 340 339 335 334 333 331 328 327 326 324 320 317 317 317 319 320 321 323 323 324 324 324 324 324 324 325 325 325 325 325 324 323 323 321 319 317 316 316 316 314 313 310 309 307 305 303 301 298 297 297 296 295 295 293 292 290 287 287 287 287 287 288 288 288 289 289 289 289 289 291 296 300 303 306 308 311 314 318 323 327 329 332 334 337 337 338 338 338 338 339 340 343 346 348 351 353 355 362 367 371 375 377 380 382 383 384 385 385 385 388 389 391 392 393 393 393 391 388 385 380 374 370 365 362 357 350 342 338 332 327 324 320 316 313 311 309 306 303 300 294 290 287 283 279 276 274 274 271 269 269 267 266 264 263 263 266 266 267 267 269 271 275 279 282 285 290 293 296 297 297 299 300 303 306 307 307 307 307 306 305 304 303 302 298 295 293 290 287 285 282 281 280 278 275 273 272 272 271 272 273 275 275 273 273 272 268 264 262 263 266 267 267 266 267 270 271 272 272 270 266 260 254 248 246 245 245 247 248 247 246 243 240 238 237 236 232 228 226 226 228 229 229 227 223 218 214 212 211 209 206 201 195 189 186 183 176 165 156 159 166 170 173 174 173 169 163 160 155 151 147 146 150 153 157 161 165 167 169 172 174 175 176 176 175 173 171 166 159 155 152 144 138 138 138 138 138 141 147 152 153 152 151 149 146 143 138 135 134 132 129 126 123
349 349 349 348 347 344 343 341 339 338 336 335 335 336 338 338 338 338 338 338 338 338 339 339 339 341 342 343 342 340 337 335 333 333 334 335 335 335 333 331 330 329 329 330 331 330 329 327 326 324 322 320 318 318 318 318 318 318 318 318 318 318 318 320 319 318 318 318 318 318 318 318 318 318 318 318 318 318 318 318 318 318 318 318 318 318 318 318 318 318 318 317 318 320 325 328 329 331 332 331 330 328 323 320 318 318 318 318 318 318 318 318 318 318 318 318 320 320 320 320 320 320 320 320 320 320 320 320 320 320 321 321 322 323 324 329 335 339 343 345 346 348 349 349 349 352 358 363 366 369 373 376 380 383 384 386 387 388 389 391 393 396 399 401 399 396 395 395 396 396 396 394 389 387 387 387 386 384 381 380 380 378 375 372 371 370 370 370 370 370 370 370 370 370 376 386 387 385 388 391 389 387 382 377 372 373 375 374 371 368 364 363 368 379 383 382 378 375 373 369 369 369 371 375 376 374 371 366 361 358 358 358 358 358 358 359 361 362 364 367 370 373 377 380 383 384 384 385 385 387 392 395 398 400 401 400 398 396 393 392 390 387 385 384 387 390 392 394 395 397 399 399 398 397 395 393 392 390 387 386 384 382 380 376 374 375 381 385 383 377 371 367 366 365 363 361 360 358 357 355 353 350 349 349 349 349 349 350 352 355 357 358 360 362 364 361 358 358 358 361 367 372 376 377 380 388 393 397 400 403 403 401 400 404 409 413 416 417 418 419 419 416 415 415 417 419 419 419 419 419 421 422 424 426 429 433 436 439 442 444 447 449 451 453 454 455 455 454 451 449 446 443 440 438 438 437 436 431 428 428 428 427 427 423 420 416 413 410 407 403 402 401 399 398 396 394 391 391 394 398 400 400 397 394 391 389 387 382 376 370 365 363 362 361 356 352 347 345 343 341 340 340 339 339 339 340 339 339 337 337 337 336 336 337 338 339 339 338 334 332 332 331 331 330 328 324 320 318 318 318 320 320 322 324 324 324 324 324 324 325 325 325 325 325 325 325 325 323 323 321 319 317 314 313 313 311 310 310 308 306 303 301 299 299 298 299 299 298 298 296 293 290 288 287 287 287 288 289 289 289 289 289 289 290 290 292 298 302 304 307 309 311 312 315 320 325 328 332 334 337 339 341 341 341 340 342 344 345 347 349 351 353 356 362 366 370 374 377 380 382 383 384 384 384 383 385 388 390 391 392 393 392 391 388 386 381 375 371 366 362 358 352 343 339 333 328 324 321 318 315 312 310 306 303 299 294 289 286 283 280 277 275 275 273 270 269 266 265 264 262 262 263 264 264 265 266 268 272 277 280 283 289 293 296 296 297 298 299 302 305 306 307 306 306 305 304 303 302 302 300 297 293 289 287 285 283 282 280 279 276 273 271 271 271 272 273 274 273 271 270 267 264 261 261 261 264 265 264 266 266 268 268 268 268 267 262 257 253 248 246 245 247 248 248 247 245 242 239 238 236 233 229 227 227 227 227 229 230 228 226 221 217 214 212 210 207 203 198 194 191 188 183 174 162 153 157 162 166 169 171 169 163 159 155 151 147 145 147 151 156 159 164 168 170 173 175 176 177 177 176 173 171 167 159 153 149 143 138 137 137 137 137 140 146 149 151 151 150 148 145 142 138 135 134 132 129 127 124
350 350 349 348 347 345 343 342 339 338 336 336 336 338 339 339 339 338 338 338 338 338 339 339 341 342 343 345 343 341 337 335 335 335 336 336 335 334 332 331 330 330 331 332 332 332 331 328 326 325 324 323 318 318 318 318 318 318 318 318 318 318 318 320 319 318 318 318 318 318 318 318 318 318 318 318 318 318 318 318 318 318 318 318 318 318 318 318 318 319 318 317 318 323 328 331 333 335 335 335 332 329 323 320 318 318 318 318 318 318 318 318 318 319 319 320 321 321 320 320 320 320 320 320 320 320 320 320 320 320 321 322 322 323 324 329 335 340 344 347 348 350 350 350 350 355 360 364 368 373 377 380 384 387 389 390 391 392 393 395 397 399 402 403 402 398 395 395 395 395 394 393 390 390 389 390 389 388 387 386 385 383 380 377 375 372 370 370 370 370 370 370 370 370 378 388 389 387 388 389 389 386 381 376 371 371 372 371 369 367 363 362 365 377 381 381 378 375 373 368 367 368 371 375 377 376 373 370 364 359 357 358 358 358 358 359 362 362 364 366 370 374 378 382 383 383 384 385 385 387 391 394 397 399 400 400 398 395 393 392 390 388 386 383 385 389 391 393 395 397 398 398 398 397 395 392 392 390 387 386 383 382 380 376 373 375 380 386 385 378 372 367 363 362 361 360 359 358 357 357 355 352 349 349 349 349 350 351 354 357 359 360 360 362 363 360 357 357 358 362 369 375 378 380 383 391 396 400 402 403 403 402 402 407 412 414 416 416 418 418 418 416 416 416 417 419 419 419 419 420 421 421 424 428 429 433 438 442 445 447 450 452 454 455 456 457 456 455 454 453 449 445 441 440 439 438 436 432 429 429 428 427 426 423 419 415 411 408 407 407 405 402 399 398 396 395 391 389 393 395 397 397 393 388 385 383 381 378 374 368 363 360 360 359 356 352 348 345 344 341 340 340 340 340 340 340 340 340 339 339 338 337 336 335 335 335 335 335 333 330 330 332 333 330 328 323 320 318 319 319 320 320 322 324 324 325 325 325 325 325 325 326 326 326 325 325 325 323 323 321 318 317 314 314 313 312 310 310 307 305 302 300 300 302 302 303 303 302 301 298 294 291 289 288 288 288 288 289 289 289 290 290 290 291 292 294 299 304 306 309 311 311 312 315 320 326 330 333 335 337 340 341 343 343 343 345 348 349 350 352 354 355 357 361 365 368 372 376 379 381 382 383 382 382 381 383 386 388 390 391 391 390 390 388 385 381 375 372 366 362 358 352 344 341 334 330 325 322 320 317 315 312 307 303 299 293 289 285 283 281 278 278 278 278 274 271 267 265 264 262 262 262 262 262 262 264 266 271 275 278 281 288 293 295 295 295 296 297 300 304 305 305 305 305 304 304 303 301 300 300 298 294 289 288 287 284 283 281 279 278 273 270 270 270 271 272 272 272 270 268 264 261 261 261 261 263 263 264 265 265 266 266 264 264 263 259 255 251 248 247 246 247 247 247 246 244 242 240 238 236 232 229 228 227 227 227 228 230 228 226 222 218 216 214 211 208 206 201 197 195 191 186 181 170 158 151 151 156 160 164 165 162 158 155 151 146 144 144 148 154 158 164 168 171 174 176 178 178 178 176 174 172 167 159 152 147 142 138 137 137 137 137 139 143 147 149 149 149 147 145 142 138 135 134 132 130 128 125
350 350 350 349 348 346 344 342 339 338 337 337 337 338 339 339 339 338 338 339 339 339 339 340 341 342 344 345 343 342 338 337 338 338 337 337 335 333 332 332 333 333 333 333 332 332 331 329 327 325 324 323 320 318 318 318 318 318 318 318 318 318 318 320 319 318 318 318 318 318 318 318 318 318 318 318 318 318 318 318 318 318 318 318 318 318 318 318 318 320 320 319 320 324 330 333 336 338 338 338 335 329 323 319 318 318 318 318 318 318 318 318 318 321 321 321 321 322 322 322 322 321 321 321 321 320 320 320 320 320 321 322 322 323 325 329 336 341 345 348 349 350 351 351 353 358 362 366 372 376 381 385 389 391 393 394 395 396 397 399 402 404 405 404 403 400 396 394 394 394 393 392 391 393 393 393 393 392 392 392 391 389 386 382 380 376 372 370 370 370 370 370 370 370 379 388 390 386 385 386 386 382 377 372 369 369 370 370 368 366 362 362 365 375 380 379 378 375 373 368 366 367 371 374 376 376 375 372 367 361 357 357 357 358 358 359 361 362 363 365 369 376 381 383 382 383 383 385 385 387 389 392 395 397 398 398 397 395 393 393 391 388 386 383 383 387 390 392 394 396 397 398 398 398 395 392 391 390 387 386 382 381 380 377 373 373 379 385 385 379 373 368 363 362 359 359 359 358 358 357 356 354 350 349 349 349 350 352 355 358 359 360 360 361 361 359 358 357 358 362 371 377 381 384 388 394 399 402 403 403 403 402 403 410 411 412 414 415 416 416 416 415 416 416 417 418 418 419 420 422 422 422 423 427 429 433 438 444 447 450 452 454 455 456 457 457 457 456 456 455 452 447 443 441 441 439 436 433 431 429 427 426 424 421 418 415 412 412 411 410 407 403 400 399 396 395 391 387 391 394 395 394 390 385 380 379 377 375 373 368 364 362 360 358 356 353 348 345 343 341 340 340 340 340 340 341 341 342 342 341 340 338 338 336 334 333 332 332 332 329 329 331 330 327 326 323 320 318 318 318 320 321 323 324 325 325 325 325 326 326 326 326 326 325 325 325 325 323 323 321 319 317 317 317 318 317 312 310 307 305 302 302 303 305 306 306 306 305 304 302 298 294 290 288 288 288 288 289 290 290 290 290 290 292 294 297 302 305 308 311 313 315 316 319 324 330 334 336 337 339 341 342 343 344 345 348 350 352 353 355 357 358 358 360 363 366 368 372 375 377 379 379 378 378 380 382 384 386 388 389 389 389 388 386 384 380 375 371 366 362 358 352 344 341 336 330 326 323 321 318 316 313 309 304 300 294 290 285 283 281 279 278 279 280 278 275 269 266 264 262 262 262 262 262 262 263 266 271 275 277 280 284 289 293 294 294 294 296 299 302 304 305 305 305 304 304 303 300 299 298 297 294 289 288 287 284 283 281 279 278 274 270 270 270 271 271 271 270 268 265 261 261 261 261 262 263 263 264 265 265 264 263 261 260 258 256 253 251 249 248 247 247 247 247 245 244 242 241 240 237 233 231 229 228 227 227 227 229 228 225 223 219 217 215 212 212 210 205 200 197 193 188 183 176 167 155 149 149 150 154 155 155 155 153 150 145 142 141 145 151 156 163 169 172 175 178 179 179 178 177 175 173 168 159 151 145 141 137 137 137 137 138 138 141 144 146 147 147 146 144 143 139 136 134 133 131 129 126
351 351 351 350 349 346 344 342 339 339 338 338 338 339 340 340 339 339 339 339 339 340 340 340 341 343 344 345 343 342 340 340 340 339 338 337 335 334 335 336 336 334 333 333 332 332 331 330 328 327 325 323 321 319 318 318 318 318 318 318 318 318 318 318 318 318 318 318 318 318 318 318 318 318 318 318 318 318 318 318 318 318 318 318 318 318 318 318 318 320 320 322 322 324 329 335 339 340 340 341 335 329 321 318 318 318 318 318 318 318 318 320 321 321 321 321 322 322 323 323 323 322 321 321 321 320 320 320 320 320 321 322 322 324 327 330 336 342 347 348 349 351 352 353 356 361 364 369 375 379 385 389 392 395 397 399 399 400 402 404 407 408 408 407 405 403 398 394 394 392 392 393 395 397 397 396 396 396 396 396 395 393 391 387 385 380 375 372 371 371 371 370 370 370 377 386 389 385 382 382 380 378 373 369 368 368 369 369 367 365 362 361 364 374 379 378 377 375 373 368 365 366 370 374 376 376 376 373 370 364 358 356 357 358 358 359 360 361 362 364 370 377 380 380 381 383 384 386 386 387 389 390 393 395 397 397 395 395 393 393 391 389 386 384 382 386 389 391 393 395 396 398 398 398 395 392 391 389 387 386 383 381 379 377 374 372 376 382 384 382 375 369 364 362 359 358 358 357 357 358 356 356 352 349 349 350 351 353 356 358 359 360 360 361 361 359 359 358 358 363 372 377 383 387 392 397 401 402 402 403 401 401 403 410 410 411 413 414 414 414 414 414 415 415 417 417 418 419 421 423 423 423 424 426 429 433 440 445 449 452 454 455 456 458 458 458 458 458 457 456 454 449 445 443 442 440 436 434 432 429 427 426 423 420 419 417 415 415 414 411 409 404 400 399 396 394 390 387 391 393 393 391 388 382 377 376 374 372 370 368 366 363 360 358 355 353 349 345 343 341 340 340 340 340 340 342 342 344 344 344 343 342 341 340 337 334 331 330 329 328 327 328 325 323 323 321 320 318 318 318 320 322 324 325 326 326 326 326 326 326 326 326 326 325 325 325 325 323 323 321 319 318 318 320 322 319 313 311 308 305 303 305 306 308 309 309 309 308 306 305 303 299 294 292 290 288 289 290 290 290 290 290 290 292 294 299 303 306 309 312 315 318 321 325 330 335 338 340 340 340 342 343 344 345 346 349 352 354 356 357 357 357 358 358 360 362 364 367 370 372 374 375 374 374 377 379 381 382 384 386 386 386 386 385 383 379 375 370 366 361 357 351 344 342 337 332 328 324 322 320 318 316 312 307 303 298 294 289 285 282 279 277 277 278 279 278 273 268 265 263 262 262 262 262 262 262 266 271 275 276 278 281 285 289 291 291 291 293 297 300 302 304 304 304 304 304 303 299 297 296 295 292 289 288 286 284 283 281 279 279 274 270 269 269 270 270 270 267 266 262 261 261 261 261 263 264 264 264 265 265 264 263 259 257 255 254 253 251 249 248 248 247 246 246 245 244 243 243 243 241 237 235 233 231 230 228 227 227 227 225 223 221 219 216 215 215 214 210 204 199 195 190 185 180 172 164 158 152 150 148 146 147 148 148 146 142 139 138 144 149 154 162 168 172 177 179 180 180 179 178 177 175 170 160 150 143 139 137 137 137 137 138 138 140 141 144 145 145 145 143 142 140 137 135 134 132 130 128
351 352 352 351 349 347 345 342 340 340 340 340 340 340 341 341 339 339 339 340 340 340 340 340 341 343 344 345 344 344 343 342 341 339 338 339 339 339 341 342 340 336 334 333 333 333 333 332 331 328 325 324 321 319 318 318 318 318 318 318 318 318 318 318 318 318 318 318 318 318 318 318 318 318 318 318 318 318 318 318 318 318 318 318 318 318 318 318 318 320 321 322 323 324 328 335 340 342 343 342 335 328 321 318 318 318 318 320 321 322 321 323 323 322 322 322 323 323 323 323 323 323 322 322 322 320 320 321 321 322 322 322 322 325 327 331 337 342 347 349 349 351 352 354 358 361 366 371 377 382 388 392 396 399 402 404 405 406 408 409 410 411 412 411 407 403 398 394 394 393 394 396 398 400 400 399 398 399 400 400 399 396 394 391 389 384 379 376 376 375 375 373 371 367 373 382 385 381 378 377 376 374 370 367 366 366 367 367 366 365 362 360 362 372 377 377 377 374 372 368 365 365 369 372 374 375 375 373 370 367 361 356 356 357 358 359 359 359 360 364 370 377 379 380 381 383 385 386 386 387 388 389 391 394 397 397 395 395 394 393 392 390 388 384 381 383 387 389 392 394 394 396 398 397 394 391 390 388 386 385 383 381 379 377 375 371 373 378 383 382 377 371 366 362 358 358 357 357 357 357 356 356 353 349 349 349 350 352 355 357 359 361 361 361 362 362 360 359 359 365 373 378 384 389 393 399 401 402 401 401 401 401 402 408 410 411 411 412 414 415 414 414 415 415 416 416 417 419 421 424 425 424 424 426 430 434 440 446 450 453 455 456 457 458 460 460 460 460 460 459 456 452 448 446 445 443 439 437 435 432 429 426 424 420 419 418 417 416 414 411 409 405 401 399 396 393 389 387 391 392 391 390 386 380 377 374 372 370 369 368 367 363 361 358 355 352 348 345 344 342 340 340 340 340 340 342 344 348 350 351 350 348 346 344 341 338 333 331 328 326 326 326 324 323 322 321 320 319 319 319 321 323 325 326 327 327 327 327 327 326 326 326 326 326 325 325 325 324 324 321 319 318 318 320 321 317 313 313 310 307 306 308 309 310 312 312 311 310 308 307 305 303 300 298 295 293 291 290 290 290 290 290 290 292 294 300 305 308 310 313 317 321 324 328 333 338 341 343 343 343 344 346 347 347 348 351 354 356 357 357 358 356 356 357 357 357 359 362 364 367 368 369 370 371 373 375 377 379 380 381 382 382 382 382 380 377 373 368 364 359 355 350 343 341 337 333 329 326 324 323 321 318 314 309 305 301 297 294 289 284 281 278 277 277 277 278 276 272 268 264 262 262 262 262 262 262 265 270 274 276 278 279 282 285 287 288 290 293 297 300 301 303 303 303 303 303 302 298 294 293 292 290 288 287 286 283 283 281 280 279 274 270 269 268 269 269 267 264 263 261 261 261 261 262 264 265 266 266 266 266 265 263 258 255 253 253 253 251 249 248 248 247 246 246 245 245 245 245 246 245 242 240 238 236 234 231 228 227 225 225 224 224 222 220 219 218 217 213 208 205 199 192 186 182 177 173 169 162 159 154 149 145 142 142 140 139 136 137 144 149 154 161 168 172 178 182 182 182 181 180 178 177 172 161 150 142 137 137 137 137 137 138 138 139 140 141 142 143 144 143 142 139 137 136 135 133 132 130
352 353 353 352 350 348 346 343 341 340 342 342 342 342 342 341 340 339 340 341 341 341 341 341 341 343 344 345 345 345 344 344 342 340 341 342 343 344 345 345 343 339 335 334 334 334 334 334 332 329 326 324 322 319 318 318 318 318 318 318 318 318 318 318 318 318 317 317 317 318 318 318 318 318 318 318 318 318 318 318 318 318 318 318 318 318 318 318 318 320 322 323 325 326 328 335 342 344 344 341 333 326 320 318 318 318 318 318 322 325 326 325 323 322 322 322 323 324 324 323 323 323 322 322 322 321 322 322 323 323 323 323 323 325 328 332 338 342 347 349 349 351 353 354 357 360 368 374 380 385 390 394 399 403 406 409 411 412 413 414 414 414 415 414 409 404 398 394 394 394 396 399 401 402 402 401 400 401 403 402 401 399 396 394 392 388 383 380 381 380 378 376 373 367 367 376 380 377 374 373 373 371 367 366 366 365 366 366 366 364 362 359 360 369 375 376 375 373 371 368 364 364 367 369 371 373 374 372 370 368 364 357 356 356 357 359 359 359 361 365 370 375 378 380 382 384 386 387 387 387 388 388 391 393 395 396 396 395 394 394 392 390 388 385 381 381 385 388 392 393 393 393 395 394 392 390 389 387 385 385 383 381 379 376 374 371 371 375 381 382 379 372 367 362 359 357 356 356 357 356 356 355 353 349 349 349 350 351 355 357 359 361 361 362 364 365 361 359 359 366 373 378 385 390 394 400 401 402 401 402 402 401 402 407 410 409 409 412 416 418 416 415 415 415 416 416 417 419 421 424 425 425 425 427 431 436 441 446 451 454 456 457 458 459 460 461 462 462 462 460 457 454 450 448 446 444 442 439 437 434 430 427 425 420 419 419 418 416 414 412 409 407 402 400 396 393 388 386 390 391 390 389 385 380 376 374 371 369 367 368 366 363 360 357 354 352 348 346 345 343 340 340 340 340 340 342 345 351 355 357 356 354 352 350 345 342 337 335 330 327 327 326 325 324 323 321 320 319 319 320 323 326 328 328 328 327 327 327 327 327 327 326 326 326 325 325 325 324 324 321 318 318 318 318 318 317 316 316 314 310 308 309 311 314 314 313 312 312 310 309 309 308 307 306 304 300 296 295 293 293 293 291 291 292 294 302 307 309 311 314 318 322 327 331 336 341 343 344 344 345 346 347 348 348 349 352 356 357 358 358 357 355 354 353 354 354 356 358 360 362 364 365 367 367 369 371 373 375 376 377 378 378 378 378 376 373 369 365 362 358 354 350 343 340 337 334 331 330 328 326 324 320 315 311 308 304 300 297 292 286 283 280 277 276 276 277 276 275 272 267 263 262 262 262 262 262 265 269 273 275 278 278 280 282 284 287 290 293 297 299 301 302 302 302 303 303 301 296 291 290 289 288 288 286 286 284 283 282 281 279 275 271 269 267 267 266 263 261 260 260 260 261 261 263 266 267 267 267 266 266 266 263 258 252 251 252 252 250 249 247 247 246 246 245 245 245 247 249 250 250 248 245 243 242 240 235 229 227 226 226 227 227 225 224 223 220 219 216 211 208 203 195 188 184 181 178 175 172 168 163 158 152 145 141 138 137 136 137 143 148 153 160 167 172 179 182 184 185 183 181 180 179 174 161 152 144 138 137 137 137 137 137 137 139 140 140 141 143 144 143 141 138 136 136 136 135 135 132
354 354 354 353 352 350 347 345 343 342 344 344 344 344 344 343 341 341 341 342 342 342 342 342 343 344 344 346 346 346 345 345 344 343 344 345 346 347 347 347 345 341 337 337 336 336 336 335 332 330 327 325 322 319 318 318 318 318 318 318 318 318 318 318 318 318 317 317 317 318 318 318 318 318 318 318 318 318 318 318 318 318 318 318 318 318 318 318 319 323 324 326 329 330 330 335 342 344 344 338 331 323 318 318 318 318 318 318 322 325 327 324 323 323 323 323 324 324 324 324 324 323 323 323 322 322 323 324 324 325 326 326 326 327 329 332 338 342 347 349 350 352 354 355 357 361 370 377 382 387 392 397 402 406 409 413 416 418 419 419 419 418 418 417 410 404 398 394 394 395 397 400 402 402 402 402 402 403 404 405 402 400 398 396 394 391 387 386 385 383 381 378 374 368 364 370 373 372 370 370 369 368 366 366 366 365 365 365 365 363 361 358 359 366 372 374 374 372 370 367 363 363 365 366 368 369 371 371 370 369 366 360 356 356 356 357 359 359 362 367 371 375 379 381 383 385 386 387 387 387 389 389 391 392 392 394 397 397 394 394 393 391 389 386 381 381 382 386 390 392 391 391 392 393 391 389 388 386 384 384 383 381 379 376 373 371 371 372 377 381 380 373 368 364 361 357 355 354 355 355 355 354 352 349 349 349 350 352 355 358 359 361 362 363 367 367 361 359 360 368 374 379 386 391 395 400 401 402 402 403 403 403 405 408 410 408 409 413 417 419 419 417 416 416 416 416 417 419 421 423 426 426 426 428 432 436 441 446 451 455 456 458 458 459 461 462 463 464 464 461 459 456 452 450 449 446 444 441 438 436 431 427 425 420 420 420 418 417 413 412 409 407 402 399 396 391 387 386 388 390 389 387 383 378 376 373 371 369 366 365 365 362 359 356 353 352 350 348 347 344 341 340 341 341 342 342 346 352 358 360 360 359 358 356 351 346 341 338 332 330 329 328 326 325 323 321 321 320 320 322 326 330 332 331 330 329 329 328 328 328 328 327 327 326 326 326 325 324 324 321 319 318 318 318 318 318 318 318 316 313 311 310 313 317 317 315 314 314 313 312 312 312 313 312 311 308 304 301 299 297 296 294 293 292 294 302 308 311 314 316 319 324 328 334 339 343 345 346 346 347 348 348 349 349 351 354 356 358 359 358 357 354 351 350 351 352 353 355 357 359 361 363 363 364 365 366 367 369 370 371 372 372 373 372 371 368 365 361 358 355 352 348 342 339 335 334 332 333 331 327 324 321 316 312 309 305 302 299 294 288 284 281 278 275 275 275 276 276 275 270 264 262 262 262 262 262 265 268 271 274 277 278 280 282 285 288 292 294 297 299 300 301 302 302 302 302 300 294 290 288 287 287 287 286 286 285 284 283 281 280 276 272 270 266 264 262 259 258 258 259 260 260 262 266 269 270 270 268 268 268 267 264 260 252 248 249 250 249 248 247 246 245 244 244 245 248 251 253 256 256 254 252 248 247 244 239 233 228 227 227 228 229 228 227 226 223 220 218 214 211 205 198 191 186 182 179 178 175 170 168 163 157 150 145 141 138 136 136 139 144 151 156 164 171 178 182 184 185 184 182 181 180 176 162 153 147 141 137 137 137 137 137 137 139 140 140 143 144 144 142 140 137 137 137 138 138 138 135
354 355 355 354 353 352 350 347 344 344 345 345 345 345 345 344 342 341 341 342 343 343 343 343 344 344 345 346 346 346 346 345 345 346 347 348 349 350 350 349 347 344 340 339 339 338 337 336 334 331 329 326 321 318 318 318 318 318 318 318 318 318 318 318 318 318 318 318 318 318 318 319 320 320 320 319 318 318 318 318 318 318 318 318 318 318 318 318 321 323 326 329 334 336 334 335 339 342 340 333 327 321 318 318 318 318 318 318 322 325 326 323 323 323 323 323 324 324 324 324 324 324 323 323 323 323 324 325 326 326 327 328 328 328 330 333 338 342 347 349 350 353 355 356 358 364 372 379 383 388 393 399 404 408 412 416 419 421 422 423 423 422 420 418 410 403 398 394 394 396 397 400 402 402 403 403 403 406 407 406 403 401 398 397 396 394 391 389 387 386 384 380 376 370 364 365 367 368 367 367 366 365 365 365 365 364 364 365 364 362 360 357 357 364 369 371 371 370 368 365 362 362 363 364 364 365 368 370 371 370 367 362 356 355 356 356 359 360 364 369 373 378 381 383 385 386 386 388 388 388 389 389 391 392 392 395 397 397 395 394 393 391 389 386 381 380 381 384 388 391 390 390 391 391 390 388 387 386 384 383 381 379 378 376 373 370 370 371 373 377 379 375 369 365 362 357 354 352 353 354 353 352 351 349 349 349 350 352 357 359 360 361 363 366 369 367 362 359 360 368 375 380 386 391 395 399 401 401 404 406 404 404 406 409 409 407 409 412 416 418 418 417 416 416 416 417 418 419 421 423 426 426 427 429 432 436 440 445 451 455 456 458 459 460 461 463 464 466 467 465 461 457 454 451 450 447 444 442 438 436 431 427 425 420 420 419 418 415 411 409 407 405 402 398 394 388 386 386 385 388 388 385 381 376 375 373 371 368 366 364 363 361 358 356 353 353 352 349 348 345 344 344 346 348 347 343 345 351 357 360 361 361 361 359 355 350 344 341 335 331 330 328 327 325 323 321 321 320 320 325 329 333 335 334 332 332 332 331 329 329 328 328 327 327 326 326 325 325 324 322 320 318 318 318 319 319 318 318 317 314 311 311 316 320 318 316 315 315 315 315 315 315 316 315 314 311 309 305 302 300 299 297 294 293 294 301 307 311 315 317 320 325 329 335 341 344 346 347 348 348 348 349 349 350 352 355 357 358 359 358 357 354 351 349 349 350 351 352 354 356 358 359 360 360 361 362 363 363 364 365 366 366 367 367 366 363 360 357 354 352 351 347 340 338 335 333 333 335 333 327 324 323 317 313 310 306 303 300 297 290 285 283 280 276 275 275 275 275 274 270 266 263 262 262 262 262 264 268 270 273 276 278 279 281 285 289 293 294 297 298 299 300 302 302 302 301 298 293 290 287 286 286 287 287 286 286 285 284 282 280 276 273 270 265 261 258 256 256 256 258 259 260 265 269 273 274 273 272 270 269 269 267 261 252 245 245 247 248 248 246 245 244 243 243 247 251 255 259 262 262 261 259 256 254 249 243 237 230 227 227 228 230 230 229 228 225 221 218 215 212 207 200 193 187 182 179 177 175 170 168 164 159 153 148 145 142 140 136 136 140 147 152 160 168 176 181 184 184 184 183 182 182 176 162 154 148 144 139 136 136 136 137 138 139 140 140 143 144 143 141 139 137 137 138 140 140 140 137
355 355 356 356 355 354 352 349 347 346 347 347 347 347 346 345 343 342 342 343 343 344 345 345 345 346 346 347 347 347 347 347 347 348 349 350 351 352 352 351 349 345 343 342 341 340 339 337 335 332 329 326 320 318 318 318 318 318 318 318 318 318 318 318 318 318 318 318 318 318 319 320 321 321 321 319 318 318 318 318 318 318 318 318 318 318 318 318 321 323 327 332 336 338 338 335 336 338 336 329 322 318 318 318 318 318 318 318 322 325 324 323 323 323 323 323 324 325 325 324 324 324 324 324 324 324 325 326 326 327 329 330 330 330 331 335 339 342 346 349 350 354 356 357 361 365 373 380 385 390 395 399 405 410 414 419 422 423 425 427 426 425 422 417 409 402 398 395 395 396 398 400 402 402 403 403 403 407 409 408 405 403 401 399 398 397 394 390 387 386 386 383 379 374 366 363 364 365 364 364 364 363 363 363 363 363 362 362 362 361 359 357 357 362 366 369 369 369 367 364 361 361 361 362 360 360 365 369 371 371 367 363 357 355 355 356 359 361 366 370 375 379 382 384 386 387 387 388 388 388 388 389 391 393 393 396 397 397 395 394 394 391 389 385 381 379 380 382 386 389 389 388 389 390 390 388 386 385 383 382 380 378 378 375 373 370 369 370 371 374 378 375 371 367 363 358 355 351 351 351 351 350 349 349 349 349 350 353 357 360 362 362 365 368 369 368 363 360 360 367 374 381 387 391 394 398 400 401 406 407 404 402 403 408 409 405 409 413 415 417 417 417 416 416 417 417 419 421 422 423 426 426 427 429 431 436 440 445 450 455 456 459 459 461 463 465 467 469 469 467 464 459 456 453 451 448 445 442 438 436 431 427 424 420 419 418 415 411 406 403 403 402 400 397 391 387 388 387 384 383 384 381 377 374 373 371 369 367 364 362 360 358 357 356 356 356 354 350 349 348 348 350 353 355 353 348 346 349 355 359 362 363 363 362 358 354 348 345 338 333 331 329 327 325 322 321 321 320 323 328 332 334 336 336 335 335 335 334 332 330 329 329 329 328 326 326 326 325 325 324 322 321 320 320 320 319 319 318 317 316 312 312 317 320 318 317 316 316 316 317 317 318 318 318 317 314 312 308 305 303 301 298 295 293 295 301 307 312 316 318 321 325 329 335 342 344 347 349 350 350 350 350 350 351 353 356 357 358 359 359 357 354 351 348 347 347 348 349 351 352 354 355 356 356 357 358 358 358 359 359 360 360 361 362 361 359 356 353 351 349 347 344 339 336 332 331 333 334 331 327 324 322 317 313 311 306 304 301 297 292 286 284 281 277 275 275 275 275 274 270 267 264 262 262 262 262 264 267 269 273 276 277 279 280 285 289 293 294 297 298 298 300 301 301 300 299 296 292 289 286 285 285 287 288 288 287 286 284 282 280 276 272 269 265 260 258 257 257 256 257 257 261 267 272 277 279 279 277 274 272 270 267 262 252 244 241 243 246 246 245 243 242 240 244 249 253 258 263 267 268 268 265 262 260 255 248 241 233 228 227 227 231 231 231 229 226 222 218 215 212 208 202 195 187 181 179 177 173 171 168 164 160 155 152 149 147 144 139 134 136 141 146 154 164 172 177 180 181 182 182 183 182 176 162 153 149 146 142 136 136 137 137 139 139 140 140 142 141 141 139 138 137 137 139 141 141 141 138
356 356 357 357 356 356 354 352 349 348 349 349 348 348 348 347 345 343 343 344 344 345 346 346 346 347 347 348 347 347 348 348 348 350 351 352 353 353 353 352 350 347 345 345 343 341 340 337 335 332 329 325 320 318 318 318 318 318 318 318 318 318 318 318 318 318 318 318 318 319 320 320 321 321 321 319 318 318 318 318 320 320 320 319 318 318 318 318 321 324 328 332 336 338 339 336 333 334 331 325 319 318 318 318 318 318 318 318 321 324 323 323 323 323 323 323 324 325 325 324 324 324 324 324 324 325 326 326 327 328 329 330 330 331 333 335 339 342 346 349 351 354 355 357 360 365 373 380 385 390 395 399 404 409 415 421 425 426 428 430 429 426 422 414 406 401 398 395 395 397 398 400 401 402 402 402 403 408 411 411 407 404 401 400 400 400 396 391 387 386 385 384 382 378 370 363 362 363 362 362 362 362 361 361 362 361 361 361 360 360 357 356 358 361 364 367 367 366 365 362 360 360 359 359 357 357 362 367 370 370 367 363 359 355 355 355 358 362 367 372 376 380 383 385 387 387 387 388 388 388 388 388 391 395 395 395 396 397 395 394 393 391 389 385 381 378 379 381 383 386 387 386 387 389 389 387 385 383 382 381 379 378 377 375 372 369 368 369 370 371 374 375 372 369 365 360 356 352 351 349 349 349 349 349 349 349 351 355 358 361 363 365 368 369 370 369 363 360 361 365 372 381 386 391 394 398 400 401 405 405 402 402 403 407 406 405 409 414 416 417 416 416 416 416 417 418 420 422 423 424 426 426 427 429 431 435 439 444 449 454 456 459 460 462 465 468 470 471 470 467 464 460 457 453 451 448 445 441 438 435 431 427 423 420 419 416 412 406 401 400 400 401 399 394 388 387 390 389 385 381 380 377 375 372 371 370 368 366 363 361 360 358 357 357 357 357 355 351 350 350 352 355 358 359 356 352 347 348 354 358 362 364 364 363 361 358 352 349 342 335 331 329 327 324 322 321 321 321 324 328 333 334 336 336 336 336 336 336 333 331 331 331 331 329 327 326 326 326 326 326 324 323 322 321 320 320 320 318 317 315 311 312 317 319 318 318 317 317 317 318 318 319 319 319 318 315 314 309 305 302 301 298 296 295 296 302 308 313 317 319 321 325 329 335 342 344 347 351 352 352 350 350 351 352 353 356 357 358 359 359 357 354 351 347 346 346 347 348 348 349 350 351 351 352 352 352 352 353 355 356 356 357 358 358 357 356 353 350 348 346 344 341 336 334 329 329 331 330 328 325 323 321 317 313 310 306 304 301 298 294 288 285 282 279 277 275 275 275 274 271 268 264 262 262 262 262 263 265 268 271 275 276 276 279 285 289 292 294 296 297 298 300 300 299 298 296 293 291 288 285 284 284 287 288 288 287 287 284 282 280 275 271 268 263 259 258 259 258 257 256 256 262 270 275 281 284 284 282 277 275 271 268 261 252 245 239 240 244 245 244 242 239 240 245 251 255 261 266 271 274 274 270 268 264 260 254 246 239 230 227 226 230 232 232 229 227 223 219 215 212 208 202 195 186 181 181 180 177 174 169 166 163 159 157 154 151 147 142 136 134 135 140 148 158 167 172 176 179 180 181 181 179 173 160 152 150 147 142 136 136 138 140 140 140 141 141 142 142 141 140 140 140 140 141 142 142 141 139
357 357 358 358 358 357 356 354 352 350 351 350 350 350 350 348 346 345 345 345 346 347 347 348 348 348 349 349 349 349 349 350 349 351 353 353 354 354 354 353 351 348 347 346 344 341 340 337 335 332 328 324 320 318 318 318 318 318 318 318 318 318 318 318 318 318 318 318 319 320 320 321 321 321 320 319 318 318 318 318 320 320 321 319 318 318 318 318 321 324 329 331 333 335 339 336 331 330 327 321 318 318 318 318 318 318 318 318 320 322 323 323 323 324 324 324 324 325 325 324 324 324 325 325 326 326 327 328 328 328 330 331 331 332 333 336 339 342 345 348 351 354 354 355 358 364 373 379 384 389 394 399 403 408 415 422 426 429 431 431 429 425 419 410 403 399 396 396 396 397 398 399 400 400 400 401 403 407 412 412 408 404 401 399 400 401 399 392 387 385 385 384 383 380 373 366 362 361 361 361 361 361 360 360 360 360 360 360 359 359 356 356 358 361 363 364 365 364 362 361 359 359 358 358 356 357 360 363 366 367 366 363 361 357 355 355 357 362 367 372 376 380 383 385 387 388 388 388 388 388 389 389 390 394 395 394 394 395 395 395 393 390 388 385 382 378 378 379 381 383 384 383 384 385 385 384 383 382 381 381 379 378 377 374 371 367 365 369 369 369 371 374 372 370 365 360 356 354 352 349 348 348 349 349 349 350 354 357 360 361 364 366 369 370 370 370 364 361 363 365 371 380 385 390 394 397 400 401 402 402 401 402 405 407 405 405 410 415 416 416 416 416 416 417 418 420 422 423 423 424 426 426 427 429 430 434 438 442 447 452 455 458 461 465 468 470 472 473 471 467 464 462 458 454 452 448 445 441 437 434 429 424 422 420 418 414 409 402 400 397 398 399 397 391 388 389 390 390 388 384 382 381 380 377 375 372 370 368 365 363 361 359 358 358 358 358 356 354 352 353 356 360 363 363 360 356 349 348 352 357 362 363 363 364 364 361 356 353 346 339 332 328 325 324 322 321 321 321 325 328 333 334 335 336 336 336 335 335 333 333 333 334 334 332 329 327 326 327 329 328 326 325 323 322 322 321 320 317 316 314 311 313 317 317 317 317 317 317 318 319 319 320 320 320 318 315 313 308 304 301 300 297 296 296 299 305 310 315 318 320 321 325 329 335 341 344 347 352 354 354 353 351 351 352 353 356 357 358 360 360 358 354 352 347 345 345 345 346 346 346 347 347 348 349 349 349 349 350 352 353 354 354 355 354 353 352 350 348 345 343 341 338 334 333 328 326 327 326 324 322 321 318 315 312 310 306 304 302 298 294 289 286 283 281 280 279 278 277 275 273 271 266 263 262 262 262 262 264 267 271 274 274 274 278 283 288 291 293 295 297 298 299 298 297 294 293 291 288 285 282 283 284 287 288 288 287 287 284 282 280 274 270 266 262 260 260 261 260 258 256 256 263 271 277 284 288 288 285 280 276 272 268 261 252 245 238 237 242 243 243 241 237 240 246 252 257 262 268 274 278 279 276 272 268 264 259 252 242 234 228 226 229 232 233 230 227 223 219 215 212 208 201 193 183 182 186 186 184 181 176 172 168 165 163 160 155 148 144 139 134 132 136 143 152 162 168 172 176 178 178 177 174 167 157 151 150 146 138 136 138 141 142 143 144 144 145 145 144 144 143 143 143 144 144 143 143 142 140
358 358 359 359 359 359 357 356 354 352 352 352 351 351 351 350 348 346 345 346 347 348 349 349 349 350 350 350 350 350 351 351 351 352 354 354 355 355 355 354 351 349 349 348 345 343 340 337 335 331 327 323 319 318 318 318 318 318 318 318 318 318 318 318 318 318 318 318 319 321 321 321 320 320 319 318 318 318 318 318 320 320 320 318 318 318 318 320 322 324 329 330 329 332 336 334 329 325 321 318 317 317 318 318 318 318 318 318 320 322 323 323 323 324 324 324 325 325 325 325 325 325 326 326 327 328 329 329 329 329 330 331 331 332 333 336 339 341 344 347 351 353 353 353 357 363 372 378 383 388 393 397 401 406 414 422 426 429 430 430 427 422 415 407 400 397 395 396 396 397 398 399 399 398 398 399 401 406 412 412 408 404 401 398 398 400 399 391 386 385 384 384 383 381 376 369 364 362 361 361 360 360 360 360 360 360 360 360 359 357 356 356 357 360 362 363 362 362 361 360 358 358 357 357 356 356 357 360 362 363 363 363 363 358 354 354 357 362 367 371 376 380 383 385 387 388 388 388 388 388 389 389 389 392 394 393 393 394 394 394 392 390 388 386 383 380 377 377 380 382 383 383 383 383 383 383 383 382 381 380 379 377 376 374 370 364 364 371 370 368 369 371 372 370 366 360 356 354 353 349 348 348 348 349 349 352 356 358 360 361 363 365 368 369 370 369 364 362 364 366 370 378 384 389 393 396 400 401 401 401 401 404 408 410 407 405 411 415 416 416 416 416 417 418 420 421 423 424 424 425 426 427 428 429 431 434 438 441 446 450 454 458 462 466 470 473 475 474 472 468 465 463 459 455 452 448 445 441 437 433 426 422 421 418 414 410 405 401 399 396 397 396 394 390 389 390 391 391 390 388 387 386 386 384 382 379 376 373 371 369 365 362 359 359 359 360 359 356 354 357 361 366 368 368 364 359 351 348 351 357 361 363 363 365 364 363 359 356 349 342 336 329 325 324 322 322 322 322 326 328 332 334 335 336 336 335 335 335 334 334 335 336 336 333 330 327 326 329 330 329 327 326 324 323 322 321 319 317 315 313 311 314 318 318 317 317 317 318 319 320 321 321 320 319 315 312 309 304 302 299 298 296 296 296 303 309 313 317 319 320 322 324 328 333 339 344 347 351 354 354 353 353 352 352 353 355 356 358 359 359 358 355 352 348 345 345 345 345 345 345 346 346 346 346 347 347 347 349 351 352 353 353 351 349 349 349 348 345 342 341 339 335 333 333 329 325 323 322 321 320 318 316 314 311 309 306 304 302 298 295 291 287 285 284 283 282 281 280 278 276 274 269 264 262 262 261 261 263 265 269 272 272 273 277 281 285 289 292 294 296 297 297 295 293 291 289 287 284 282 280 283 284 286 287 287 287 286 284 282 279 273 268 265 263 262 262 262 261 259 255 255 262 272 278 285 291 290 286 281 277 272 269 261 252 244 238 236 240 241 241 237 235 240 247 252 258 263 269 276 280 282 279 275 271 267 262 255 246 238 231 226 227 232 233 231 228 223 219 215 212 207 200 190 183 186 190 191 190 188 184 179 175 172 170 167 160 152 146 141 136 132 133 139 147 157 164 169 172 174 174 172 168 162 154 148 146 141 135 136 140 143 145 146 147 148 148 147 147 146 146 146 147 148 147 146 145 144 142
359 359 360 360 360 359 359 357 356 355 355 354 353 352 352 351 350 347 346 347 348 349 350 351 351 351 352 352 352 352 353 353 353 354 355 355 356 357 357 355 352 352 351 349 347 344 341 337 334 330 326 323 320 320 318 318 318 318 318 318 318 318 318 318 318 318 318 318 319 320 320 320 319 318 318 318 319 318 318 318 320 320 320 318 318 318 318 320 322 324 327 328 327 329 331 330 325 320 318 318 317 317 318 318 318 318 318 318 321 322 323 323 324 325 325 325 325 325 325 326 326 326 326 327 328 330 330 331 331 331 331 331 331 332 333 336 338 341 343 346 350 352 352 353 358 364 372 377 381 386 391 395 399 404 411 419 425 428 429 427 423 418 411 404 399 396 396 396 396 396 397 397 397 396 396 396 398 403 409 409 406 404 402 398 397 396 395 389 385 384 383 383 382 380 376 372 367 363 362 361 360 360 360 360 360 360 360 360 358 356 355 356 357 359 360 360 360 359 359 359 358 358 356 356 356 354 355 358 361 363 363 362 362 359 354 353 356 361 366 370 375 379 382 385 388 389 389 389 389 389 389 389 389 390 391 391 392 393 394 393 392 390 389 387 384 381 378 377 379 381 382 383 383 383 383 382 382 382 381 380 378 376 374 372 369 363 362 372 374 369 367 368 371 371 366 360 355 353 352 349 349 349 348 349 349 354 358 360 361 362 363 364 366 367 368 368 363 362 363 365 368 375 383 388 392 395 397 399 400 400 401 406 411 410 406 404 410 413 414 415 415 416 417 418 421 423 423 424 425 426 427 428 429 431 434 436 439 442 446 450 454 458 463 468 473 476 477 475 472 468 466 464 459 455 452 448 444 440 436 429 423 419 418 414 410 405 401 399 398 394 394 393 390 389 390 390 393 394 393 391 390 389 389 388 388 385 382 379 377 375 371 366 361 359 361 362 362 359 357 360 365 371 373 372 367 362 354 348 349 355 360 362 363 364 364 364 362 359 352 345 339 332 326 324 322 321 321 322 326 328 332 333 334 335 335 335 335 335 335 336 337 338 336 334 331 328 327 330 331 329 327 326 324 323 322 320 318 316 314 312 312 315 320 320 319 318 320 321 322 323 323 323 320 316 311 306 304 301 299 297 296 296 296 299 306 312 316 320 322 322 323 324 326 331 336 342 346 349 352 352 353 353 352 351 352 355 356 357 358 358 358 355 352 348 345 345 345 345 345 345 345 346 346 346 347 347 347 348 349 350 351 350 347 345 345 346 346 342 339 338 337 333 332 332 331 325 322 319 319 317 316 314 311 308 307 306 305 302 299 295 292 289 287 287 285 284 283 282 281 279 277 272 266 262 262 261 261 261 264 267 270 270 272 274 277 281 285 288 291 293 293 293 291 290 287 285 283 281 280 279 282 284 285 286 287 287 285 283 281 277 271 267 265 264 264 264 264 263 260 255 255 262 271 278 285 291 291 286 281 276 272 269 261 252 244 237 235 236 237 237 233 235 242 247 253 258 264 271 277 281 283 280 275 273 270 265 258 251 241 233 226 226 231 233 231 228 223 219 215 212 206 199 189 185 189 195 197 196 194 190 185 182 180 178 174 168 159 150 143 138 133 132 136 143 151 159 165 168 170 169 167 163 156 149 144 140 135 135 138 141 144 146 148 150 151 152 151 150 149 148 149 151 151 151 150 149 148 145
359 359 360 360 360 360 359 358 357 357 356 356 354 353 353 352 350 348 347 348 349 350 351 352 352 353 353 353 354 355 356 356 357 357 356 356 358 359 359 356 354 354 353 351 348 346 342 337 334 330 325 323 322 322 319 318 318 318 318 318 318 318 318 318 318 318 318 319 319 320 319 318 318 318 318 318 318 318 318 318 320 320 321 319 319 318 318 320 322 323 326 326 326 327 327 326 321 318 318 318 318 318 318 318 318 318 318 319 322 323 324 325 326 325 325 325 325 326 326 326 326 326 328 331 331 331 331 331 331 332 332 332 332 332 332 335 337 340 342 344 347 351 352 353 358 364 369 374 378 383 387 391 395 401 407 415 422 425 426 423 418 413 406 402 398 397 395 395 396 395 395 395 395 394 393 392 394 399 404 404 402 404 403 398 395 391 389 385 382 381 381 380 380 378 375 372 368 363 362 361 360 360 360 360 360 360 359 359 357 355 354 355 356 358 359 359 357 358 359 358 357 357 356 355 355 353 353 356 361 364 364 361 360 359 354 353 356 360 365 368 374 378 382 384 388 390 390 389 389 389 389 389 389 389 389 390 391 392 393 393 392 390 389 387 385 383 379 377 377 379 381 383 383 383 383 382 382 381 380 379 376 373 371 369 367 362 362 368 376 374 368 367 368 369 365 359 354 350 350 349 349 349 349 349 350 355 359 360 362 362 363 363 364 366 368 367 363 361 362 363 365 371 380 385 389 391 393 396 398 400 401 407 411 411 406 404 409 412 413 414 414 415 416 418 421 423 424 425 425 426 428 429 432 435 438 441 443 446 448 452 455 459 464 470 474 477 477 475 472 468 466 464 459 453 451 446 441 436 432 425 421 418 415 410 405 401 398 395 394 393 391 390 387 388 390 394 395 395 395 395 393 392 390 391 392 391 389 386 383 380 377 371 365 360 362 362 362 360 360 363 368 375 376 375 370 363 355 348 346 352 357 360 361 361 362 363 362 360 354 347 340 333 327 324 322 321 321 322 326 328 331 332 333 334 334 335 335 335 336 337 338 338 335 333 331 328 327 329 329 326 324 323 323 322 321 319 317 315 313 311 311 314 319 322 322 321 323 323 323 323 323 323 319 313 305 300 299 298 297 297 296 297 299 303 308 314 319 322 324 325 324 324 325 328 332 338 343 345 347 348 350 350 351 350 351 353 355 356 357 358 357 356 353 349 346 345 345 345 345 345 346 346 347 347 347 347 347 347 347 347 347 346 343 341 342 342 342 338 336 335 334 331 328 329 331 327 323 320 319 317 316 313 308 307 307 306 305 302 299 296 293 290 289 288 287 285 283 282 282 280 278 275 269 264 263 261 261 260 263 265 266 266 268 270 273 276 280 284 287 289 289 287 287 285 282 280 280 279 278 277 278 281 282 284 285 284 283 281 278 273 268 265 265 265 265 265 264 263 261 255 255 261 270 277 284 289 289 285 279 275 272 268 262 252 243 236 232 232 233 231 231 236 242 247 253 258 264 271 277 282 283 281 275 273 271 265 260 254 242 233 227 225 229 232 231 228 223 219 214 210 204 196 188 187 193 199 201 201 199 196 192 188 186 184 182 174 166 155 145 139 135 132 133 138 146 153 159 163 165 165 163 157 150 144 139 135 134 137 139 142 145 148 150 152 154 156 155 154 153 152 153 155 155 155 154 153 152 149
