ncols         760
nrows         31
xllcorner     -72.7551955556
yllcorner     42.75457
cellsize      1.0E-5
NODATA_value  -9999
430 437 447 459 471 484 494 507 519 529 534 532 525 516 507 496 485 476 472 467 464 460 459 456 452 448 443 439 434 429 424 424 429 435 440 444 448 450 452 455 459 464 470 476 483 488 492 497 501 503 506 509 512 516 519 521 522 525 528 530 532 535 536 538 541 543 544 546 550 553 556 560 563 564 566 566 566 566 565 564 562 562 563 562 561 560 559 558 557 556 556 554 553 552 550 547 546 544 541 538 535 531 526 523 521 519 517 514 510 505 501 495 488 483 479 474 470 465 461 456 451 448 444 442 439 438 438 440 443 445 448 453 459 465 469 471 471 471 470 467 463 459 457 453 447 442 443 450 457 462 466 470 473 476 479 482 486 490 493 493 487 480 475 470 467 465 462 462 467 471 474 477 479 483 487 490 494 498 500 503 503 501 497 491 484 482 483 481 478 475 472 467 463 455 446 439 433 428 429 433 432 431 433 433 436 441 442 441 439 440 442 440 433 422 410 407 406 403 399 396 393 390 388 385 381 378 374 370 364 358 359 362 363 360 358 358 356 352 347 341 333 324 316 309 300 293 289 290 296 301 304 306 306 307 307 307 306 304 301 299 298 293 288 284 281 277 273 268 262 258 260 260 257 252 246 242 238 234 229 227 227 228 228 230 232 236 240 243 246 247 246 246 247 247 246 245 245 248 257 262 266 270 272 274 275 276 276 273 268 264 267 273 276 279 280 280 283 291 296 298 298 299 298 296 291 284 279 276 271 265 260 255 249 248 254 265 276 288 296 298 293 288 283 282 286 288 291 294 299 301 301 300 299 297 293 289 285 285 288 292 295 295 293 291 290 288 285 280 275 269 263 261 261 264 264 262 258 257 262 267 274 282 288 290 293 294 293 289 286 282 277 270 263 255 249 244 239 235 231 232 236 237 235 233 230 232 239 242 236 228 220 212 206 203 202 201 201 200 199 199 199 197 197 196 196 196 198 203 209 216 223 228 232 237 242 239 230 219 215 214 209 203 203 206 202 196 195 199 204 209 213 214 206 199 190 178 172 172 174 179 182 180 180 177 173 169 162 154 146 141 138 136 135 136 137 138 140 142 142 144 145 145 145 144 143 144 144 143 142 142 141 140 138 140 143 146 149 153 154 156 155 153 155 156 156 154 150 142 134 123 107 96 94 93 87 74 68 66 66 66 66 66 66 66 66 66 66 66 66 66 66 66 66 66 65 65 71 80 84 87 91 96 99 100 102 105 108 112 118 128 138 144 148 148 146 146 150 155 159 162 164 164 162 161 158 156 155 154 151 146 142 137 132 128 127 130 131 130 130 128 128 127 124 122 118 114 113 111 109 107 106 105 105 105 106 109 114 117 120 123 125 127 130 133 133 132 129 127 126 125 125 125 124 123 123 123 122 120 119 117 117 117 117 117 117 117 116 121 126 124 124 125 125 126 127 127 127 128 127 126 126 127 127 127 128 128 128 129 130 130 130 130 131 132 137 143 148 154 164 176 185 193 202 210 221 234 244 258 272 278 279 277 270 262 272 282 289 297 305 305 303 301 306 304 295 280 271 269 264 264 262 266 273 274 273 272 273 273 271 266 257 247 249 257 260 256 254 262 272 281 288 296 304 314 321 330 338 342 345 351 352 351 349 346 342 339 336 335 334 332 331 330 329 326 324 323 315 311 315 318 318 318 318 318 319 324 332 340 347 350 350 346 342 343 344 337 330 336 346 356
431 437 447 458 470 477 485 502 516 526 531 530 524 514 504 493 483 477 473 469 465 462 460 456 452 448 444 439 434 429 423 422 426 433 437 441 445 447 450 456 461 466 471 477 484 489 493 498 501 503 507 509 512 516 520 522 524 525 528 530 532 534 535 538 540 541 543 545 548 552 555 559 562 564 566 566 566 565 564 564 564 564 565 564 563 561 560 559 558 558 557 555 553 552 550 547 546 546 543 540 537 531 527 525 523 521 518 514 510 505 500 494 487 484 480 475 470 465 461 457 453 451 448 444 440 437 436 438 439 441 445 450 455 461 466 468 469 468 467 465 461 456 452 450 444 440 441 449 455 460 464 468 471 475 478 482 486 489 492 490 484 478 473 470 468 465 461 461 466 471 474 476 479 482 487 490 494 497 499 501 501 498 493 486 480 478 478 476 474 471 469 465 459 450 442 436 431 431 435 438 438 438 441 442 444 448 451 451 450 449 450 444 432 418 405 400 397 393 389 387 383 381 379 375 370 365 362 360 357 353 353 357 357 355 354 353 351 345 340 333 325 319 312 304 296 289 288 292 298 303 306 307 307 308 307 307 307 306 304 302 300 295 290 286 282 278 274 269 264 263 265 263 259 252 247 243 241 237 232 228 226 226 226 226 227 229 231 233 237 239 238 236 238 237 236 237 240 247 256 261 265 267 269 270 271 272 271 267 259 257 265 270 273 276 278 281 285 292 297 298 298 299 298 296 291 284 279 275 270 264 259 254 247 246 255 266 278 290 298 300 295 289 284 284 287 290 292 294 298 299 299 298 297 295 292 288 284 284 287 291 294 294 293 290 289 287 285 280 275 268 262 258 257 258 258 257 253 253 259 264 271 279 285 289 292 294 294 290 287 283 279 273 267 260 254 248 242 236 231 228 229 231 231 229 227 230 237 240 236 227 220 212 206 203 202 201 201 200 199 199 199 197 197 197 196 196 197 201 206 211 218 224 230 235 240 237 228 217 210 208 206 200 200 204 199 193 193 197 202 205 209 213 204 195 187 178 172 172 175 181 185 185 185 182 177 172 166 158 149 143 139 137 136 137 138 141 143 144 145 146 148 148 147 147 146 146 146 146 145 145 144 143 141 143 147 151 154 158 159 161 162 160 163 164 163 160 156 148 139 126 110 97 95 95 93 82 71 66 66 66 66 66 66 66 66 66 66 66 66 66 66 66 66 66 65 65 69 78 82 85 88 90 92 95 98 102 106 110 113 120 128 134 138 138 139 144 151 156 160 163 165 163 158 157 155 151 151 150 147 143 139 135 130 127 127 130 132 131 130 128 127 127 125 124 120 114 111 109 107 105 105 105 105 105 106 109 113 116 119 122 125 127 130 133 133 131 128 127 125 124 124 124 123 123 122 122 121 120 119 117 117 117 117 117 117 117 117 120 124 123 124 125 126 126 127 127 127 127 127 126 126 126 126 127 128 128 128 129 129 129 130 130 131 132 136 141 147 154 164 176 185 194 203 211 221 233 244 258 271 277 275 273 265 259 272 281 289 298 306 306 302 299 306 304 295 281 270 263 257 257 256 260 267 268 267 265 266 268 267 263 254 245 246 253 255 251 254 264 272 280 288 296 304 314 321 330 338 342 345 353 354 353 350 347 342 339 336 335 333 331 331 330 328 326 324 321 314 310 315 318 318 318 317 317 319 325 332 340 345 347 344 341 340 340 340 334 327 333 342 352
431 436 446 455 464 469 479 498 512 521 525 527 522 512 501 492 485 479 475 469 465 463 461 456 452 448 444 439 434 430 424 420 423 429 434 438 441 444 450 456 461 466 470 476 482 488 494 498 501 504 507 508 511 516 519 522 525 527 528 529 532 534 535 537 539 540 541 542 545 549 554 558 561 563 565 565 565 563 562 564 565 566 565 565 564 561 561 560 558 558 557 555 553 551 549 547 546 546 543 540 537 531 528 525 524 521 518 514 509 505 499 493 489 487 484 479 472 468 464 460 457 455 452 447 442 437 435 436 436 438 443 447 452 458 462 465 466 465 464 462 459 453 448 446 441 438 440 446 452 458 463 467 471 475 478 482 485 488 490 488 482 476 471 471 471 465 460 460 465 469 473 475 478 482 486 490 493 496 497 499 498 495 490 483 477 475 475 472 469 468 464 459 451 442 438 433 430 434 440 444 445 446 449 451 452 456 460 460 460 457 454 444 430 415 404 395 388 382 379 377 375 372 369 364 359 356 354 352 350 349 351 354 353 351 349 349 345 339 332 326 319 314 307 299 291 286 289 295 300 305 307 308 309 309 309 308 308 307 306 304 302 297 292 286 282 279 275 271 269 269 268 265 259 253 250 248 246 241 236 232 229 228 226 226 225 225 226 227 230 233 232 231 230 229 229 234 238 246 253 258 262 264 265 266 266 267 266 260 252 253 262 267 270 273 278 284 289 294 298 299 299 298 298 295 289 282 277 274 269 263 258 252 245 245 255 268 280 290 298 301 297 290 285 286 288 290 292 294 296 297 297 296 295 294 291 286 282 282 285 289 292 294 292 288 286 286 284 280 274 268 262 258 255 253 253 252 249 250 255 260 266 274 281 286 290 294 294 292 288 285 281 276 270 264 258 252 245 238 232 227 225 226 226 225 225 229 235 237 233 226 218 211 205 203 202 201 201 200 199 199 199 198 198 197 196 196 196 199 204 209 214 221 228 233 238 235 226 216 207 202 201 196 197 201 197 191 191 195 199 202 207 211 205 194 184 176 172 172 176 184 189 189 189 187 182 176 170 162 152 145 141 137 136 138 140 143 146 147 148 149 150 150 149 149 149 148 149 149 150 150 149 146 144 148 152 156 159 162 164 166 167 167 170 171 171 168 162 155 145 130 113 101 99 100 99 92 79 68 66 66 66 66 66 66 66 66 66 66 66 66 66 66 66 66 66 66 68 75 81 84 86 87 88 90 94 98 102 107 110 114 118 123 125 127 135 143 151 157 162 165 166 163 156 152 151 148 146 145 142 139 135 132 129 126 126 130 133 133 130 127 127 127 125 124 120 114 110 107 106 105 105 105 105 105 106 109 112 115 118 122 125 127 130 132 132 131 128 126 125 124 123 123 123 122 121 121 120 119 119 117 117 117 117 117 117 117 117 119 122 122 124 125 126 127 127 127 127 126 126 126 126 126 126 126 127 127 128 128 129 129 129 130 130 131 134 139 145 153 163 175 185 195 203 211 220 232 244 257 268 274 272 266 257 258 271 281 289 299 306 306 302 298 305 305 295 281 272 262 253 252 251 254 259 261 259 256 258 260 261 258 251 243 241 247 248 249 256 264 272 280 288 296 304 313 321 329 337 342 344 353 355 354 351 348 342 339 336 334 332 329 330 330 328 325 322 319 312 309 316 318 318 317 316 317 320 326 332 339 343 342 339 338 338 338 337 331 322 330 340 347
431 436 444 449 456 465 476 493 506 514 518 520 519 510 501 494 486 480 474 469 465 462 460 456 452 448 444 439 435 430 425 419 420 424 430 435 439 444 450 457 462 466 470 476 483 489 495 499 503 505 507 508 510 515 518 522 525 528 529 530 531 534 535 536 538 539 539 540 542 547 551 555 558 560 562 564 563 561 561 563 565 566 565 565 563 561 561 560 558 557 557 554 552 550 549 547 546 546 543 540 536 531 528 526 523 521 518 513 508 503 498 494 492 490 486 482 477 473 469 465 462 458 454 450 445 440 436 435 433 436 440 444 449 454 458 461 463 462 461 459 456 452 446 441 438 437 439 443 449 456 463 467 471 475 478 481 485 487 489 485 479 474 471 474 472 465 460 459 462 467 471 474 477 481 485 489 491 493 494 496 495 492 488 481 475 472 471 468 466 464 458 451 443 435 433 431 431 438 446 452 453 454 458 460 461 464 468 469 467 463 456 444 429 415 405 395 383 374 371 367 364 362 359 355 352 350 349 346 343 346 349 351 350 345 343 343 338 331 325 320 314 309 301 294 287 286 292 297 303 308 310 310 310 310 310 310 309 308 307 305 303 299 293 287 284 282 279 275 275 274 270 265 259 255 254 254 250 245 241 238 235 232 229 226 225 225 225 225 227 228 229 229 228 226 227 232 237 244 250 255 258 260 261 262 263 263 262 254 247 251 259 264 269 274 281 287 293 296 299 299 299 298 296 292 286 279 274 271 267 261 256 249 243 244 255 267 279 290 297 301 298 292 287 287 288 290 291 293 294 295 295 295 294 292 289 285 281 280 283 286 289 291 289 286 283 283 281 278 273 267 262 258 255 250 248 248 245 245 251 256 263 271 277 282 287 293 294 292 289 285 282 278 272 266 261 254 246 238 232 227 224 223 222 222 223 228 234 235 231 224 217 210 204 203 202 201 201 200 199 199 199 198 198 197 196 196 196 198 202 207 212 219 226 232 236 232 223 214 205 198 196 192 195 199 195 190 190 192 196 201 205 210 207 195 182 173 171 171 178 186 191 192 192 190 186 180 173 165 156 147 142 138 137 139 142 145 149 150 151 151 152 152 151 151 151 151 152 153 154 154 153 150 148 152 157 161 163 165 168 171 173 174 176 177 177 174 169 161 151 135 117 104 103 103 102 100 90 75 67 66 66 66 66 66 66 66 66 66 66 66 66 66 66 66 66 66 67 73 79 81 85 86 87 87 90 92 96 101 106 108 111 114 117 122 132 142 150 158 163 167 168 164 157 151 146 143 142 141 138 135 132 130 128 126 126 129 132 132 128 126 126 126 125 123 118 113 109 106 105 105 105 105 105 105 107 108 111 114 119 122 125 127 130 131 131 130 127 125 124 123 123 122 122 122 121 120 119 118 117 117 117 117 117 117 117 117 117 119 121 123 125 126 126 126 126 126 126 125 125 125 125 126 126 126 127 127 127 128 129 129 129 129 130 131 133 137 142 151 160 173 183 194 203 211 219 230 244 254 263 270 268 259 251 261 273 281 290 300 306 305 301 296 303 304 294 281 272 262 251 248 247 249 252 253 252 249 250 253 255 253 247 241 239 242 244 250 258 264 272 280 287 295 303 312 321 329 335 338 342 353 355 354 352 348 342 338 335 333 331 329 329 329 327 324 321 318 310 309 317 318 317 316 315 317 320 327 332 337 340 338 335 336 337 337 335 328 319 327 338 343
431 435 439 443 452 463 473 486 498 505 509 512 512 507 499 493 486 479 473 468 465 461 459 455 451 447 443 439 435 431 425 419 418 423 429 435 439 444 450 457 463 468 472 479 486 491 497 501 504 505 507 509 511 514 518 521 524 527 529 530 532 534 535 536 538 538 538 539 540 545 548 552 554 556 559 561 560 559 559 562 565 565 565 564 563 561 561 560 558 557 557 554 551 550 549 547 546 545 542 539 535 531 528 526 523 520 516 512 508 505 501 498 496 492 488 484 479 475 472 468 464 461 457 454 448 442 437 434 432 433 438 442 446 451 455 459 460 458 457 456 453 449 444 439 435 435 438 442 448 455 462 467 471 474 477 480 484 487 487 483 477 473 473 475 473 467 460 458 460 464 468 473 476 480 484 486 488 490 492 493 492 490 486 480 473 467 466 465 463 458 452 444 434 428 428 430 434 441 452 459 461 462 467 470 471 473 477 476 472 464 454 441 427 414 404 396 385 375 369 361 356 353 351 350 347 345 342 338 335 342 347 348 345 338 337 337 331 325 320 315 310 304 296 289 286 287 294 299 306 311 313 312 311 312 311 311 310 310 308 305 303 300 293 289 289 287 284 281 280 276 272 266 261 259 259 259 255 251 247 244 241 237 233 228 226 225 225 225 226 226 226 227 226 225 225 229 234 240 245 249 252 254 256 258 259 258 257 249 243 249 256 263 269 276 284 290 295 297 299 299 299 297 293 288 282 274 269 269 265 260 254 247 241 243 255 266 278 289 296 300 299 292 290 288 289 290 291 291 292 293 293 293 292 290 288 283 279 278 281 284 286 287 286 283 280 279 278 275 271 267 262 259 257 250 244 243 242 242 246 252 259 267 273 277 285 291 294 292 289 285 282 279 274 268 262 255 246 239 234 230 225 221 219 220 222 226 232 234 229 223 216 209 204 203 202 201 201 200 199 199 199 198 198 197 196 196 196 197 201 205 210 217 224 231 233 229 221 213 204 196 191 189 193 196 193 188 187 190 193 199 205 210 207 196 182 172 170 172 180 188 192 193 193 191 190 184 176 168 159 150 144 140 139 140 144 148 152 154 154 153 154 154 153 153 153 153 154 156 156 156 155 152 152 155 160 164 167 170 173 176 178 180 181 181 181 179 174 165 156 140 119 106 105 104 103 102 97 86 71 66 66 66 66 66 66 66 66 66 66 66 66 66 66 66 66 65 65 72 78 79 84 86 86 87 88 89 90 94 99 101 104 108 113 121 131 142 151 159 165 168 168 164 159 151 145 139 138 137 136 133 131 130 129 126 125 127 131 130 126 124 123 124 124 120 115 111 107 106 105 105 105 105 105 106 107 108 111 114 119 122 125 127 129 130 131 129 126 124 124 122 122 122 122 121 120 120 118 117 117 117 117 117 117 117 117 117 117 120 122 123 125 126 126 126 126 126 125 125 125 125 125 125 125 126 127 127 127 128 128 128 128 129 129 130 132 135 140 148 157 169 180 192 202 211 218 227 241 250 258 265 261 252 250 266 277 282 291 300 306 304 300 294 301 304 294 281 272 261 248 243 243 245 247 247 247 247 245 247 250 249 244 238 237 239 245 252 258 264 272 279 286 295 302 311 319 326 332 334 342 353 355 354 352 347 342 337 334 332 330 328 327 326 325 323 320 315 307 309 317 318 317 315 313 317 321 328 331 335 336 332 330 334 335 336 333 325 317 324 335 338
429 432 434 440 450 460 470 481 491 497 500 503 505 502 496 491 485 477 472 468 464 460 458 454 449 445 442 438 434 430 425 418 417 424 431 435 439 444 450 456 462 468 473 481 488 493 497 501 504 506 509 511 512 515 518 521 524 527 529 531 532 535 535 536 537 537 537 538 539 542 545 548 549 552 556 558 558 556 557 562 565 565 564 562 562 561 561 560 558 557 556 553 551 550 549 546 545 544 541 538 534 531 528 526 523 520 517 514 511 509 506 502 498 494 490 486 481 477 473 469 466 464 461 456 449 443 437 434 432 431 435 440 443 448 452 456 456 454 452 451 449 445 441 437 432 434 438 441 447 454 460 466 470 473 476 479 484 486 484 480 475 473 474 475 473 468 460 456 458 462 466 470 475 477 481 482 484 487 490 490 490 488 484 479 473 465 462 460 458 453 446 436 427 425 427 431 437 446 458 464 467 469 476 480 482 483 485 483 474 463 451 438 424 411 403 395 387 379 371 363 356 349 345 344 342 339 335 330 328 335 341 342 338 332 331 331 325 320 316 312 306 298 291 287 286 290 296 302 310 316 316 314 313 313 313 313 312 311 310 305 303 300 296 295 294 292 288 287 285 278 277 273 267 264 265 264 262 258 254 251 248 244 238 234 229 227 226 225 225 225 225 225 223 224 224 227 231 235 239 242 245 247 250 252 253 252 251 246 241 247 254 262 270 278 286 291 295 297 299 298 298 294 289 283 276 269 266 267 263 257 252 245 239 243 255 265 277 288 295 300 298 294 291 290 290 290 291 291 292 292 291 291 290 289 287 282 277 275 278 281 282 282 282 279 276 273 272 271 268 265 262 259 257 251 244 239 237 238 243 249 257 264 269 275 283 289 293 292 288 285 282 279 276 269 262 254 247 242 238 233 227 222 219 218 220 224 230 231 227 221 214 207 203 203 202 201 201 200 199 199 199 197 197 196 196 196 196 197 201 204 209 215 222 229 230 226 219 212 204 194 187 187 191 194 191 186 185 188 192 198 203 209 207 196 183 172 170 173 181 189 192 193 194 194 192 186 179 171 162 153 146 142 141 143 147 152 157 159 157 155 156 156 156 155 155 155 156 158 159 159 157 154 154 158 163 167 170 173 177 181 183 186 187 187 186 183 178 170 158 141 119 108 106 106 104 103 100 92 78 66 66 66 66 66 66 66 66 66 66 66 66 66 66 66 66 65 65 71 77 80 84 85 86 87 87 88 88 90 92 95 99 105 112 121 132 143 153 161 167 169 169 165 160 153 147 141 137 137 135 133 133 132 131 127 125 126 129 127 123 121 120 121 121 117 113 109 105 105 105 105 105 105 106 106 106 107 111 114 119 122 124 126 128 129 129 128 125 124 123 122 121 121 121 121 120 119 117 117 117 117 117 117 117 117 117 117 118 121 122 123 125 126 126 125 125 125 125 125 125 125 125 125 125 126 127 127 127 127 127 128 127 128 129 130 132 133 138 144 153 164 177 188 199 209 217 224 234 245 253 259 254 245 251 269 279 283 291 299 304 303 299 293 298 301 293 280 271 260 246 239 238 242 242 243 244 244 241 241 245 245 241 235 235 240 245 251 257 263 271 278 285 294 301 310 316 322 328 334 344 354 355 354 352 347 342 337 334 331 329 328 325 324 322 321 317 312 305 309 317 317 315 313 311 317 321 328 331 334 333 326 327 331 334 335 330 321 314 322 332 331
426 428 432 440 449 458 467 476 484 490 493 496 498 497 492 488 483 476 471 466 462 459 457 452 448 443 438 435 432 429 425 417 416 422 429 433 437 442 448 453 460 467 473 480 487 493 498 502 505 506 509 511 513 515 520 522 525 527 530 531 532 535 535 536 536 536 535 536 538 539 541 543 545 549 553 555 555 553 556 559 563 562 561 559 559 560 560 560 559 558 556 554 553 552 550 546 543 542 541 537 533 531 529 527 525 523 520 517 515 512 509 504 499 494 490 487 483 479 475 472 469 467 462 456 449 443 437 433 431 430 433 437 441 446 450 452 453 450 448 446 444 441 437 433 430 434 438 440 445 453 459 463 467 470 474 478 482 483 481 478 474 474 474 474 474 469 462 455 455 459 463 467 472 474 475 477 481 485 488 488 488 486 482 477 471 464 457 454 452 447 438 428 421 424 429 433 440 451 463 469 472 476 483 490 493 494 493 487 474 460 447 434 420 408 401 395 388 379 372 366 359 351 343 338 337 333 328 324 322 325 330 332 330 325 326 326 320 317 313 308 301 293 288 285 287 292 298 304 315 321 319 317 316 315 315 315 314 312 309 305 303 302 301 301 299 295 294 292 289 283 283 282 276 270 271 271 269 265 262 259 255 251 246 241 235 231 228 226 226 225 224 223 222 222 222 224 227 231 234 237 239 242 244 246 246 246 244 240 240 246 254 261 271 279 285 291 295 297 298 298 295 290 285 277 271 265 263 264 261 255 250 243 238 243 254 264 275 286 295 299 298 294 292 291 291 291 291 291 291 290 290 290 289 288 286 282 275 273 275 276 278 278 277 275 271 268 267 266 265 263 261 258 256 251 245 239 235 235 240 247 255 262 266 273 281 288 291 290 286 284 282 279 276 269 262 254 249 245 240 235 228 222 219 217 218 222 227 229 225 219 212 206 203 203 202 201 201 200 199 199 199 197 197 196 196 196 196 197 201 204 208 214 221 227 227 222 216 209 201 193 185 185 189 191 189 185 184 186 190 195 201 206 205 194 181 171 170 173 182 189 192 193 195 196 194 188 181 173 166 156 148 143 143 148 152 157 161 162 159 157 157 158 159 158 158 158 159 160 161 161 159 157 157 161 166 169 173 176 181 185 189 192 194 194 191 187 180 172 159 140 118 109 107 106 104 103 102 97 84 69 66 66 66 66 66 66 66 66 66 66 66 66 66 66 66 66 66 70 77 81 84 85 85 86 87 88 88 88 89 91 97 105 112 122 133 144 154 163 169 169 169 166 161 155 149 144 138 137 135 134 134 133 132 129 124 123 126 123 119 118 117 118 117 114 110 107 105 105 105 105 105 105 105 105 105 107 111 114 118 121 123 126 127 127 127 126 125 123 122 121 120 120 120 119 118 117 117 117 117 117 117 117 117 117 117 117 119 121 122 123 125 125 125 125 125 125 124 125 125 125 125 125 125 126 126 126 126 127 126 126 126 127 129 130 132 133 136 142 148 159 171 184 195 205 214 220 228 239 248 252 247 240 253 270 280 285 291 298 302 301 298 291 295 298 290 278 269 258 244 235 235 238 237 239 241 240 236 236 241 241 237 233 234 238 244 249 256 262 269 277 284 292 300 308 313 321 328 337 346 355 355 353 351 347 342 338 334 332 330 330 326 323 319 318 314 307 303 311 317 316 314 311 309 315 321 328 332 332 328 321 324 328 332 331 325 317 310 319 326 324
424 426 433 440 448 456 465 472 479 484 487 490 492 492 489 485 481 475 470 466 462 458 457 452 448 443 437 432 430 426 422 416 416 420 426 430 435 441 447 453 460 467 473 479 486 492 498 502 504 506 509 512 513 515 520 522 525 528 530 531 533 535 535 536 536 535 534 535 536 537 537 540 543 546 550 552 551 550 553 557 559 559 558 557 557 558 559 561 560 558 557 556 554 553 550 546 543 541 539 536 533 531 530 529 527 525 522 519 517 513 509 505 500 495 491 489 485 481 476 473 469 467 462 456 448 443 438 433 430 429 430 433 438 443 447 449 449 446 444 441 440 437 434 430 429 433 437 440 443 450 456 460 463 466 472 478 480 479 479 478 475 474 475 475 474 472 465 455 452 455 460 464 468 470 470 472 478 483 485 486 485 483 479 474 469 463 454 448 444 439 430 422 419 426 432 436 444 455 465 471 476 483 490 497 502 503 498 486 471 456 444 430 416 406 401 395 388 378 371 366 360 353 344 338 334 329 323 322 319 319 320 322 322 320 321 321 317 315 310 303 296 290 285 285 288 294 299 306 318 323 321 319 318 316 316 317 315 311 308 305 306 306 306 304 302 301 299 297 293 288 288 288 282 277 278 279 277 273 270 267 262 258 253 248 242 236 231 228 228 228 226 225 223 221 220 221 224 227 230 233 235 237 239 240 241 241 239 235 238 244 251 260 270 277 284 290 293 295 296 296 292 287 279 272 266 262 261 261 258 253 247 240 236 243 253 264 274 285 294 299 299 294 291 291 291 291 291 291 291 290 290 290 289 288 286 282 275 271 271 273 273 273 272 270 266 263 261 262 261 260 259 256 254 250 244 239 233 232 237 245 253 259 264 270 279 286 290 288 285 284 282 279 275 269 261 256 252 247 242 236 229 222 218 216 216 220 225 227 223 217 211 204 203 203 201 201 201 200 199 199 198 197 196 196 196 196 196 196 200 203 207 213 220 226 224 219 212 206 198 190 183 183 187 188 186 184 182 183 187 192 198 203 202 191 178 170 170 173 182 189 192 193 196 197 196 190 183 175 169 159 151 146 146 153 157 160 162 162 160 158 159 161 161 161 161 161 161 162 162 162 161 160 160 164 168 172 176 180 185 189 194 198 199 199 196 189 181 172 158 138 116 109 108 106 105 104 102 100 90 74 66 66 66 66 66 66 66 66 66 66 66 66 66 66 66 66 66 69 77 81 83 85 85 86 87 87 87 88 88 90 96 103 110 120 132 144 154 164 169 170 170 166 162 157 151 146 140 138 136 135 135 136 135 130 123 120 120 119 116 115 114 115 114 110 108 105 105 105 105 105 105 105 105 105 105 107 110 113 118 120 122 124 125 125 125 125 123 122 121 120 120 119 119 118 117 117 117 117 117 117 117 117 117 117 117 118 120 121 122 123 124 124 124 124 124 124 124 124 124 124 125 125 125 125 126 126 126 126 126 126 126 127 128 130 133 135 136 140 145 154 164 177 189 199 207 215 223 233 242 245 239 236 254 270 280 287 292 298 301 300 297 289 292 294 286 276 266 255 243 233 232 233 232 236 238 235 231 231 236 237 234 231 233 236 241 248 256 263 271 278 284 292 300 308 315 323 331 339 348 355 354 352 350 346 341 338 334 333 332 330 328 323 315 314 310 303 303 312 314 313 311 307 304 312 320 328 333 331 324 317 320 326 329 326 320 312 307 316 320 319
423 427 433 440 447 455 463 469 473 477 481 485 487 488 485 482 478 474 469 465 460 457 456 452 448 443 438 433 430 425 419 415 415 421 426 430 435 441 448 455 462 468 475 480 486 491 497 502 504 506 509 511 512 515 519 522 525 529 531 531 533 535 535 536 536 534 532 533 535 534 535 538 541 544 546 549 547 548 551 554 555 555 555 555 556 558 559 560 560 559 559 558 555 553 550 546 543 541 538 534 533 532 531 530 529 526 523 521 518 514 511 506 500 496 493 489 485 480 475 473 469 466 462 455 449 444 439 435 431 429 428 430 435 440 445 447 447 444 441 439 436 433 429 426 428 432 436 439 441 446 453 457 460 464 471 476 477 477 477 477 477 476 476 475 475 474 468 458 451 451 456 461 464 465 465 470 475 479 482 483 482 480 476 472 467 460 452 442 436 430 423 418 421 429 434 440 449 460 468 474 480 489 497 504 508 508 499 483 466 451 438 424 411 404 401 394 386 377 371 365 360 353 347 342 337 332 326 323 318 315 315 316 317 315 317 317 315 312 306 299 293 287 282 284 289 295 300 308 319 323 321 320 318 316 316 316 313 309 308 308 309 311 309 307 306 306 304 301 296 292 291 291 287 284 285 286 284 281 278 275 269 264 259 254 248 241 234 231 231 232 230 228 226 222 219 219 221 224 226 228 230 233 234 235 236 237 234 231 236 240 247 258 267 274 281 287 291 294 294 293 289 282 274 268 263 259 259 259 256 251 244 237 235 242 253 264 274 285 293 299 299 293 291 289 289 289 289 291 292 292 291 291 290 288 286 282 276 270 267 268 268 268 268 267 263 258 256 256 257 256 256 253 252 248 243 238 232 230 235 243 250 257 261 267 276 284 288 287 285 283 281 278 275 268 262 258 254 249 243 236 229 222 218 216 215 219 223 225 222 215 208 203 203 202 201 201 201 200 199 199 198 196 196 196 196 196 196 196 199 202 206 212 219 224 221 215 209 203 196 188 180 180 184 185 183 182 180 180 184 189 195 200 198 187 175 168 169 173 181 188 192 193 196 198 198 192 184 177 171 163 156 150 150 156 161 162 162 161 160 160 162 163 164 165 164 164 164 164 164 164 163 162 162 166 171 175 179 184 189 194 199 202 204 203 198 191 181 170 155 135 115 109 107 106 105 104 103 102 96 80 67 66 66 66 66 66 66 66 66 66 66 66 66 66 66 66 66 69 77 81 83 85 85 85 86 86 86 87 88 89 94 100 108 117 129 143 154 164 169 170 170 167 163 158 152 146 142 138 136 136 138 142 139 132 124 119 116 115 114 112 111 112 111 108 106 105 105 105 105 105 105 105 105 105 105 106 109 113 117 119 121 122 123 123 123 123 122 121 120 119 117 116 116 117 117 117 117 117 117 117 117 117 117 117 117 119 120 122 122 123 123 123 123 124 124 124 124 124 124 124 124 125 125 125 126 126 126 126 126 126 126 126 128 131 136 139 139 140 143 150 158 169 181 192 201 210 218 227 234 235 227 232 251 268 280 290 294 298 301 300 295 288 287 288 281 273 263 252 241 233 230 230 229 232 234 231 229 228 231 233 231 229 231 234 240 249 258 267 275 281 286 294 303 311 318 325 333 340 348 354 354 351 348 345 340 338 335 335 334 331 329 323 314 309 305 300 302 310 311 310 306 301 299 308 317 326 332 330 321 315 316 323 325 321 316 307 304 312 314 317
422 427 433 439 446 453 459 463 468 471 475 481 484 485 483 480 476 472 468 463 458 454 453 450 446 442 438 433 430 425 418 414 415 422 427 431 435 441 448 457 464 470 477 482 488 493 497 502 505 506 509 511 512 514 519 522 525 528 530 531 533 535 535 535 535 533 531 531 532 531 533 537 539 541 543 544 544 546 550 552 552 553 554 554 556 557 558 559 560 560 560 558 556 554 551 546 543 542 538 535 533 532 533 532 530 527 524 522 518 514 511 506 501 498 493 487 483 479 475 472 469 466 462 457 453 448 441 436 433 431 427 427 431 437 443 445 445 441 439 437 433 429 424 423 426 430 434 438 440 444 448 453 459 463 468 473 474 474 475 477 477 476 476 476 477 476 471 461 451 447 451 455 458 460 463 468 473 476 478 480 479 477 473 469 465 458 450 438 427 421 417 417 424 431 436 443 453 463 471 477 484 494 502 509 513 509 495 477 460 446 433 418 408 404 400 391 382 375 370 364 361 357 351 347 343 338 333 327 321 316 315 313 312 312 312 313 312 309 304 297 291 284 280 283 289 295 300 308 318 322 321 318 315 313 313 312 310 309 310 311 312 313 312 312 312 311 309 306 300 295 295 297 293 290 291 292 291 288 286 282 276 270 264 258 253 245 238 236 236 236 235 232 229 225 221 218 218 220 223 224 226 228 229 231 233 233 229 228 233 237 245 255 262 270 277 283 288 291 292 290 285 277 269 264 260 256 256 256 253 248 241 234 233 242 253 263 273 284 292 298 297 293 290 288 287 287 289 292 293 293 293 292 290 288 285 281 276 270 265 263 263 263 263 262 259 255 252 251 252 252 252 250 249 245 242 237 231 229 234 242 248 254 259 264 272 281 285 285 284 282 280 278 274 267 263 260 255 249 244 237 230 222 218 215 214 217 222 224 220 213 205 203 203 202 201 201 201 200 199 199 198 196 196 196 196 196 196 196 199 201 205 212 218 221 217 211 205 199 193 185 177 176 180 181 180 179 178 177 180 187 193 197 194 184 173 166 168 173 180 187 191 193 195 199 199 194 186 179 172 166 161 156 154 159 162 163 162 161 160 162 165 166 167 168 168 168 167 166 166 166 166 164 164 169 174 178 183 188 194 199 203 206 208 206 200 191 181 169 152 132 113 107 105 105 105 105 104 102 97 83 70 66 66 66 66 66 66 66 66 66 66 66 66 66 66 66 66 69 77 80 83 84 84 85 86 85 86 86 87 88 92 98 105 113 126 140 153 164 169 170 169 167 163 158 151 146 142 138 136 137 143 147 143 134 127 122 117 114 111 109 108 109 108 106 105 105 105 105 105 105 105 105 105 105 105 105 108 111 115 117 119 119 120 121 121 121 120 119 118 116 114 114 115 117 117 117 117 117 117 117 117 117 117 117 118 120 121 122 122 123 123 123 123 123 123 123 124 124 124 124 124 125 125 125 125 125 125 125 125 125 125 126 128 133 139 144 144 143 142 146 153 162 175 186 196 204 211 219 224 223 215 225 245 263 277 289 296 300 302 301 296 290 286 283 276 268 258 249 240 234 229 227 225 228 230 229 227 226 227 229 229 228 230 233 240 250 260 268 276 282 288 295 305 313 319 325 332 339 346 352 352 349 347 343 340 338 337 335 335 331 329 324 314 305 300 297 300 306 308 304 300 294 295 303 313 322 326 326 319 313 313 320 321 317 311 302 300 306 311 318
421 426 432 438 444 448 453 459 465 470 475 480 482 483 482 480 476 472 468 463 457 451 450 447 444 440 437 433 429 424 418 413 415 421 426 431 435 441 447 457 464 471 477 483 489 494 498 502 505 506 508 510 511 514 518 522 525 527 530 531 533 535 535 535 534 532 530 529 529 529 531 535 537 538 539 539 541 544 547 549 550 551 553 553 555 556 557 559 561 561 561 559 557 555 551 547 543 542 538 536 534 535 535 534 531 528 525 523 519 514 511 508 504 501 495 489 485 482 478 474 471 468 465 462 457 450 443 437 435 433 428 424 427 433 440 442 442 439 437 434 431 427 421 421 426 428 432 436 439 442 446 451 457 461 465 470 471 472 476 479 477 475 475 476 478 478 475 466 455 447 446 450 452 455 461 466 470 473 475 475 476 474 471 466 462 454 446 435 421 413 414 420 427 433 438 447 456 465 473 479 489 499 507 513 516 508 488 470 454 440 427 413 406 404 399 389 377 369 367 364 363 362 356 350 346 341 337 331 323 317 315 312 309 308 307 308 308 305 301 295 288 281 279 283 288 295 300 308 316 320 319 314 312 311 311 310 310 310 312 314 316 316 316 317 317 315 314 311 305 299 299 302 298 296 297 298 297 295 293 288 282 275 268 261 255 249 243 242 241 240 239 235 232 228 225 220 216 215 219 221 222 224 226 228 229 230 226 224 230 234 243 250 256 265 273 278 284 288 289 286 280 272 265 260 256 254 254 254 251 246 239 231 232 241 252 262 272 281 289 293 294 292 288 286 284 286 291 293 294 295 295 293 291 288 285 280 275 269 265 260 258 258 258 257 256 253 249 247 247 248 248 246 245 243 239 235 229 227 232 240 246 252 256 261 268 275 281 283 283 282 279 277 274 268 265 262 256 250 244 237 230 223 218 215 214 216 220 222 218 211 203 203 203 202 201 201 201 200 199 199 198 196 196 196 195 195 195 196 199 201 205 211 216 218 213 207 201 196 190 183 175 172 175 176 176 176 176 174 177 184 190 194 190 181 170 164 166 172 179 186 190 190 194 199 199 195 187 181 173 168 164 161 159 161 162 163 162 161 162 164 167 168 169 170 171 171 170 169 169 169 168 167 167 171 176 181 186 193 199 204 207 209 210 207 200 190 179 167 151 130 113 107 105 105 106 107 104 101 94 82 72 68 66 66 66 66 66 66 66 66 66 66 66 66 66 66 66 70 77 80 82 84 84 85 84 84 85 85 86 88 91 95 102 110 121 137 150 162 168 169 169 166 162 157 150 145 141 138 135 139 148 150 145 137 129 124 118 114 110 106 106 106 106 105 105 105 105 105 105 105 105 105 105 105 105 105 106 109 113 115 116 117 117 118 118 118 118 116 115 113 113 114 118 119 119 119 119 119 119 118 117 117 118 118 120 121 122 122 122 122 123 123 123 123 123 123 124 124 124 124 124 124 124 125 125 125 125 125 125 125 125 126 130 136 143 149 149 148 145 145 150 161 171 182 189 196 202 209 211 209 205 220 240 257 273 287 298 304 305 304 299 293 287 283 275 265 257 249 243 236 229 223 222 224 227 226 224 223 225 227 227 227 230 234 238 248 259 268 276 282 288 295 304 312 319 326 333 341 347 350 349 347 344 341 339 338 337 335 335 331 329 324 314 303 296 294 299 303 303 299 294 288 292 299 309 317 320 320 316 311 311 316 316 312 307 300 298 302 312 322
421 426 432 438 442 444 450 458 466 472 477 481 482 483 482 481 478 474 470 465 457 451 449 445 442 438 435 431 428 424 417 412 414 420 426 430 435 441 447 456 464 471 476 483 489 494 499 503 505 505 508 509 509 512 518 522 524 527 530 531 533 535 535 535 534 532 530 528 528 528 530 534 536 536 537 538 539 543 545 547 549 551 553 553 554 555 556 558 561 562 561 559 558 556 552 547 543 541 538 537 537 537 536 535 532 528 525 523 519 514 512 510 508 503 498 492 489 486 482 478 473 471 468 464 459 451 444 439 436 433 429 424 423 428 436 438 439 437 436 432 429 425 420 421 426 428 431 434 437 441 446 450 455 460 464 467 468 470 477 480 477 475 473 475 479 480 477 470 459 449 445 446 448 453 459 464 467 469 471 473 473 472 469 464 458 450 441 431 418 412 416 422 429 434 440 449 458 466 474 481 492 502 510 517 517 503 482 463 449 436 422 410 404 403 397 387 374 365 364 364 365 364 359 352 348 342 337 332 324 318 316 314 309 304 303 304 304 302 298 293 286 279 279 283 288 294 300 306 314 318 315 310 310 312 311 310 310 310 314 318 320 319 319 320 319 318 316 313 308 303 303 304 302 300 302 302 302 300 297 292 286 279 271 263 255 251 247 246 245 243 240 236 234 230 226 221 217 214 216 219 219 220 222 225 227 227 224 221 226 232 241 246 252 262 269 275 280 285 286 283 276 268 263 258 253 253 253 252 249 244 237 230 231 240 251 261 270 279 285 289 291 290 286 283 281 286 291 293 295 295 295 294 291 288 284 279 273 268 264 259 256 256 255 254 253 252 248 245 245 245 245 244 243 241 237 233 228 226 230 238 245 250 254 259 264 271 278 281 281 282 279 277 274 268 266 263 257 251 245 238 230 223 218 214 214 215 219 220 216 209 203 203 203 202 201 201 201 200 199 199 198 196 196 196 195 195 195 196 199 201 205 210 215 216 211 205 200 194 188 181 175 170 172 173 174 174 174 173 175 181 188 191 187 178 169 163 164 171 178 184 188 188 193 198 199 195 188 182 174 169 166 163 161 161 162 163 163 163 164 166 169 170 171 172 173 174 174 173 171 171 170 169 169 173 177 183 189 196 201 206 209 210 210 207 198 188 177 166 152 133 115 109 106 105 108 109 105 99 91 79 71 68 67 66 66 66 66 66 66 66 66 66 66 66 66 66 66 70 77 80 82 84 84 85 84 84 84 85 85 86 89 93 99 107 116 133 148 159 167 169 169 165 160 155 149 144 141 138 135 141 149 150 146 138 131 125 120 115 111 106 106 105 105 105 105 105 105 105 105 105 105 105 105 105 105 105 106 108 111 114 115 115 116 116 116 116 115 113 112 112 115 118 119 120 120 120 120 120 120 120 119 119 120 120 121 121 122 122 122 122 123 123 123 123 123 123 124 124 124 124 124 124 124 125 125 125 125 125 125 125 125 126 131 137 146 152 153 150 147 145 150 160 169 178 183 188 193 197 199 197 201 218 237 253 270 285 298 305 308 306 302 295 287 284 276 267 259 252 245 237 230 222 221 222 225 224 222 222 224 227 227 226 230 233 236 244 257 266 274 281 288 294 302 311 319 328 336 344 348 349 347 345 342 340 339 338 336 335 335 331 329 324 313 302 294 292 298 301 300 297 292 287 290 297 307 315 317 317 314 310 311 314 314 310 305 300 298 302 314 324
420 426 431 436 440 442 450 459 467 473 478 482 484 484 483 481 479 475 470 465 458 452 449 445 442 438 435 431 428 424 418 412 414 419 425 430 435 440 447 455 463 471 476 483 489 494 499 502 505 505 507 508 509 512 517 521 524 526 529 531 533 535 535 535 534 532 530 527 527 527 530 532 534 535 536 538 539 542 544 546 549 551 552 553 554 554 556 558 561 562 561 560 559 556 552 548 544 541 539 539 539 539 537 535 532 529 526 523 519 516 515 513 510 504 499 495 491 488 485 481 475 473 470 466 460 453 445 440 438 435 431 424 421 424 430 433 436 436 435 431 428 423 419 420 425 428 430 433 437 440 444 449 454 458 461 462 464 470 478 480 477 474 472 474 479 481 478 472 462 451 444 444 446 452 457 461 464 466 468 470 470 470 467 462 454 447 437 426 414 412 417 423 430 435 441 450 459 466 472 481 493 503 511 517 515 498 476 459 445 432 418 408 404 400 394 383 371 362 362 364 366 365 360 353 347 342 337 331 324 320 320 316 311 305 301 300 300 298 296 291 284 278 279 283 288 294 299 305 311 313 310 308 310 312 310 309 309 311 316 321 323 321 322 322 321 320 318 315 310 306 306 307 305 304 306 306 306 304 301 296 290 282 273 264 257 253 251 248 247 246 242 238 235 231 227 223 218 214 214 216 218 219 220 222 225 225 221 219 224 232 240 242 248 259 267 273 278 282 283 280 272 266 261 256 252 252 253 251 248 243 236 228 230 240 250 259 268 276 282 286 288 287 284 281 279 285 291 293 295 296 296 294 291 288 283 278 273 268 264 259 257 255 253 252 251 250 247 244 243 243 243 242 241 239 236 232 227 225 230 236 243 249 253 257 262 268 274 278 280 280 279 277 274 270 267 263 257 252 245 238 230 223 218 214 214 215 219 220 215 208 203 203 203 203 202 201 201 200 199 199 197 196 196 195 195 195 195 195 198 201 204 209 214 214 210 204 199 193 187 181 174 169 168 170 171 172 172 171 173 180 187 190 186 176 167 161 163 170 176 183 187 187 191 197 199 195 189 182 175 170 166 164 162 162 162 163 164 165 166 167 169 171 172 174 176 177 178 177 174 173 171 170 170 175 179 185 192 198 203 207 210 211 211 207 198 188 177 168 156 136 116 109 106 105 109 110 105 100 92 79 71 68 68 66 66 66 66 66 66 66 66 66 66 66 66 65 65 70 77 79 82 84 84 85 84 83 84 83 83 85 89 92 97 104 113 129 144 156 165 169 167 162 158 153 148 144 141 137 135 142 150 150 146 139 132 125 120 115 110 106 105 105 105 104 104 105 105 105 105 105 105 105 105 105 105 105 105 107 110 112 113 114 114 114 114 114 114 112 112 114 117 119 119 120 121 121 121 121 121 121 120 120 121 121 122 122 122 122 122 122 122 122 122 123 123 123 123 123 124 124 124 124 124 124 125 125 125 125 125 125 125 126 132 139 148 154 156 153 149 145 150 158 166 174 178 181 185 189 189 189 199 217 235 252 268 282 298 306 310 308 303 296 288 283 276 267 259 252 245 237 229 222 221 221 223 223 221 221 224 226 225 225 230 233 236 242 255 265 274 281 287 293 302 312 320 329 338 345 349 349 347 344 341 339 338 337 336 335 334 331 329 322 312 302 293 289 297 300 299 295 290 285 290 297 306 314 316 316 313 310 309 312 312 308 303 299 297 302 314 325
419 424 429 432 435 439 450 459 468 475 481 485 487 487 486 483 480 476 471 465 460 454 451 447 443 440 435 432 429 426 420 414 412 416 423 429 434 439 445 453 462 471 476 483 489 494 498 502 504 505 506 506 508 511 516 519 522 526 529 530 533 534 534 534 532 531 529 527 526 526 528 529 531 534 535 537 539 541 544 546 548 550 550 551 552 554 556 558 561 563 563 563 562 559 554 549 544 543 542 542 541 541 539 537 533 529 526 523 520 519 518 516 512 506 502 499 494 492 489 483 478 477 473 468 462 455 448 443 441 437 433 427 420 419 422 425 428 431 432 431 426 421 418 419 424 427 429 432 435 437 439 445 450 454 455 455 461 469 478 480 477 474 471 473 479 481 479 474 467 456 445 443 444 449 453 457 460 462 464 465 466 466 463 457 450 443 432 418 409 411 418 425 431 435 442 452 459 464 470 480 493 502 511 516 508 488 468 451 439 427 414 406 402 395 386 374 365 358 360 364 366 366 360 352 346 341 334 328 324 323 325 321 314 308 302 297 295 293 291 287 282 277 279 283 287 292 297 302 305 306 303 305 309 310 309 309 310 315 320 323 325 325 327 327 326 324 322 318 315 312 312 312 310 309 311 312 312 310 308 303 295 286 276 267 262 258 255 252 252 250 246 242 238 233 229 225 220 215 212 213 214 215 215 217 220 220 217 217 223 230 237 238 242 254 263 269 274 277 278 274 268 262 258 254 251 250 251 249 246 241 234 225 228 238 248 257 265 271 276 280 282 282 280 277 277 285 291 293 295 296 296 295 292 287 283 279 274 270 266 262 259 255 252 250 248 246 244 241 239 239 240 239 238 236 233 229 225 224 228 232 238 245 250 253 257 262 268 273 276 278 278 277 275 273 270 265 259 253 246 239 230 223 218 215 214 214 217 218 214 206 203 203 203 203 202 201 201 199 199 198 197 196 196 195 195 195 195 195 198 200 204 209 212 212 207 202 196 191 185 179 174 167 165 165 167 169 168 167 169 178 184 186 182 172 163 158 160 168 174 180 184 183 188 196 199 196 190 182 175 170 167 165 163 163 163 164 166 166 168 169 170 172 174 177 180 180 181 180 178 177 175 173 173 178 183 190 196 201 205 209 211 211 211 205 198 190 181 170 159 139 118 110 107 106 111 111 105 102 96 81 71 69 68 66 66 66 66 66 66 66 66 66 66 66 66 65 65 72 78 79 81 83 84 85 83 82 82 82 82 83 88 91 95 101 110 122 138 151 160 164 163 158 154 150 146 143 140 136 135 144 150 151 145 139 132 125 119 114 109 105 105 105 104 104 104 105 105 105 105 105 105 105 105 105 105 105 105 106 108 110 111 111 111 112 112 113 113 115 115 117 119 119 120 120 121 121 121 121 121 121 121 121 121 122 123 123 123 122 122 122 122 122 122 123 123 123 123 123 124 124 124 124 124 124 124 124 125 125 125 125 125 128 135 143 151 157 159 156 152 147 148 153 160 167 171 174 176 177 178 182 199 216 233 249 265 280 297 306 312 309 304 296 288 282 274 266 258 250 243 235 228 222 220 221 221 221 221 221 222 224 223 225 230 232 234 242 256 268 277 283 289 296 303 313 321 330 340 347 349 348 347 344 341 339 336 335 335 334 332 330 327 320 309 300 289 287 295 298 296 292 286 283 289 296 305 312 314 314 313 310 307 309 309 306 301 296 296 303 315 326
416 421 425 428 432 439 451 460 468 477 485 490 491 490 488 485 481 476 471 465 460 455 453 448 443 439 435 432 429 427 422 416 411 414 420 427 433 438 444 452 461 470 476 482 488 493 498 501 503 504 504 504 506 510 515 518 522 526 529 530 532 533 532 532 531 529 528 526 525 525 525 525 529 532 534 536 538 541 545 546 547 548 549 549 551 553 555 557 561 565 568 567 565 562 557 551 545 543 545 544 543 542 540 537 534 530 527 524 523 522 521 517 513 509 507 502 497 496 492 486 482 481 476 470 465 459 452 447 444 440 435 429 423 418 417 419 421 426 428 428 426 421 417 418 423 425 427 430 432 433 434 440 446 449 448 452 460 468 474 476 475 471 469 472 478 481 479 475 469 460 449 442 442 446 450 453 455 457 459 461 461 461 458 453 446 439 428 414 407 412 418 425 431 435 442 450 456 460 466 476 488 499 509 512 498 477 459 444 432 421 410 405 398 388 377 366 358 355 358 362 364 365 360 350 344 338 331 326 324 327 330 326 317 311 304 297 292 290 288 284 280 276 278 282 285 289 294 299 300 299 299 302 305 307 308 309 312 317 322 325 326 327 330 332 332 330 327 323 320 319 319 318 316 313 314 316 316 315 313 307 299 290 280 272 268 263 259 256 256 254 250 245 240 235 231 227 223 218 214 212 211 211 211 213 214 215 214 215 222 229 234 234 236 248 258 265 270 272 272 269 264 259 255 250 248 249 249 247 245 239 231 223 226 237 247 255 263 267 272 275 278 277 275 274 277 284 290 293 295 297 297 297 293 289 285 281 277 273 270 266 262 258 254 251 247 244 241 239 237 236 237 236 235 233 229 226 223 223 227 230 234 240 246 249 253 257 262 266 271 274 276 277 276 276 272 266 261 254 247 239 231 224 218 215 213 213 217 217 212 205 204 203 203 203 202 202 201 200 198 198 197 196 196 195 195 195 195 195 197 200 203 208 210 209 204 199 194 189 183 177 173 167 163 162 164 166 165 164 166 173 179 182 177 168 161 156 157 165 171 176 179 180 185 194 199 197 191 183 176 171 169 167 165 164 164 165 166 167 169 170 172 174 177 180 183 183 183 182 181 180 178 176 176 181 187 194 199 204 208 212 212 212 211 207 203 197 186 172 159 140 120 112 108 107 110 110 105 103 98 84 73 69 69 67 66 66 66 66 66 66 66 66 66 66 66 66 66 73 78 79 81 83 84 85 83 82 82 81 81 82 86 90 93 98 106 115 130 142 152 156 155 153 149 146 143 142 139 135 135 144 150 150 145 137 131 124 118 113 108 105 105 105 104 104 104 105 105 105 105 105 105 105 105 105 105 105 105 105 106 107 108 108 108 111 113 114 116 118 118 119 120 120 120 120 121 121 121 121 121 121 121 121 122 122 122 122 122 122 122 122 121 121 121 122 122 122 122 123 123 123 123 123 123 123 124 124 124 125 125 125 125 129 138 146 154 160 162 160 155 149 147 150 153 160 163 166 168 169 172 181 198 215 231 246 263 277 295 305 311 308 303 296 287 281 276 269 259 251 243 234 227 221 220 220 220 220 220 220 222 222 222 226 229 232 235 246 261 273 282 287 293 301 307 315 324 332 341 347 349 348 347 344 342 339 335 331 333 331 329 327 324 317 306 297 286 284 292 295 292 288 283 281 288 295 302 309 312 313 313 310 306 306 307 304 300 295 294 302 314 326
414 418 421 426 432 440 451 460 469 479 488 495 497 495 491 488 483 476 471 465 459 454 452 446 442 438 434 431 428 426 422 417 410 412 419 426 432 438 444 451 461 470 476 482 488 492 496 499 501 502 503 503 506 511 515 519 523 526 529 530 531 531 531 530 530 529 527 526 524 523 522 523 527 530 532 534 536 540 545 546 547 547 547 548 550 552 554 558 562 567 571 570 569 565 560 553 546 545 547 546 545 543 541 539 535 530 527 526 526 525 522 519 515 513 510 505 501 500 495 489 486 483 478 472 468 464 459 454 448 443 437 431 427 421 417 416 417 421 423 425 425 421 417 417 420 422 424 425 427 428 430 436 441 443 444 451 459 465 469 471 470 468 467 471 478 480 480 475 471 464 453 443 440 442 446 448 450 453 455 456 457 456 454 449 443 436 426 411 405 412 418 425 430 434 441 446 451 456 464 474 486 498 506 504 487 467 450 437 426 414 406 402 393 380 369 360 353 352 356 359 362 362 357 347 341 333 327 324 325 331 336 331 321 313 306 298 292 290 287 284 279 275 276 279 283 286 291 295 294 293 295 297 300 304 306 308 312 317 321 325 327 329 332 335 336 335 332 327 325 324 323 322 320 318 317 318 319 318 316 309 301 292 283 278 272 266 263 261 260 256 251 245 240 236 233 230 226 222 218 214 210 209 209 210 211 212 212 215 221 228 232 230 232 243 253 261 266 267 267 265 261 257 252 247 246 247 247 246 243 237 228 222 224 235 246 254 260 265 270 272 274 271 270 272 276 283 290 293 295 298 298 298 295 291 287 283 280 277 273 268 265 261 257 254 250 246 243 239 236 234 233 232 232 230 227 224 221 221 225 227 230 235 241 246 249 253 257 261 265 268 272 276 278 278 274 268 263 256 249 241 233 225 219 215 213 213 215 214 210 205 206 205 205 204 203 202 202 200 199 198 198 196 196 195 195 195 195 195 197 198 202 206 208 207 202 197 192 187 182 176 171 167 163 161 161 162 162 161 163 168 174 177 172 165 159 153 154 162 168 171 173 175 181 190 197 198 191 184 176 172 170 168 166 165 165 166 167 168 169 171 173 176 180 184 185 186 185 184 182 181 179 178 179 185 191 196 201 206 212 215 213 213 212 211 208 202 189 173 159 140 121 114 110 108 111 109 105 102 98 86 74 69 69 68 67 66 66 66 66 66 66 66 66 66 66 66 67 74 78 79 80 83 83 84 84 82 82 81 81 81 84 88 92 96 101 110 122 132 141 146 147 146 143 142 141 140 138 134 135 145 150 148 142 134 128 122 115 111 107 104 104 104 104 104 104 105 105 105 105 105 105 105 105 105 105 105 105 105 105 106 106 107 109 111 114 116 118 120 120 120 120 120 121 121 121 121 121 121 121 121 122 122 122 122 122 122 122 121 121 121 121 121 121 122 122 122 122 123 123 123 123 123 123 123 124 124 124 125 125 125 125 131 140 148 156 163 165 162 157 152 151 152 153 157 160 162 165 167 171 181 197 214 229 244 261 275 292 303 308 305 300 292 284 281 280 274 263 255 246 237 228 221 219 218 218 218 219 220 220 221 222 226 229 231 236 248 264 276 283 289 296 305 313 321 329 337 344 348 349 348 347 346 343 339 333 327 328 328 326 323 320 314 304 295 283 281 289 292 288 284 280 280 287 293 299 306 311 313 312 309 305 304 305 303 299 294 294 301 313 326
412 415 420 427 434 441 451 461 470 480 491 499 502 500 495 490 483 476 470 463 458 452 450 444 439 435 433 430 427 425 421 416 409 411 419 425 432 438 444 451 461 469 475 481 487 491 495 497 499 500 500 501 506 511 516 520 524 527 529 529 530 531 530 529 528 527 526 524 523 522 520 521 525 527 529 533 536 540 543 545 546 545 545 546 548 552 555 558 564 569 571 571 571 567 562 555 549 548 548 547 546 544 542 539 535 531 528 528 528 527 523 520 516 515 513 508 506 503 498 492 489 486 481 477 473 469 465 459 453 447 440 434 432 426 421 416 415 416 417 420 421 419 415 416 418 419 420 421 421 424 427 431 436 437 441 448 456 462 464 464 465 464 466 471 477 480 479 475 471 466 457 445 438 438 442 444 446 448 450 452 453 452 450 446 440 432 423 409 403 411 418 424 429 434 438 442 447 456 466 476 488 499 502 495 478 457 441 429 419 410 403 397 386 373 362 354 348 348 352 355 358 358 353 344 336 328 323 323 327 335 342 336 323 313 306 299 293 290 286 283 277 275 274 276 280 283 287 290 289 289 290 292 297 301 303 305 309 312 316 322 326 329 332 336 338 339 336 331 329 328 326 325 324 322 321 320 319 317 313 306 298 291 285 280 275 270 268 264 261 257 250 244 240 237 235 232 229 225 221 217 213 209 208 208 209 210 211 214 219 226 229 227 228 237 247 256 261 263 262 260 258 254 249 244 244 246 245 244 241 234 225 220 223 233 243 251 258 264 268 270 269 267 267 271 275 282 289 293 295 297 298 299 296 291 286 284 282 279 276 271 267 263 260 257 253 250 246 242 237 233 231 230 229 227 225 222 221 221 223 225 228 231 236 241 246 249 252 256 259 261 266 274 278 280 277 270 265 258 251 243 235 227 220 215 213 212 211 211 208 208 209 208 207 205 204 203 202 201 200 199 198 196 196 195 194 194 194 194 196 197 201 205 206 204 201 197 191 186 180 176 172 169 165 161 160 159 158 158 159 164 169 171 168 162 157 151 152 159 164 167 169 171 179 186 194 198 191 184 177 173 171 169 167 166 166 167 168 169 170 172 175 178 182 186 188 188 188 185 184 183 181 180 183 189 194 198 202 208 214 216 214 213 214 215 212 204 189 173 159 139 122 116 113 112 111 108 104 100 95 87 76 70 70 69 67 66 66 66 66 66 66 66 66 66 66 66 67 74 78 78 80 82 83 84 85 83 82 81 81 81 83 87 91 94 98 106 115 124 131 136 138 139 139 139 140 139 137 134 136 144 149 145 138 131 125 119 113 109 106 104 103 103 104 104 104 105 105 105 105 105 105 105 105 105 105 105 105 105 105 106 106 108 110 112 115 117 119 120 120 120 120 121 121 121 121 121 121 121 121 121 121 121 121 121 121 121 121 121 121 120 120 120 120 121 121 121 122 123 123 123 123 123 123 123 123 123 124 124 124 124 126 132 142 150 158 165 166 164 158 154 155 158 160 161 164 166 169 172 174 180 195 213 227 241 258 273 288 300 304 301 295 287 282 281 281 278 266 257 248 238 230 221 218 216 216 217 218 219 219 221 223 226 228 230 237 250 266 277 284 291 298 307 316 325 332 340 346 348 349 348 347 345 341 337 330 323 324 324 322 319 316 310 302 293 282 279 286 288 285 281 278 279 285 292 298 306 311 313 312 309 304 302 302 301 298 293 293 300 311 326
411 414 421 429 435 442 452 462 471 481 492 501 506 505 499 492 483 475 468 462 456 451 448 442 437 433 431 429 426 423 420 414 408 411 419 426 432 437 443 450 459 466 472 478 484 489 493 496 496 497 498 500 506 510 516 520 524 527 529 529 529 529 529 529 527 526 525 524 523 521 520 520 522 524 528 532 535 538 541 542 544 543 543 545 548 552 555 558 564 570 571 571 571 567 562 555 551 550 549 547 547 545 542 539 535 532 531 530 529 527 525 521 518 517 515 511 510 507 501 495 493 489 486 481 477 473 468 462 456 450 443 438 435 430 425 420 414 413 414 415 417 416 413 413 415 416 416 417 419 422 424 426 429 433 439 446 452 457 459 459 460 460 464 470 476 479 478 474 471 468 461 450 438 435 438 440 442 444 446 447 448 448 446 442 435 428 418 406 400 409 418 423 428 431 435 441 449 459 470 480 490 499 498 486 469 448 432 421 413 406 399 392 380 367 357 350 345 345 347 350 353 353 348 340 331 321 319 323 329 339 347 339 323 313 306 300 294 291 287 282 277 275 274 274 277 280 283 286 285 284 286 289 294 296 299 302 304 306 312 318 323 326 329 334 339 342 340 334 332 330 329 327 326 325 323 321 317 314 307 301 295 290 286 282 279 275 271 265 260 256 250 246 243 240 238 234 230 226 222 219 215 210 208 207 207 208 210 213 218 223 226 225 225 231 241 249 255 258 257 256 255 251 246 241 241 243 242 242 238 232 223 220 223 232 241 249 257 262 266 267 265 263 266 271 276 282 289 293 295 297 298 299 295 288 286 284 283 281 278 274 270 266 262 259 256 253 250 246 242 237 233 229 228 225 223 221 220 220 222 224 226 227 230 236 241 244 248 252 254 256 261 270 279 284 280 272 266 260 253 245 237 229 221 215 214 212 210 209 209 211 212 212 210 207 206 204 203 203 201 200 198 197 196 195 194 194 194 194 196 196 199 203 204 202 200 196 190 185 180 177 175 172 167 164 160 158 156 155 156 160 164 167 164 160 155 149 149 156 162 165 166 169 176 183 191 195 191 184 178 173 171 169 167 167 167 168 169 170 172 173 177 181 185 189 191 191 190 187 185 184 182 183 187 192 196 200 204 209 214 215 214 215 216 218 214 205 189 173 158 139 122 116 115 113 111 108 104 98 92 87 78 71 70 69 68 67 66 66 66 66 66 66 66 66 66 66 66 71 77 78 79 81 82 83 85 84 82 81 81 81 81 85 90 93 96 102 110 117 124 128 131 133 134 136 137 137 136 133 135 142 146 141 134 129 122 116 110 107 105 104 103 103 104 105 105 105 105 105 105 105 105 105 105 105 105 105 105 105 105 106 106 109 111 113 115 117 118 121 121 121 121 121 121 121 121 121 121 121 121 121 121 121 121 121 121 121 121 120 120 120 119 119 119 121 121 121 122 122 122 122 122 122 122 123 123 123 123 124 124 124 127 134 143 152 160 166 166 164 160 158 159 162 166 168 170 172 176 178 181 182 192 210 225 239 256 270 284 295 299 296 290 284 281 281 281 280 268 259 249 238 230 221 219 216 215 216 218 218 220 222 223 225 228 228 237 251 267 277 284 291 300 309 318 327 333 340 347 348 349 348 347 343 338 334 327 320 319 319 318 315 312 307 300 291 281 277 283 285 282 279 276 278 285 292 299 306 310 312 312 309 304 300 300 300 296 292 292 298 310 325
410 414 421 429 435 442 453 463 471 482 492 501 506 506 500 491 482 474 466 460 454 450 447 442 437 433 430 427 425 422 418 412 407 411 418 425 429 434 440 447 455 462 469 475 482 487 492 494 494 494 496 499 505 510 516 520 524 527 528 528 528 528 528 528 526 523 523 523 522 521 519 518 520 522 527 531 534 537 538 540 540 540 542 545 548 551 554 558 562 568 571 571 569 566 560 555 553 551 549 548 547 546 543 539 535 533 532 531 530 528 526 522 521 520 516 514 513 511 505 499 496 494 490 485 480 475 471 465 458 452 445 440 437 432 427 423 417 412 412 412 413 412 410 410 412 413 413 415 418 419 420 422 425 430 436 442 447 451 451 454 455 456 462 469 474 477 477 474 471 469 464 454 441 433 433 436 438 440 442 443 444 443 441 437 431 423 414 401 398 407 415 421 426 429 434 442 452 463 473 482 492 499 495 480 461 441 426 414 407 402 394 385 373 360 352 346 342 340 342 344 345 346 342 334 324 317 318 324 331 342 349 339 323 313 306 301 297 293 289 285 279 275 273 273 273 276 279 281 282 280 282 287 289 292 296 298 298 301 308 314 318 322 326 332 340 345 342 336 333 332 331 329 327 326 324 321 316 312 306 301 296 292 289 285 280 277 271 266 262 258 254 250 246 245 243 238 233 229 225 222 218 213 209 207 207 208 209 211 216 221 224 222 222 227 235 244 250 253 253 253 252 248 243 239 239 239 239 240 236 229 221 220 223 230 239 247 255 260 264 264 262 261 265 271 277 283 290 294 295 297 297 296 291 286 286 286 285 283 280 277 273 269 265 262 259 256 254 250 246 241 236 231 229 225 223 220 219 219 220 222 224 225 227 230 236 239 243 247 249 251 257 267 279 287 283 275 268 261 254 247 239 230 223 218 216 213 211 211 212 213 215 215 213 210 207 206 205 204 203 202 200 198 196 196 194 194 194 194 195 195 199 201 202 201 199 194 189 186 183 180 177 174 170 166 163 159 156 153 154 156 160 163 160 156 152 147 147 154 159 163 164 167 173 181 188 193 191 185 178 173 171 169 168 167 167 168 170 171 172 175 179 184 189 192 194 194 192 189 187 185 184 187 191 194 197 201 205 210 214 214 214 216 219 220 215 206 189 172 157 138 122 117 116 113 111 109 103 96 90 87 81 74 71 70 68 68 67 67 66 66 66 66 66 66 66 66 66 69 74 78 79 80 82 83 85 85 83 82 81 81 81 84 89 91 94 98 105 111 117 121 125 127 129 131 133 134 133 131 134 139 143 137 131 126 119 112 107 105 104 103 104 106 105 105 105 105 105 105 105 105 105 105 105 105 105 105 105 105 106 106 108 110 111 114 115 116 117 119 119 120 121 121 120 121 121 120 120 120 120 120 121 121 120 120 120 120 120 120 119 119 118 119 119 121 121 121 122 122 122 122 122 122 122 122 123 123 123 124 124 124 127 135 144 154 162 167 167 165 164 164 164 166 171 175 177 179 183 186 188 188 191 207 223 237 253 267 280 290 294 293 289 283 280 280 281 281 270 260 249 238 229 221 221 217 214 216 217 218 220 223 223 225 227 227 237 251 267 277 284 291 299 310 319 326 332 340 346 348 349 347 344 340 335 331 324 316 313 314 314 312 309 304 297 290 280 275 280 283 280 277 275 279 285 292 299 306 309 311 311 309 304 300 297 297 294 292 292 297 308 324
409 413 420 427 433 441 452 463 471 479 488 495 500 500 496 488 479 472 465 459 453 449 447 442 437 434 430 427 424 421 417 410 406 409 415 422 427 433 439 445 453 461 468 475 482 486 490 492 492 492 494 499 504 510 516 520 523 526 527 526 526 526 526 526 524 521 521 522 521 520 517 516 518 521 527 530 533 535 536 537 538 538 540 543 546 549 553 555 559 564 568 568 566 563 559 555 554 552 550 548 548 546 543 540 537 535 533 532 530 528 527 524 524 522 519 518 517 515 509 503 500 498 494 489 483 477 473 467 460 454 447 442 438 433 429 425 419 414 413 411 410 408 407 407 408 409 411 413 415 416 416 417 421 426 432 438 442 444 444 448 449 452 460 467 473 476 476 474 471 469 465 457 447 435 429 429 433 435 437 439 439 439 437 433 426 419 409 397 396 404 413 419 424 428 434 443 453 464 475 483 492 498 492 476 458 439 425 412 403 397 388 378 367 356 350 345 340 337 336 337 337 338 336 328 319 315 318 325 333 342 345 336 321 313 307 303 299 295 291 287 282 276 274 273 272 272 275 277 278 277 279 284 285 289 292 293 294 297 303 309 315 319 325 333 342 346 342 338 335 334 332 330 329 327 325 322 318 314 309 304 299 295 291 286 283 279 275 271 266 262 257 253 251 249 246 242 237 232 228 224 220 215 211 207 207 207 208 210 214 219 222 220 220 225 231 238 245 248 250 250 249 245 241 239 238 237 237 237 234 227 220 220 223 229 237 245 253 259 262 261 259 259 264 272 278 285 291 294 295 295 294 291 286 285 287 289 288 285 282 279 276 272 268 265 263 260 257 254 250 245 240 235 233 228 223 220 219 218 219 220 221 222 224 226 230 233 237 241 242 246 256 266 277 287 284 276 269 261 255 248 239 231 224 221 219 215 213 213 214 216 218 219 218 213 210 208 207 206 205 204 202 200 198 196 194 194 194 194 195 195 197 200 200 200 197 194 191 189 187 184 180 177 173 169 165 161 157 153 152 151 156 158 156 153 150 145 146 152 157 161 163 165 170 178 185 190 190 184 178 173 171 169 169 168 168 169 170 171 173 177 182 187 192 196 197 196 194 191 188 186 185 189 193 196 198 202 206 210 213 213 215 219 221 221 215 206 189 170 155 136 122 118 116 114 113 109 103 94 90 87 83 77 71 70 69 69 68 67 67 67 66 66 66 66 66 66 66 67 70 75 78 79 81 82 85 85 84 82 81 81 81 82 88 91 93 96 99 105 110 114 118 122 125 127 129 130 130 129 132 137 139 135 129 123 116 108 104 102 103 105 107 108 106 105 105 105 105 105 105 105 105 105 105 105 105 105 105 105 107 108 110 110 111 113 114 115 116 116 116 117 118 118 118 118 118 118 119 120 120 120 120 120 120 119 119 119 120 119 118 118 118 119 119 121 121 121 122 122 122 122 122 122 122 122 123 123 123 123 124 124 127 136 144 154 164 168 168 168 169 171 170 172 176 181 184 187 191 194 196 198 197 205 220 235 250 264 275 285 289 290 288 284 280 279 281 281 271 260 248 237 228 221 223 217 214 215 217 218 220 223 223 225 226 227 237 251 267 277 284 291 298 310 318 325 331 337 344 347 348 345 341 336 332 327 321 313 307 308 309 308 305 300 295 289 280 275 277 280 278 275 276 279 285 292 298 304 308 309 309 307 304 299 294 294 292 292 292 295 307 321
408 411 417 424 430 438 450 461 468 474 479 484 488 489 488 483 476 471 464 458 452 448 446 441 437 435 431 428 424 420 415 410 406 408 414 422 428 434 440 447 455 462 468 476 481 485 489 489 489 490 493 499 504 510 515 520 522 523 524 524 525 524 524 524 522 520 520 520 520 518 516 515 516 520 526 529 531 533 534 535 535 537 540 542 544 548 551 553 556 561 564 564 562 559 557 555 554 553 551 549 548 546 543 541 538 536 533 532 531 529 528 527 526 524 522 521 520 518 513 507 504 501 497 492 486 479 474 468 462 455 450 445 439 433 429 425 422 418 416 413 411 408 406 406 406 406 408 410 411 412 412 412 416 421 427 433 437 437 440 443 443 448 458 465 472 475 475 473 471 469 465 459 450 440 430 424 426 429 432 434 435 435 432 428 422 415 403 394 395 403 412 419 424 428 434 443 452 464 474 483 491 495 490 474 454 437 424 413 403 395 387 377 367 358 352 348 342 337 334 332 331 330 329 323 316 315 319 326 333 341 340 331 320 313 308 304 300 296 293 289 286 281 278 275 272 271 272 273 273 274 276 279 282 287 289 288 290 294 300 306 314 320 327 335 341 343 342 339 336 334 333 332 331 329 327 325 321 316 311 306 302 299 295 291 288 285 281 276 270 265 259 257 256 253 249 245 240 235 230 226 222 218 213 209 207 207 207 208 211 216 219 217 217 222 228 233 239 243 245 247 246 243 239 238 237 236 236 235 231 225 220 219 223 229 236 244 251 257 259 258 256 257 264 274 280 287 292 293 294 292 290 287 284 285 291 293 291 287 284 281 278 276 272 269 266 264 261 257 253 248 244 238 236 231 226 221 218 217 217 218 219 219 221 223 226 229 231 233 236 244 254 263 274 283 280 273 266 260 254 247 239 231 226 223 222 218 216 216 216 218 220 222 222 217 213 210 208 207 207 207 205 201 200 197 195 193 193 193 195 195 197 199 200 200 198 197 195 193 191 187 184 180 176 171 167 163 159 156 152 150 151 154 153 151 148 144 144 149 155 159 161 163 168 176 183 188 187 183 177 173 172 170 169 169 169 170 171 171 174 178 184 189 195 199 199 198 195 192 189 188 188 191 193 196 199 202 206 210 211 213 217 220 223 221 215 205 188 168 152 135 123 119 117 116 116 111 103 93 90 87 85 81 74 70 70 69 69 68 67 67 66 66 66 66 66 66 66 66 68 72 76 79 80 81 84 85 85 82 81 81 81 82 88 90 93 94 96 100 104 108 112 117 121 123 126 127 126 127 131 135 137 132 126 119 111 105 101 101 104 108 110 110 108 106 105 105 105 105 105 105 105 105 105 105 105 105 105 105 107 108 109 110 111 112 113 114 114 113 113 114 115 115 115 115 114 116 117 119 119 119 119 119 119 119 118 119 119 118 117 117 118 120 120 121 121 121 121 121 121 121 121 122 122 122 122 122 122 122 123 124 127 136 144 154 163 168 169 170 173 175 177 179 181 186 191 195 198 202 204 207 207 207 219 233 247 259 269 279 286 288 288 286 283 279 279 282 271 259 246 235 227 221 224 217 213 214 216 218 220 222 223 224 226 227 237 250 266 277 284 290 297 308 316 324 329 335 341 344 345 342 338 333 328 324 318 311 302 300 303 303 301 298 293 287 279 274 275 277 277 275 276 280 285 292 298 303 306 307 308 306 304 298 293 292 292 292 292 294 305 318
406 408 414 421 427 435 446 457 464 468 471 474 477 480 481 478 473 468 463 457 452 447 444 440 437 435 431 428 425 422 416 410 406 408 416 423 429 434 440 447 454 461 467 475 480 484 486 486 486 488 493 499 504 510 514 517 520 521 522 522 523 522 522 522 520 518 518 518 518 517 515 513 514 519 525 528 530 531 532 532 533 536 540 541 544 547 549 551 556 559 560 560 557 553 554 554 554 552 551 549 548 545 542 540 538 536 534 532 531 530 529 529 528 526 524 523 522 520 516 511 508 505 500 494 489 482 476 469 463 457 453 448 441 433 430 427 426 423 420 417 416 412 408 407 406 405 405 405 406 407 407 408 412 416 421 428 432 431 436 437 437 444 455 463 469 473 474 472 472 472 468 461 452 442 432 423 419 422 426 428 430 431 428 424 419 410 398 391 396 406 415 421 426 431 436 444 453 463 473 481 489 492 488 471 449 434 422 415 406 398 391 382 374 365 357 350 344 339 335 332 329 325 323 319 315 316 321 326 333 337 332 324 317 312 308 304 301 298 296 294 291 287 283 280 275 271 270 271 270 271 273 274 279 284 285 285 287 292 298 305 313 321 328 334 338 340 341 338 335 333 333 333 332 331 330 327 322 317 313 309 307 304 301 297 293 289 285 280 273 267 263 262 260 256 251 247 243 238 233 228 224 220 215 210 207 207 207 208 209 212 215 214 214 218 225 228 233 236 242 244 243 241 239 238 237 235 234 232 228 223 219 219 224 229 235 242 249 255 257 255 253 258 267 276 282 289 292 292 292 290 287 285 285 289 296 298 295 290 287 284 281 279 276 273 270 267 264 261 256 251 246 241 239 233 228 224 219 216 216 216 216 217 219 220 223 225 227 228 232 241 250 260 269 276 273 267 262 257 251 245 238 231 226 225 226 220 218 218 218 218 221 224 225 221 217 213 210 208 208 210 207 203 201 199 196 194 193 193 194 195 196 199 201 201 200 199 199 198 196 192 188 184 179 174 170 165 161 158 154 150 148 150 150 148 146 142 142 147 153 157 159 161 166 173 180 185 184 180 176 172 171 171 169 169 169 170 171 172 175 180 186 192 198 201 201 199 196 193 191 190 190 192 193 197 199 202 205 209 211 213 217 220 223 220 214 203 185 165 150 134 124 120 119 119 118 113 103 94 90 87 86 84 79 74 71 70 69 68 67 67 66 66 66 66 66 66 66 66 66 70 73 77 78 78 82 85 85 83 81 81 81 82 87 90 92 94 94 97 100 103 108 112 117 120 121 123 123 125 129 133 134 129 123 114 107 103 100 101 106 110 111 111 109 107 105 105 105 105 105 105 105 105 105 105 105 105 106 106 106 107 107 108 109 111 112 112 112 111 111 111 112 112 113 113 112 114 115 116 117 118 118 117 118 117 117 116 116 115 116 118 120 121 121 121 121 121 121 121 121 121 121 121 121 121 122 122 121 121 121 123 128 136 144 154 163 168 170 173 175 178 182 186 189 191 198 202 205 209 211 214 215 215 220 232 243 255 266 278 286 289 291 289 286 280 276 281 270 257 244 233 226 221 223 218 212 213 215 217 219 222 222 223 225 228 236 249 265 276 283 289 296 306 314 321 327 332 337 340 341 338 334 329 324 321 315 308 300 293 296 298 298 296 292 286 278 274 274 275 275 275 277 280 285 292 297 301 304 306 306 305 301 295 292 292 292 292 292 293 302 315
405 406 411 418 424 432 442 452 458 461 464 467 470 473 474 472 470 465 461 456 450 445 443 440 437 434 431 428 425 422 418 412 406 407 416 422 428 433 438 445 452 459 466 473 477 481 481 482 483 487 494 500 504 507 511 515 518 520 520 520 520 521 520 519 517 516 517 517 517 516 513 512 513 517 522 526 528 528 529 528 531 535 539 541 544 546 549 551 554 556 556 556 552 548 549 551 551 550 550 549 547 544 540 539 537 536 534 534 532 531 530 529 528 527 525 524 523 521 519 515 513 509 503 497 492 485 478 471 465 461 457 449 441 435 432 431 429 425 424 424 423 419 415 413 411 407 404 402 401 402 402 404 408 412 416 422 425 425 429 430 432 440 450 458 464 468 471 471 473 474 470 463 455 443 434 425 416 414 419 422 425 426 425 421 414 405 393 389 398 408 417 423 428 434 440 448 458 466 473 480 486 489 484 466 444 430 420 415 410 402 395 388 380 370 361 353 347 342 338 335 331 325 320 317 315 316 321 325 330 330 325 318 313 309 307 303 302 301 300 298 295 292 288 284 280 275 270 268 266 267 269 272 276 280 281 283 286 290 296 303 311 318 326 331 335 337 337 334 333 331 331 332 332 333 333 329 324 320 317 314 311 308 305 302 297 292 287 282 275 271 269 267 263 259 254 250 245 240 235 230 226 221 217 211 208 207 207 207 208 209 211 211 211 215 220 223 227 233 241 242 241 239 238 238 236 235 234 230 226 221 219 219 224 228 235 241 248 254 255 252 251 259 270 278 285 290 291 291 290 288 286 285 288 295 301 303 298 294 290 287 284 281 279 277 274 271 267 263 258 254 249 244 241 235 230 226 221 217 215 215 214 214 216 218 219 222 223 224 229 237 246 255 264 267 265 261 257 253 248 242 237 230 226 228 228 223 220 219 219 219 222 226 227 224 220 216 211 208 209 210 209 204 201 199 197 194 193 193 193 194 196 199 201 201 202 202 202 203 201 198 194 189 183 178 173 168 164 160 156 151 148 147 146 146 145 142 141 145 150 155 157 159 164 171 177 181 180 177 173 170 169 170 168 168 169 169 171 172 176 182 188 194 200 203 202 200 198 195 192 191 191 192 194 196 198 201 205 208 210 213 216 220 223 219 213 200 181 162 147 134 124 121 121 120 119 113 103 95 90 88 86 85 83 78 72 70 69 68 67 67 66 66 66 66 66 66 66 66 66 68 71 74 77 77 80 84 85 85 82 81 81 82 87 89 92 93 93 95 97 100 104 108 112 116 116 117 119 123 127 131 132 126 119 110 103 101 100 102 107 111 113 112 110 108 106 105 105 105 105 105 105 105 105 105 105 105 105 105 105 105 106 107 108 109 109 109 109 109 109 109 109 110 110 110 111 112 113 114 115 115 115 115 115 115 114 114 113 114 116 118 119 120 120 120 120 120 120 121 121 121 121 121 121 121 122 122 120 120 120 122 128 136 144 153 162 168 171 175 178 182 187 192 196 199 203 209 212 215 218 220 223 223 224 234 243 256 269 281 288 291 293 291 286 279 272 276 267 255 241 232 225 222 221 218 212 212 213 215 218 221 222 223 225 227 234 248 264 275 283 288 295 303 311 318 324 328 332 335 336 333 329 325 321 317 313 305 298 290 292 296 296 294 291 285 277 274 274 275 274 274 277 279 285 292 296 300 303 305 305 303 298 293 292 292 292 292 292 293 301 314
405 405 407 415 422 429 438 446 450 453 458 462 465 467 468 467 466 462 458 453 447 443 442 439 436 433 430 427 424 421 418 412 406 406 414 421 428 432 437 443 450 458 464 471 474 477 477 479 481 486 493 498 501 504 508 513 517 518 518 518 518 519 518 517 515 515 515 515 515 515 512 511 512 515 519 523 525 526 526 525 529 534 538 540 543 545 548 551 552 552 552 551 547 543 544 547 547 546 547 547 545 542 538 537 536 535 534 534 533 531 530 530 528 527 526 525 524 523 521 519 518 513 507 501 495 489 481 474 468 464 459 451 444 438 436 434 431 428 427 428 427 424 422 420 418 413 408 405 401 399 399 401 404 407 410 415 418 418 421 421 425 434 443 451 458 463 468 470 472 474 471 466 458 449 439 429 418 410 410 414 418 421 420 416 409 398 389 389 398 408 417 424 430 437 443 451 461 468 474 479 482 484 479 461 441 428 420 416 412 405 398 390 382 373 365 358 351 347 343 339 334 327 320 316 314 315 319 322 325 323 318 313 308 306 305 303 302 302 302 301 299 295 291 287 283 279 273 267 263 263 266 271 275 278 279 281 283 288 293 299 306 314 322 328 332 333 332 331 330 328 328 329 331 333 334 333 330 327 323 319 315 312 308 305 301 295 290 284 279 277 276 272 267 263 258 253 247 241 236 231 226 222 218 212 208 207 207 206 206 207 208 208 209 211 215 218 224 233 240 241 239 238 238 238 236 237 236 231 225 220 219 219 224 228 234 241 247 252 253 250 251 260 272 280 287 292 292 291 289 286 285 286 292 300 306 306 302 297 293 289 286 283 281 279 276 273 269 265 260 256 251 246 243 237 232 227 222 218 216 215 213 212 212 214 216 218 219 220 225 233 241 249 256 259 257 255 251 248 244 239 234 229 227 230 231 225 221 219 219 220 223 227 228 226 221 217 211 208 209 210 209 204 201 200 197 195 194 194 192 192 194 199 201 202 204 206 207 208 206 205 201 195 188 181 176 171 166 162 158 153 149 147 144 144 143 141 140 143 148 152 156 158 163 168 173 176 176 173 170 168 167 168 168 167 167 168 171 172 176 183 190 196 202 205 203 201 198 195 193 192 192 193 194 196 198 201 205 208 210 213 215 218 219 216 210 196 179 160 145 133 124 121 120 120 119 115 107 98 91 88 87 85 85 81 74 71 70 68 67 67 66 66 66 66 66 66 66 66 66 66 69 72 76 77 79 82 84 84 83 82 81 82 87 89 92 93 93 94 95 97 101 104 108 111 112 113 116 120 125 129 130 123 116 107 100 100 100 103 109 113 115 114 111 109 107 105 105 105 105 105 105 105 105 105 105 105 105 105 105 105 105 105 106 107 107 107 107 107 107 107 107 108 108 108 109 110 111 112 113 113 113 113 113 113 113 113 113 115 116 117 119 120 120 120 120 120 120 121 121 121 121 121 121 121 121 121 120 120 120 122 129 136 143 152 161 169 172 176 180 185 191 198 203 206 209 214 219 222 225 227 230 232 232 237 247 260 272 282 289 293 294 291 286 278 268 268 263 253 239 231 224 222 221 219 212 210 212 214 216 219 221 222 224 227 232 246 261 273 281 286 292 299 307 314 319 323 327 329 330 328 325 321 317 315 310 302 295 288 288 294 294 293 290 283 276 273 273 273 273 274 277 279 285 291 296 299 302 303 303 301 296 292 292 292 292 292 292 293 302 315
405 405 405 412 419 426 434 440 442 446 451 457 460 462 463 462 461 457 453 448 444 442 440 438 435 433 429 425 423 420 417 411 405 405 413 421 427 432 436 442 449 457 463 469 472 473 474 476 480 486 492 495 498 502 508 512 515 516 517 517 517 517 517 516 514 514 514 514 513 513 511 509 510 513 517 520 523 524 524 524 528 533 536 539 542 544 547 549 550 550 548 547 543 537 539 542 542 540 542 543 541 539 535 535 535 534 533 533 533 530 530 529 528 528 527 525 524 524 523 522 520 517 511 506 499 492 484 477 471 465 460 453 447 441 439 436 432 431 431 431 430 428 426 424 421 418 414 410 404 398 397 398 400 403 406 409 411 411 413 415 423 432 439 447 455 461 466 469 471 472 471 469 463 456 447 437 425 414 405 404 409 412 414 411 403 392 385 389 398 406 416 424 431 437 444 452 461 468 473 476 478 479 471 455 440 427 421 417 413 408 399 391 384 376 368 362 357 352 348 342 336 329 321 315 312 314 317 319 319 316 312 307 305 304 304 303 303 303 303 303 301 297 293 289 285 282 276 269 264 262 264 270 274 276 278 279 282 286 291 297 304 311 319 326 330 330 327 326 325 323 324 326 328 330 333 335 337 335 330 324 319 315 311 307 304 297 292 287 284 284 281 276 270 265 261 255 248 241 235 230 225 221 216 211 208 206 206 206 205 205 206 207 208 209 213 217 223 232 239 240 239 238 238 238 239 240 238 233 225 220 218 218 224 228 233 241 247 251 250 247 252 262 275 282 290 294 294 292 288 285 285 288 297 304 307 307 303 299 295 290 287 285 282 281 278 275 271 266 262 258 252 247 245 239 233 228 223 221 220 218 216 212 209 210 212 214 215 218 222 229 236 243 249 252 250 248 245 243 240 235 230 226 226 231 233 227 222 219 219 220 223 227 228 225 221 215 210 207 208 210 208 204 201 199 196 195 194 193 191 191 194 199 202 204 207 210 212 213 213 213 208 202 194 186 180 175 169 163 159 155 150 147 145 144 142 139 139 141 146 150 154 157 161 166 170 172 172 170 168 167 167 168 167 166 166 167 171 172 177 183 191 198 203 205 204 202 198 194 194 194 194 194 195 197 199 202 206 210 211 212 213 215 215 211 205 190 176 159 145 132 122 120 119 118 119 117 110 100 93 89 87 85 85 82 74 71 70 68 67 67 66 66 66 66 66 66 66 66 66 66 67 70 74 77 78 80 82 83 84 82 81 82 87 89 92 93 93 94 95 96 99 102 105 107 108 110 114 118 123 127 127 121 114 104 98 99 101 105 110 114 115 115 111 109 107 105 105 105 105 105 105 105 105 105 105 105 105 105 105 105 105 105 105 106 106 106 105 105 105 105 105 107 107 108 108 108 110 111 111 112 112 112 113 113 113 113 113 116 116 117 119 119 119 120 120 120 120 120 120 120 120 120 120 120 121 121 120 120 120 122 129 136 142 151 160 169 172 176 181 188 194 202 208 213 216 219 224 228 232 235 237 239 238 239 249 262 273 283 290 294 294 290 284 275 265 261 260 250 237 230 224 221 221 218 212 210 210 211 214 216 220 221 224 226 231 244 258 270 278 283 288 295 302 309 314 318 322 324 325 324 321 318 315 313 306 299 292 286 286 293 294 292 288 281 275 273 272 272 273 274 277 279 284 290 295 297 300 301 301 298 294 292 292 292 292 292 292 293 303 315
405 405 405 409 416 423 430 434 435 440 446 451 455 457 458 457 456 451 448 444 442 441 440 439 437 433 428 424 422 419 414 408 403 405 412 419 426 431 436 441 448 455 461 467 469 470 472 473 477 484 489 493 497 502 507 511 513 514 515 516 516 515 515 514 513 511 512 512 512 512 511 508 508 511 515 518 520 521 521 523 526 530 534 538 540 543 546 548 548 547 545 543 539 532 534 537 536 534 538 539 536 535 533 531 532 532 530 530 531 530 529 528 528 528 527 525 524 524 524 522 522 519 514 509 502 494 486 479 472 466 461 455 450 445 441 437 435 435 434 434 433 430 428 427 424 420 416 412 408 402 399 396 397 399 401 404 406 406 407 413 421 429 435 443 450 456 462 467 469 470 471 470 466 461 453 444 433 421 409 400 399 402 406 405 398 388 384 391 399 407 416 425 432 438 445 452 460 467 471 474 475 474 464 450 437 427 420 417 413 409 401 392 386 380 373 367 362 357 352 345 338 330 323 317 312 311 314 316 315 311 307 304 304 304 304 304 305 306 306 305 302 299 295 290 286 283 278 271 265 262 263 267 270 273 276 279 282 286 292 298 304 311 317 323 327 326 323 321 319 318 319 321 323 328 331 334 339 340 336 330 323 318 314 310 307 300 295 292 291 288 284 279 273 267 261 254 247 240 235 231 226 221 215 210 208 207 206 205 203 203 205 206 208 209 213 218 224 232 239 241 239 239 239 240 242 243 240 234 225 219 218 218 224 227 233 240 246 249 247 246 254 266 277 285 292 294 295 293 287 285 286 292 301 307 307 307 303 298 294 290 287 285 283 281 280 276 273 268 263 259 254 249 246 239 233 228 226 225 224 221 218 215 210 207 207 209 211 215 219 225 231 237 243 245 244 242 240 238 235 230 225 222 224 232 233 226 220 218 218 219 222 225 226 222 218 212 208 205 205 206 205 202 200 198 196 195 194 193 190 190 194 200 204 207 211 214 216 217 218 218 215 208 200 191 184 178 172 166 161 156 151 147 145 143 141 139 138 140 145 148 151 155 160 164 168 170 168 167 166 166 166 167 165 165 165 167 171 173 177 184 192 199 204 205 205 202 198 195 195 195 195 195 195 198 200 205 209 213 212 211 211 210 210 206 197 184 172 156 144 131 120 118 117 115 116 116 111 101 93 89 87 85 84 80 73 71 70 69 68 68 66 66 66 66 66 66 66 66 66 66 67 69 72 76 78 78 80 82 84 82 81 82 87 89 91 92 93 93 94 95 97 99 102 103 104 108 111 115 120 125 125 119 112 102 96 99 103 107 111 115 115 115 112 109 107 105 105 105 105 105 105 105 105 105 105 105 105 105 105 105 105 105 105 105 105 105 105 105 105 105 105 106 107 108 108 108 108 109 110 110 111 112 112 112 113 113 113 115 116 117 118 118 119 119 119 119 120 120 119 119 119 119 119 120 121 121 121 119 119 122 128 135 142 150 160 169 173 177 182 188 196 204 210 216 221 224 230 235 239 242 243 242 241 242 251 263 273 283 289 292 292 288 281 272 263 254 255 246 236 228 223 220 221 217 213 210 209 209 212 215 218 221 224 226 230 241 254 266 274 279 283 289 297 302 308 313 316 318 320 319 318 316 314 310 302 294 288 286 286 291 294 290 285 280 274 272 272 272 273 274 276 279 283 288 294 296 298 300 299 296 292 292 292 292 292 292 292 294 303 314
406 406 406 407 414 421 426 428 431 436 442 447 450 451 452 453 453 451 447 443 442 441 441 443 440 434 428 424 422 418 411 405 401 404 411 417 424 429 434 440 446 452 458 463 465 468 470 472 475 482 487 493 497 502 506 509 511 512 513 514 514 513 513 512 511 509 510 510 510 510 510 507 506 508 513 516 517 519 520 521 525 529 532 536 538 543 545 547 545 544 542 540 535 528 527 530 529 530 534 535 532 532 530 527 528 529 527 527 529 529 529 528 527 526 526 525 523 523 523 523 522 520 515 510 504 496 489 483 477 470 464 458 454 448 442 440 440 439 438 438 435 433 431 429 426 422 418 415 412 408 403 397 394 394 396 398 399 400 404 410 416 423 429 437 444 451 459 466 468 468 469 469 468 463 457 448 439 428 417 406 395 393 397 398 391 384 386 395 402 409 418 427 436 443 449 456 462 467 470 472 472 469 457 444 432 424 419 416 413 409 402 392 386 383 377 372 366 361 355 347 339 331 323 318 312 308 310 312 310 306 303 303 303 304 304 304 306 307 308 306 304 301 296 291 288 284 279 274 268 264 262 264 266 270 276 280 283 288 294 300 304 309 314 319 323 323 320 316 313 313 315 316 320 326 329 331 336 340 339 334 327 322 318 314 310 305 301 298 295 291 287 283 275 267 259 252 248 243 238 233 229 223 216 210 208 207 206 205 203 203 203 206 208 209 214 220 227 235 240 242 242 242 242 242 244 244 240 234 225 219 218 218 223 227 232 239 245 246 245 246 256 268 279 288 294 295 295 291 285 285 288 296 304 307 307 306 301 297 293 290 287 285 283 282 281 278 274 269 265 259 254 248 246 239 232 228 229 229 227 223 220 217 213 207 204 205 207 212 216 221 227 232 236 238 238 236 234 231 228 224 221 219 224 232 230 222 217 215 215 216 219 222 221 218 214 209 206 203 202 202 201 199 198 197 196 194 193 192 190 189 192 199 206 210 214 217 220 221 223 223 221 213 205 197 188 181 176 169 163 157 151 148 145 142 140 138 136 138 142 144 148 152 157 161 165 167 166 165 165 165 165 165 165 165 165 168 171 174 178 185 193 199 205 205 205 203 197 195 195 195 195 195 196 199 202 208 214 217 214 209 205 204 203 199 189 179 168 153 141 130 119 116 114 112 113 113 108 99 92 89 87 86 84 78 71 71 70 69 68 68 66 66 66 66 66 66 66 66 66 66 66 68 71 75 78 78 79 81 82 83 82 82 86 89 91 92 92 93 94 95 95 97 99 99 102 106 109 112 117 122 122 117 110 100 95 99 104 107 112 115 115 115 112 109 108 105 105 105 105 105 105 105 105 105 105 105 105 105 105 105 105 105 106 105 105 105 105 105 105 105 105 106 107 107 107 107 108 108 108 109 109 110 111 112 113 113 113 115 115 116 117 118 118 118 119 119 119 119 119 119 119 119 119 119 121 121 121 119 119 122 127 134 140 149 160 168 173 177 183 188 196 205 212 218 225 229 235 241 244 245 245 243 242 243 251 262 273 283 288 289 287 283 276 269 261 251 248 241 233 226 222 220 219 217 214 211 208 208 210 214 217 220 223 226 229 238 250 261 269 273 276 282 289 295 300 306 310 313 314 315 315 314 312 306 298 290 286 286 286 288 291 287 283 278 273 272 272 273 273 274 275 277 280 285 291 295 297 298 297 294 292 291 291 291 292 292 292 294 302 310
405 405 405 406 412 419 423 424 428 433 439 443 446 447 447 451 453 452 449 446 443 443 444 446 441 434 428 424 421 417 411 405 400 403 409 414 422 428 433 438 443 449 455 460 464 466 469 472 475 481 487 492 497 501 505 508 510 511 512 512 512 511 510 511 510 508 508 510 509 509 509 506 504 505 510 512 515 517 520 522 526 529 532 535 539 543 545 546 543 540 537 535 531 524 521 523 523 526 530 531 529 528 526 523 524 524 524 525 527 527 527 527 525 524 525 524 523 522 522 523 523 521 516 512 507 499 493 487 481 474 467 461 456 451 446 445 445 443 442 440 437 435 434 431 428 424 420 416 414 410 406 401 395 390 389 390 392 397 402 408 413 419 426 433 441 449 457 463 465 466 468 469 468 465 459 451 442 433 422 412 400 390 389 390 384 380 388 399 406 413 420 429 440 447 455 462 467 471 473 473 471 464 450 436 426 420 416 413 411 406 400 392 386 384 380 376 370 364 357 349 340 331 323 318 312 306 306 307 305 301 299 301 302 303 304 306 307 307 308 307 304 301 296 292 288 284 279 276 272 267 263 262 263 270 276 280 284 290 295 299 302 305 309 315 319 321 318 313 309 310 311 313 318 323 326 328 333 338 339 336 330 325 321 318 314 311 309 305 300 295 291 287 281 271 263 258 254 248 240 235 229 224 217 211 208 206 206 204 203 203 203 206 208 209 215 221 230 238 243 245 245 245 243 243 245 244 239 233 225 219 217 217 222 226 232 238 243 243 243 248 258 270 280 290 294 295 294 288 283 285 290 298 306 307 307 304 298 294 290 288 285 284 283 282 280 277 273 268 263 257 252 247 244 238 231 229 232 233 230 225 221 218 215 209 203 202 204 210 213 217 223 228 231 233 233 231 229 226 223 220 217 217 223 229 224 218 214 211 211 213 216 217 216 213 209 206 205 202 199 198 197 196 196 195 194 193 192 192 189 187 190 198 205 210 215 218 221 224 227 227 226 219 210 202 193 185 178 172 165 159 152 148 144 142 139 136 135 136 139 142 146 150 154 158 162 164 165 164 164 165 165 167 167 165 165 169 173 176 179 185 193 199 204 205 205 203 197 195 195 195 195 195 197 200 205 211 218 218 213 206 199 197 196 190 183 176 163 149 138 128 119 114 112 110 110 109 104 97 92 89 87 86 84 77 72 71 70 69 68 68 67 66 66 66 66 66 66 66 66 66 66 67 69 73 78 78 78 80 82 83 82 82 85 89 91 91 92 92 93 94 94 95 96 97 99 103 106 110 114 119 119 114 107 98 95 100 104 108 112 116 116 115 112 109 107 105 105 105 105 105 105 105 105 105 105 105 105 105 105 105 107 107 106 106 106 105 105 105 105 105 105 106 107 107 107 107 107 107 107 107 108 109 110 111 112 112 113 115 115 115 116 117 117 117 118 118 118 118 118 118 118 119 119 119 120 120 121 119 118 121 126 132 140 149 160 168 172 176 182 188 196 205 213 220 227 233 238 243 246 246 245 243 240 241 249 261 272 281 285 285 282 278 272 267 260 250 245 238 232 228 224 220 217 217 215 211 208 207 209 213 214 217 222 225 229 236 245 257 265 267 269 275 281 287 292 298 302 307 310 313 314 312 309 303 295 288 286 285 285 286 286 284 280 276 273 272 272 273 273 274 274 275 277 282 288 293 295 296 296 293 292 291 291 291 292 292 293 295 301 306
405 405 405 406 410 416 421 422 426 430 435 440 442 443 445 450 452 451 450 447 445 446 447 447 441 434 427 423 420 416 410 405 400 401 406 411 419 424 429 435 440 446 453 459 464 466 469 473 477 482 487 490 495 499 503 506 508 509 510 510 510 509 508 509 509 508 507 507 508 507 506 505 502 503 507 509 513 517 521 523 526 530 534 536 540 544 545 546 541 537 532 529 526 521 515 516 517 521 526 528 525 523 523 519 520 520 521 524 525 525 525 525 523 522 523 522 521 521 521 523 523 522 518 514 509 503 496 489 483 474 468 464 459 454 451 451 450 448 446 443 440 438 438 434 430 426 420 416 413 409 406 402 397 390 384 383 388 396 401 407 411 416 422 429 437 445 454 459 460 464 466 467 467 465 460 453 444 435 425 416 406 394 386 382 378 379 390 401 409 418 424 430 442 451 461 468 473 476 477 476 471 460 443 429 421 417 413 410 406 402 396 390 386 383 381 378 373 366 358 349 340 330 322 317 311 305 301 300 299 296 297 299 302 303 304 306 307 307 308 307 304 301 297 292 287 283 279 278 274 269 263 262 263 270 276 280 285 291 295 297 300 303 307 314 317 318 316 312 307 306 308 311 316 320 323 326 332 338 340 339 335 330 326 322 319 318 316 311 305 300 295 291 286 280 273 266 258 249 240 234 228 223 216 210 207 206 206 204 202 202 203 205 208 210 216 224 232 240 246 248 248 246 243 243 245 243 238 231 225 219 217 217 221 225 231 237 240 240 241 249 260 272 282 291 295 295 291 284 281 285 291 299 305 307 305 300 295 290 287 285 283 282 282 280 278 274 269 264 259 254 249 244 241 235 231 231 234 235 233 227 222 219 215 209 203 200 201 207 211 214 220 224 227 230 229 227 225 222 220 217 214 214 221 225 220 215 211 208 208 210 212 212 211 208 205 203 202 199 197 196 195 194 194 193 192 192 191 190 187 185 188 196 204 210 214 218 221 225 229 231 231 224 215 206 197 188 180 174 167 160 153 148 143 141 138 135 133 135 137 140 144 148 152 156 161 163 163 163 163 164 167 170 170 168 166 169 174 176 181 186 193 198 203 205 205 202 196 195 195 195 195 195 198 202 207 216 219 215 209 201 193 190 188 184 177 170 157 145 135 125 117 112 112 110 109 106 100 95 92 89 87 85 84 81 76 73 71 70 69 68 67 66 66 66 66 66 66 66 66 66 66 66 68 72 77 78 78 79 81 82 83 82 84 88 90 91 91 92 93 94 94 95 95 95 96 99 103 107 112 116 116 111 103 95 95 100 105 108 113 116 116 115 112 109 107 105 105 105 105 105 105 105 105 105 105 105 106 106 107 107 109 109 108 108 106 106 105 105 105 105 105 106 107 107 107 107 107 106 106 106 108 108 110 111 112 112 113 115 115 115 116 116 116 117 117 117 117 118 118 118 118 118 118 119 120 120 121 119 118 119 125 131 138 148 159 167 172 176 181 188 195 205 213 220 229 234 237 240 243 244 242 239 234 237 247 258 269 278 282 280 277 273 269 264 258 251 247 242 235 232 228 220 216 216 215 211 208 207 207 211 212 215 221 225 228 234 241 252 261 263 265 270 274 279 285 288 291 300 307 312 313 311 306 299 292 287 286 285 285 284 283 282 279 275 274 272 272 273 273 274 274 274 274 278 284 290 294 295 295 293 291 291 291 292 292 292 294 297 299 302
405 405 405 406 409 414 419 421 423 427 431 435 438 440 444 450 451 451 450 448 447 448 449 447 441 434 427 422 418 414 409 406 402 399 402 408 413 418 424 431 437 445 453 458 463 466 469 473 478 482 485 489 493 498 502 504 506 507 508 508 508 508 507 508 507 507 506 505 505 505 504 503 501 501 505 509 513 517 521 523 526 530 533 536 540 543 545 544 541 537 531 525 521 516 511 510 511 516 521 524 521 518 518 516 517 518 520 522 524 524 524 523 521 520 521 520 519 520 520 522 522 522 518 514 510 505 497 489 482 475 470 467 462 458 456 456 455 453 451 448 445 442 441 437 433 427 422 417 412 408 405 402 398 392 383 381 385 394 401 406 409 412 416 422 430 439 448 453 456 462 464 466 466 465 460 453 445 435 427 419 410 398 385 377 373 379 392 403 412 422 428 434 443 454 464 473 479 481 483 481 471 456 437 422 416 412 408 404 400 395 389 385 383 382 380 378 375 368 359 349 338 329 322 317 311 303 298 295 293 291 294 299 301 302 304 305 306 307 307 306 304 302 298 292 287 281 278 278 275 270 264 262 263 270 275 280 284 289 292 296 300 303 307 312 315 315 313 309 304 303 305 310 315 318 320 324 331 337 341 343 341 336 332 328 326 325 323 318 312 305 300 294 290 285 278 269 260 250 241 235 229 223 216 210 207 206 205 204 202 202 202 205 208 213 219 227 235 243 248 250 250 246 243 243 245 242 237 230 224 219 216 216 220 224 229 234 236 236 241 250 261 273 284 293 295 294 288 280 278 284 290 296 303 306 303 296 291 287 285 283 281 280 279 277 274 270 264 259 254 249 245 241 238 231 229 231 235 235 234 228 222 219 215 209 204 199 198 203 208 211 216 221 224 227 227 225 223 220 217 214 211 212 219 220 215 211 207 205 205 206 207 207 206 204 202 201 199 197 195 195 194 193 192 191 190 189 189 187 184 184 188 195 202 208 213 217 220 224 229 234 235 229 220 210 201 191 183 176 168 161 154 147 143 139 136 133 132 134 136 139 142 146 150 154 159 161 161 162 162 165 170 174 174 171 169 170 174 177 182 188 192 197 201 204 204 201 196 195 195 195 195 196 199 203 210 218 218 210 203 195 188 183 181 177 170 162 151 140 131 122 114 112 112 113 110 105 99 94 92 89 87 86 85 84 81 75 72 70 69 69 67 66 66 66 66 66 66 66 66 66 66 66 67 71 75 77 77 79 81 82 83 82 83 88 90 91 91 92 93 93 93 94 94 94 94 96 99 104 109 114 113 106 98 94 95 100 104 108 112 115 116 114 111 109 107 105 105 105 105 105 105 105 105 105 105 105 106 107 109 109 110 110 109 108 107 106 106 105 105 105 105 106 107 107 107 107 106 105 105 105 107 108 110 111 112 112 113 114 114 114 115 115 116 116 116 116 116 117 117 117 118 118 118 118 120 120 120 120 118 118 123 130 138 146 157 166 171 176 181 187 194 204 212 220 227 231 232 235 237 238 237 233 227 233 244 254 266 275 277 275 272 269 266 262 256 251 247 245 238 235 231 223 215 215 214 211 208 206 205 208 210 214 221 225 228 232 238 248 256 258 259 264 268 271 276 278 284 298 307 311 312 310 303 297 291 288 286 286 285 283 282 281 280 277 275 272 272 272 273 273 274 274 274 275 281 286 291 293 294 293 291 291 291 292 292 294 296 298 298 301
405 405 405 405 407 412 416 418 420 423 426 429 433 438 443 448 450 450 449 448 448 448 447 447 440 434 427 421 416 413 411 409 405 400 400 403 407 412 420 428 436 443 451 456 461 465 468 471 476 480 483 487 492 497 501 503 504 505 506 507 506 506 506 506 506 505 505 503 503 503 502 500 499 500 504 508 512 516 520 523 525 529 532 535 538 540 543 543 541 538 532 525 518 512 508 505 506 511 516 519 518 515 515 514 515 517 519 521 522 522 522 522 520 519 518 517 517 518 518 519 521 521 518 514 509 504 497 489 483 478 474 471 464 461 461 461 459 458 456 455 451 448 444 440 435 430 425 419 414 410 406 403 399 394 387 381 383 392 399 404 406 408 411 416 425 434 441 445 454 460 463 465 465 464 460 453 445 435 427 419 411 400 387 375 371 381 395 405 414 424 431 439 449 458 466 476 484 488 490 486 473 455 436 420 411 406 403 398 393 387 382 380 379 379 379 378 375 368 359 348 336 327 321 316 310 303 296 293 289 287 291 296 299 300 302 303 304 305 306 305 303 301 298 292 286 281 278 278 276 271 265 262 263 269 274 277 280 284 289 296 301 303 306 310 311 310 308 304 301 300 303 309 313 317 318 323 330 337 341 345 346 342 339 336 333 331 329 324 318 311 305 298 293 288 281 271 261 251 243 237 231 225 219 212 208 207 204 203 202 202 202 205 209 215 222 229 237 245 249 250 250 245 243 243 243 242 236 228 222 218 216 215 217 222 226 230 231 234 242 251 261 274 285 294 294 291 284 276 276 283 288 294 300 302 297 291 288 286 284 282 280 278 275 271 267 263 258 253 248 244 240 236 233 228 227 230 235 235 233 228 222 219 215 209 204 199 196 198 204 207 212 218 221 224 224 223 221 218 215 211 209 211 215 214 211 207 205 203 201 202 203 203 202 200 199 198 197 195 194 193 193 191 188 187 186 185 185 183 181 183 188 194 200 206 210 214 217 222 228 234 237 233 223 213 203 193 185 177 169 161 153 146 142 138 135 132 131 133 135 138 141 145 148 153 157 158 160 160 161 166 172 178 179 175 172 172 174 177 182 189 192 195 200 202 203 199 196 195 195 195 195 196 200 205 212 218 213 205 197 191 184 177 173 169 162 155 145 135 127 119 114 113 113 114 112 106 99 94 92 90 88 86 86 85 82 76 72 70 69 68 67 66 66 66 66 66 66 66 66 66 66 66 66 69 72 76 77 78 80 81 83 83 83 86 90 91 91 91 93 93 93 94 94 94 94 95 97 101 106 111 108 99 94 95 97 101 104 107 111 114 115 114 111 108 107 105 105 105 105 105 105 105 105 105 105 106 107 109 109 110 111 111 110 109 109 108 107 106 105 105 105 106 107 107 107 107 106 105 105 105 106 107 108 110 112 112 112 113 113 114 115 115 115 115 116 116 116 116 117 117 117 118 118 118 119 119 120 120 118 117 121 128 136 145 155 164 170 175 180 186 193 202 210 218 225 228 226 228 230 230 229 225 221 229 239 249 261 270 272 271 267 265 263 260 255 249 246 246 240 238 235 227 217 212 212 210 207 206 205 206 209 215 222 224 227 230 235 243 251 252 253 259 263 265 268 273 284 298 305 309 310 307 302 298 295 291 287 286 286 284 284 284 282 279 275 273 272 272 273 274 274 274 274 274 278 283 288 292 293 293 291 291 291 293 295 298 301 301 300 306
