ncols         868
nrows         30
xllcorner     -77.8
yllcorner     38.50142
cellsize      1.0E-5
NODATA_value  -9999
85 86 87 87 88 89 91 91 91 91 91 91 91 91 90 90 90 91 91 91 91 91 91 91 92 93 93 94 94 94 95 96 96 96 96 96 96 96 96 96 95 95 95 95 95 95 95 94 94 94 93 93 92 91 90 89 87 87 86 85 85 84 84 84 84 84 84 84 84 85 85 86 87 87 88 88 88 88 88 87 87 85 85 85 84 84 84 84 83 83 83 83 82 82 81 81 81 79 79 78 78 78 77 77 77 77 77 77 77 77 77 77 77 77 77 77 77 78 78 78 78 78 78 78 78 78 79 79 79 79 79 79 80 81 81 82 82 82 83 83 83 84 84 84 85 85 86 86 87 88 89 90 92 97 103 110 113 115 114 110 105 100 96 93 91 91 91 91 91 91 90 90 90 90 90 90 89 89 89 88 88 88 88 87 87 86 86 85 85 85 85 85 86 86 86 85 85 85 85 85 85 85 85 85 85 84 84 84 84 84 84 84 84 84 84 83 83 84 84 84 84 84 84 84 85 86 87 88 89 90 90 89 90 91 92 92 93 94 94 94 95 95 94 94 93 93 94 94 94 94 94 95 96 96 96 97 97 98 98 98 97 97 97 97 97 97 97 97 97 98 99 99 99 99 100 99 98 98 98 98 98 99 100 100 100 101 102 102 103 103 104 103 103 102 101 101 100 100 101 103 103 103 104 104 104 104 104 104 104 104 104 105 105 105 105 105 105 106 106 106 107 108 108 109 110 111 112 112 112 112 112 112 112 113 113 114 114 114 115 115 114 113 112 111 109 109 109 109 111 112 113 113 113 112 110 109 108 108 108 109 111 111 108 106 105 104 104 103 103 104 103 103 103 105 107 109 111 112 113 114 116 117 117 115 112 110 110 110 112 114 117 119 118 116 113 109 107 106 107 109 109 108 108 109 111 111 109 107 107 108 108 108 109 109 110 111 111 110 110 111 113 115 117 118 117 116 117 118 115 110 110 114 118 119 121 121 120 119 119 118 117 115 111 107 106 105 103 102 102 104 106 107 108 109 109 110 113 114 113 111 109 108 108 109 110 112 113 114 114 116 117 118 118 116 113 112 113 115 115 114 114 115 117 119 119 118 115 112 111 110 111 110 106 104 103 103 102 102 103 102 103 105 106 106 104 103 104 105 105 104 102 102 102 102 101 99 98 100 102 102 100 98 94 88 84 85 88 87 85 85 88 90 88 89 93 96 98 99 101 104 106 106 104 102 104 105 100 94 95 100 103 105 105 104 105 104 102 102 100 94 93 96 99 100 102 104 105 102 98 98 99 99 101 104 105 102 99 98 100 102 104 105 106 104 101 93 88 87 87 89 93 96 99 102 101 99 99 102 104 103 97 91 88 87 90 94 96 99 102 103 103 104 105 105 104 103 104 106 107 107 105 104 103 102 102 101 99 98 99 100 100 102 102 104 105 107 109 110 109 110 111 114 116 116 116 115 115 116 118 119 119 118 116 115 115 117 119 121 122 123 124 124 124 122 118 117 119 122 124 124 122 120 119 118 118 117 116 118 118 119 119 119 119 120 120 120 121 121 122 121 121 123 124 126 126 126 126 127 127 127 127 127 128 128 128 128 128 127 126 125 125 125 125 124 122 121 121 122 122 121 119 118 119 121 122 121 119 119 120 120 120 119 116 112 114 116 116 115 113 109 108 108 108 109 112 114 116 115 115 119 122 125 127 126 125 123 122 123 123 123 123 123 123 125 127 127 128 129 130 130 129 129 129 129 129 129 128 128 128 128 127 126 125 125 125 124 123 122 121 121 121 121 121 122 123 124 125 125 125 125 125 125 124 124 124 123 122 121 120 120 121 119 117 115 115 116 117 117 115 113 111 108 108 108 110 113 115 117 116 116 116 116 118 121 121 120 117 114 111 109 109 108 110 113 113 112 108 106 108 108 108 106 105 105 106 109 109 110 112 111 111 112 112 110 108 106 107 108
85 86 86 87 88 89 90 91 91 91 90 90 91 91 90 90 90 91 91 91 91 91 91 92 92 93 93 94 94 94 95 95 96 96 96 96 96 96 96 95 95 95 95 95 95 95 95 95 95 94 94 94 94 93 91 90 88 87 87 86 85 84 84 84 84 84 84 84 84 85 85 86 87 88 88 89 89 89 88 88 87 85 85 85 84 84 84 84 83 83 83 83 83 82 82 82 81 80 79 79 78 78 78 77 77 77 77 77 77 77 77 77 77 77 77 77 77 78 78 78 78 78 78 78 78 79 79 79 79 80 80 80 80 81 81 82 82 82 83 83 83 84 84 84 85 85 86 87 88 88 89 90 94 100 106 112 115 116 115 110 105 100 96 93 91 91 91 91 91 91 90 90 90 90 90 90 89 89 89 88 88 88 88 87 87 86 86 85 85 85 85 85 85 86 86 85 85 85 85 85 85 85 85 85 85 84 84 84 84 84 84 84 84 84 84 83 83 84 84 84 84 84 84 84 85 87 87 88 89 90 90 90 91 92 93 94 94 94 95 95 95 95 95 94 94 94 94 94 94 94 95 95 96 96 96 97 97 98 98 97 97 97 97 97 97 96 96 97 97 98 98 99 99 99 99 99 98 97 97 97 97 99 100 100 101 101 102 103 103 103 104 103 102 102 101 100 100 100 101 103 103 104 104 104 104 104 104 104 104 104 104 105 105 105 105 105 106 106 106 107 107 108 109 109 110 111 113 113 113 113 113 113 113 113 114 114 115 115 115 115 114 113 112 111 109 109 109 109 111 112 113 113 112 111 110 109 109 109 109 111 112 111 108 106 105 105 105 105 105 106 105 103 103 105 107 110 112 112 113 113 115 116 117 116 114 113 111 111 112 114 116 119 120 120 116 111 107 106 107 110 110 108 108 109 110 112 111 109 109 110 110 109 109 109 111 113 113 111 111 113 114 115 117 119 118 119 121 120 116 110 110 115 119 120 119 119 119 119 118 116 114 113 110 107 107 107 105 102 102 104 107 109 110 109 109 109 111 114 114 112 111 111 109 109 110 112 113 113 113 114 115 116 117 116 115 113 113 115 115 115 115 116 118 120 121 118 114 113 114 114 115 112 108 106 106 104 102 100 100 100 101 102 104 104 102 102 103 105 105 104 102 100 100 99 98 96 97 99 102 102 101 99 94 87 83 85 90 90 86 85 88 91 90 89 92 96 98 101 102 104 107 108 105 103 105 106 101 94 96 101 104 107 108 107 107 105 103 103 100 95 96 99 101 102 104 106 106 102 100 101 102 102 103 105 106 102 101 102 102 103 105 106 104 101 97 91 87 87 87 89 94 99 101 103 103 101 100 102 104 102 97 92 90 88 90 94 97 100 102 103 103 104 106 106 106 104 105 106 108 108 106 106 104 104 103 102 100 99 99 100 102 104 105 106 107 108 110 112 111 111 111 114 116 117 117 117 116 116 118 119 119 119 118 116 115 116 119 121 122 123 124 125 124 122 119 118 119 122 124 124 122 120 119 119 119 118 117 118 119 119 120 120 120 120 121 121 121 121 122 122 122 123 125 127 127 127 127 128 128 127 127 127 128 128 128 127 127 126 125 124 124 125 125 124 123 121 121 121 121 120 119 118 119 121 121 119 118 118 119 119 120 119 116 112 113 115 114 113 111 109 108 108 108 111 114 116 118 118 118 119 122 127 128 128 127 125 124 125 125 125 124 124 124 126 128 129 130 130 130 130 128 128 128 128 128 128 127 127 128 128 128 127 126 126 126 125 124 123 122 121 120 120 120 121 122 123 124 124 124 124 125 125 125 125 125 124 123 122 121 121 121 120 118 117 117 117 118 118 117 115 112 109 108 108 109 111 114 117 118 118 118 117 118 120 121 119 116 112 111 111 111 110 111 113 112 109 108 109 109 109 109 106 106 106 107 111 112 113 114 113 112 112 112 110 108 108 109 110
85 86 86 87 88 89 90 91 91 90 90 90 90 90 90 90 90 91 91 91 91 91 91 92 92 93 93 94 94 94 95 95 95 96 96 96 96 96 95 95 94 94 94 94 94 94 94 94 94 94 94 95 94 94 93 91 89 88 87 86 85 84 84 83 83 83 83 83 84 85 85 86 88 89 90 89 88 88 88 88 87 85 85 84 84 84 83 83 83 83 83 82 82 82 82 82 81 80 79 79 78 78 78 77 77 77 77 77 77 77 77 77 77 77 77 77 77 78 78 78 78 78 78 78 78 79 79 79 79 80 80 80 81 81 81 82 82 82 83 83 84 84 84 84 85 85 86 87 88 89 90 91 96 103 108 114 116 116 114 109 104 99 95 93 91 91 90 90 90 90 90 90 90 89 89 89 89 89 88 88 88 87 87 87 86 86 86 85 85 85 85 85 85 85 86 85 85 85 85 85 85 85 85 85 85 84 84 84 84 84 84 84 84 84 84 84 84 84 84 84 84 84 84 85 86 88 88 88 89 90 91 91 91 93 94 94 95 95 95 94 94 94 94 95 94 94 94 94 94 94 95 95 95 95 95 96 97 97 97 97 97 97 97 97 96 95 95 96 97 98 98 98 98 98 98 97 97 97 97 97 98 99 100 100 101 102 102 103 103 103 103 102 102 101 100 100 100 101 102 103 103 104 104 104 104 104 104 104 104 104 104 104 104 105 105 106 106 106 106 107 107 108 109 109 109 110 112 112 113 113 113 113 113 114 114 114 115 115 116 115 115 114 112 111 109 109 109 109 111 112 113 113 112 111 111 111 110 109 110 112 112 111 108 106 106 106 105 106 107 108 108 105 103 105 107 109 111 111 111 111 113 116 118 118 117 115 112 111 112 114 116 118 120 121 117 112 108 107 109 111 111 109 109 110 111 113 112 109 109 111 112 110 109 109 111 114 114 112 113 115 116 117 118 119 121 122 123 121 116 111 110 113 116 117 117 116 117 117 116 113 111 110 110 110 112 111 108 104 102 105 108 110 111 110 109 109 111 113 114 114 113 112 111 110 110 111 112 112 112 114 115 115 117 118 117 115 115 115 115 115 115 116 119 121 121 118 115 116 116 116 117 113 110 109 108 106 104 103 101 99 99 100 102 102 101 100 101 102 102 102 101 99 98 97 96 94 95 98 101 101 98 95 90 85 83 85 90 92 88 86 88 92 93 92 91 93 97 100 102 105 107 108 106 106 108 107 101 96 99 103 106 109 110 109 107 105 104 104 100 95 99 101 102 103 105 107 106 102 102 104 106 106 105 106 106 104 103 104 105 105 105 105 105 102 98 93 90 89 88 88 93 99 103 104 104 102 101 104 105 102 100 97 93 90 90 93 97 99 101 101 101 103 104 105 104 103 104 106 108 108 107 107 106 105 105 104 101 99 99 100 103 105 106 108 109 109 110 112 113 114 114 115 116 117 118 118 117 117 118 120 121 121 119 117 117 117 118 119 121 122 123 124 125 123 121 119 119 122 125 125 123 121 120 121 120 118 118 118 119 119 120 121 121 121 121 121 121 121 122 123 123 124 125 126 127 128 128 128 128 128 128 128 128 128 127 126 126 125 124 123 124 125 125 125 124 121 119 120 120 119 118 117 119 120 121 118 117 117 118 119 119 118 115 112 112 113 112 111 110 108 108 108 108 111 114 117 119 121 122 123 124 126 127 127 127 126 127 128 128 128 126 125 126 128 130 130 130 131 130 127 126 126 126 127 127 126 126 127 127 127 127 127 127 127 127 126 125 123 122 121 120 120 119 120 121 121 122 122 123 123 124 123 123 123 123 123 123 122 122 122 122 121 120 120 120 120 119 118 118 117 115 113 109 106 108 110 113 115 118 118 119 119 119 119 119 118 116 115 115 114 113 112 112 112 111 109 110 111 111 110 109 107 106 106 108 112 115 116 116 114 114 113 112 110 110 110 112 114
85 86 87 87 88 89 90 91 90 90 89 89 89 89 89 89 90 91 91 91 91 91 91 92 92 93 93 94 94 94 95 95 95 95 96 96 96 96 95 94 94 94 94 94 94 94 94 94 94 94 94 94 95 94 94 93 91 89 88 87 85 85 84 83 83 83 83 83 84 85 86 87 88 90 90 89 88 87 87 87 87 85 84 84 84 83 83 83 83 83 82 82 82 82 82 82 81 80 79 79 78 78 78 77 77 77 77 77 77 77 77 77 77 77 77 77 77 78 78 78 78 78 78 78 79 79 79 79 79 80 80 81 81 81 82 82 82 83 83 84 84 84 84 85 85 85 86 87 88 89 90 92 98 105 111 116 116 115 112 106 101 97 94 92 91 90 90 90 90 90 90 90 89 89 89 89 89 88 88 88 88 87 87 87 86 86 86 85 85 85 85 85 85 85 85 85 85 85 85 85 85 84 84 84 84 84 84 84 84 84 84 85 85 85 85 85 85 84 84 84 84 85 85 85 86 89 89 89 89 90 91 91 92 94 94 94 94 94 94 94 94 94 94 94 94 94 94 94 94 94 95 94 94 94 94 95 96 97 97 97 97 97 97 97 96 94 94 96 97 98 97 97 97 97 97 97 97 97 97 98 99 100 100 101 101 102 103 103 103 103 102 102 101 101 100 100 100 101 102 103 103 104 104 104 104 104 104 104 103 103 103 103 104 105 105 106 106 106 106 107 107 108 109 109 109 110 111 111 112 113 113 113 114 114 115 115 115 116 116 116 115 114 113 111 109 109 109 109 110 112 113 113 112 112 112 111 111 111 112 112 112 110 108 106 106 106 106 106 108 108 108 105 103 104 106 107 108 109 109 109 111 114 116 117 118 116 114 112 112 114 116 118 120 120 117 111 108 108 110 112 111 110 111 112 111 113 113 110 110 111 112 111 109 109 112 115 116 115 114 116 118 119 120 122 123 125 124 121 115 111 110 111 112 112 113 114 114 116 115 113 113 114 116 116 116 114 109 104 103 104 106 108 109 109 110 110 111 113 114 116 116 115 113 111 111 111 112 114 115 116 115 115 117 119 119 118 116 116 117 117 117 116 119 122 121 119 118 119 119 119 119 116 114 113 112 110 108 107 104 101 99 98 98 98 98 97 98 99 99 99 99 98 96 95 94 93 92 96 99 98 94 90 86 85 86 88 92 94 91 87 88 92 95 95 93 93 96 100 103 106 107 108 108 109 110 106 100 98 102 106 108 110 111 111 109 107 106 105 100 97 100 103 104 104 106 108 106 104 105 107 109 108 107 108 108 106 106 106 106 106 104 104 104 103 100 97 95 93 89 88 92 98 102 105 105 104 102 104 106 103 102 101 96 91 90 91 93 96 98 99 100 102 103 103 102 102 104 105 107 107 108 107 106 107 107 105 103 100 99 100 102 105 106 108 109 110 111 112 114 116 116 117 117 118 118 119 119 118 118 120 121 121 120 119 118 118 118 118 119 121 122 123 124 124 123 121 120 122 124 125 124 122 121 121 121 118 118 118 119 120 121 121 122 122 122 122 122 122 122 123 124 124 125 126 127 129 129 129 129 128 128 128 128 127 126 125 124 124 122 122 121 123 124 124 123 121 119 119 119 119 117 116 118 120 119 117 115 116 117 119 119 117 115 111 110 111 110 109 109 108 108 108 108 110 113 116 118 120 122 123 123 122 123 124 126 127 129 130 130 130 129 128 128 129 130 131 131 130 128 126 124 124 124 125 125 124 124 125 126 126 127 128 128 128 128 127 125 124 122 121 121 120 119 119 120 120 121 121 121 122 123 123 122 122 122 123 123 123 122 122 122 122 121 121 121 121 119 118 116 117 117 115 110 106 106 109 111 113 116 118 119 119 118 118 118 118 117 117 117 116 115 114 113 112 111 111 111 112 112 110 109 109 108 108 108 112 115 118 118 116 116 115 113 111 113 114 115 116
85 86 87 87 88 89 91 90 90 89 88 88 88 88 88 88 89 90 90 91 91 91 91 92 92 93 93 94 94 94 95 95 95 95 95 95 95 95 95 94 94 94 94 94 94 94 94 94 94 94 94 94 94 95 94 94 92 90 89 87 86 84 84 83 82 82 82 83 83 85 85 87 89 91 90 89 88 87 86 86 85 85 84 83 83 83 82 82 82 82 82 82 82 82 81 81 81 80 79 78 78 77 77 77 77 77 77 77 77 77 77 77 77 77 77 77 77 78 78 78 78 78 78 79 79 79 79 79 79 80 80 81 81 81 82 82 82 83 83 84 84 84 85 85 85 85 86 87 88 89 91 93 99 106 111 116 116 113 109 103 98 95 93 91 90 90 89 89 89 89 89 89 89 89 89 88 88 88 88 87 87 87 87 86 86 86 86 85 85 85 85 85 85 85 85 85 85 85 85 85 84 84 84 84 84 84 85 85 85 85 85 85 85 86 86 86 86 86 86 86 86 87 89 89 89 90 91 90 90 90 91 92 93 94 94 93 93 93 94 93 93 93 94 94 93 93 93 93 93 94 94 94 94 94 94 94 95 95 97 97 97 96 96 95 95 94 94 96 96 96 96 96 96 96 97 97 97 97 99 99 100 100 101 101 102 102 103 102 102 102 101 101 100 100 100 100 100 101 102 103 103 103 103 103 103 103 103 103 103 103 103 103 104 105 105 106 106 106 107 107 108 108 109 109 109 109 109 110 111 112 112 113 113 114 115 115 116 116 116 116 115 114 113 111 110 109 109 109 110 111 112 112 112 113 112 112 112 112 112 113 112 110 108 107 107 106 106 107 108 109 108 105 103 104 105 106 108 109 110 110 111 112 114 116 117 116 115 113 114 114 116 118 119 119 116 111 108 109 110 112 111 111 113 114 114 114 113 111 110 111 112 112 111 112 113 116 118 118 117 118 120 121 122 123 124 125 123 120 115 112 111 111 111 111 111 113 115 118 118 118 118 118 119 119 118 115 109 105 103 103 105 106 106 108 109 110 111 113 115 117 118 117 115 113 113 113 113 115 116 118 117 117 118 119 121 119 117 116 118 121 121 119 119 122 121 120 122 123 122 122 121 119 118 117 115 114 113 111 108 105 102 99 97 97 96 96 96 96 96 96 95 95 93 92 92 91 91 93 94 93 90 87 85 86 89 92 95 96 94 90 89 92 96 97 98 96 96 99 103 106 108 109 111 112 111 106 100 99 102 106 109 111 112 112 111 109 108 105 99 98 102 105 106 106 107 109 107 106 109 111 111 110 109 109 109 108 108 107 106 104 102 102 103 103 102 100 98 94 90 89 93 97 100 104 106 106 104 105 106 105 104 100 95 93 93 92 91 93 95 97 99 100 100 100 100 102 104 105 105 106 107 108 109 109 108 106 104 103 100 100 102 104 106 107 109 110 111 113 115 116 118 118 118 118 118 118 119 119 119 119 119 119 119 118 118 118 118 118 119 120 121 123 124 124 124 123 122 122 124 125 124 122 123 123 121 118 118 118 119 120 121 122 122 123 123 123 123 123 123 124 125 126 127 127 128 129 130 128 128 127 126 126 126 126 126 125 124 124 122 121 121 121 123 123 122 121 118 118 118 117 116 115 117 119 119 117 115 114 116 117 118 117 114 110 109 110 109 108 108 108 109 112 110 110 112 115 117 119 120 120 120 121 123 125 127 128 129 130 130 131 131 130 130 130 129 128 128 128 128 126 123 121 122 123 124 123 122 123 124 124 126 128 128 128 128 127 125 124 123 122 121 120 119 118 118 119 120 120 120 122 122 122 121 121 122 122 122 122 122 122 121 121 122 122 122 121 120 118 116 115 116 116 112 107 106 108 110 111 114 116 117 118 116 115 116 117 117 117 117 116 115 115 113 112 112 113 113 112 112 111 111 111 111 110 110 112 114 117 118 118 118 117 114 113 114 115 116 117
85 86 87 87 88 90 91 90 89 88 88 88 88 88 88 88 89 90 90 91 91 91 91 92 93 93 94 94 94 94 95 95 95 95 95 95 95 95 95 94 94 94 93 93 93 94 94 94 94 94 94 94 94 95 95 94 93 92 90 88 86 85 84 83 82 82 82 82 83 84 85 86 88 89 89 88 87 87 86 85 85 85 84 83 82 82 82 82 82 82 82 81 81 81 81 80 80 79 79 78 78 77 77 77 77 77 76 76 77 77 77 77 77 77 77 77 77 78 78 78 78 78 78 79 79 79 79 79 79 80 80 81 81 82 82 82 83 83 84 84 85 85 85 85 86 86 87 88 89 90 91 94 100 107 113 116 114 110 106 100 96 93 91 91 90 90 89 89 89 89 89 89 89 89 88 88 88 88 87 87 87 87 86 86 86 86 85 85 85 85 84 84 85 85 85 85 85 85 85 85 84 84 84 84 84 84 85 85 85 85 85 85 85 86 87 87 87 88 88 88 89 90 92 93 92 93 91 90 90 91 91 92 93 93 92 92 92 93 93 93 93 93 93 93 93 93 93 93 93 93 94 94 94 94 94 94 94 94 96 97 97 96 95 95 94 94 94 95 95 94 94 95 95 95 96 97 97 98 100 100 101 101 101 102 102 102 102 102 101 101 100 100 100 100 100 100 101 102 102 103 103 103 103 103 103 103 103 103 103 103 103 103 104 105 106 106 106 107 107 108 108 109 109 109 109 109 109 109 110 112 112 112 113 114 115 115 116 116 116 116 115 114 113 112 110 109 109 109 110 111 111 112 112 113 113 113 113 113 113 113 112 110 108 108 108 107 106 107 108 107 106 105 103 103 105 107 109 110 112 112 113 114 115 117 118 117 115 114 115 115 116 117 118 119 117 113 110 109 110 112 112 111 113 115 115 114 113 111 111 112 115 114 113 114 115 117 120 121 120 121 123 124 124 124 125 125 123 120 115 112 111 111 111 111 113 116 118 119 121 121 120 118 118 118 117 114 110 107 104 103 105 107 108 110 110 110 111 112 113 116 118 118 116 115 115 115 115 115 116 119 120 119 119 120 121 120 117 117 119 122 123 122 122 123 123 123 124 124 124 122 121 119 117 116 114 113 113 113 110 107 104 102 101 100 97 96 96 95 94 93 93 92 90 90 90 90 90 90 88 88 87 86 85 87 92 96 97 98 97 93 91 92 95 98 100 100 98 98 101 105 108 110 112 113 112 106 101 101 104 108 111 112 113 113 111 110 108 103 98 98 102 105 107 107 109 111 110 110 112 113 113 111 110 110 110 109 108 107 105 103 101 100 101 102 102 101 97 93 90 90 96 99 100 102 105 106 106 105 106 105 102 98 94 95 96 94 92 93 94 95 97 98 98 99 101 103 104 103 103 105 106 107 109 110 109 107 106 105 101 100 102 103 105 107 108 109 110 112 115 116 118 119 118 118 117 117 118 119 119 118 118 118 118 118 118 119 119 119 120 121 122 123 124 124 125 125 124 124 124 125 124 123 124 124 122 119 118 119 120 120 121 122 123 124 124 124 124 124 124 124 125 126 127 128 128 129 128 127 127 126 125 124 125 125 126 125 125 124 123 121 120 120 122 122 122 121 118 117 116 115 115 115 116 118 119 117 115 113 112 114 116 116 114 110 109 109 109 108 108 110 115 117 115 112 112 114 116 118 119 119 119 121 123 126 127 128 127 127 129 130 131 131 129 128 126 125 126 127 127 125 123 121 121 122 123 122 121 122 123 123 125 127 128 128 128 127 125 124 124 123 122 121 119 118 118 118 119 119 120 121 122 122 121 121 121 121 122 122 122 121 121 121 122 122 122 122 121 120 118 115 113 114 113 108 105 106 108 109 112 113 115 116 115 113 114 115 115 116 117 116 115 115 113 113 114 115 114 112 112 113 113 113 113 113 112 112 114 117 119 119 119 118 115 114 115 116 116 117
85 86 87 88 89 90 90 90 89 88 88 88 88 88 88 88 89 90 90 91 91 92 92 92 92 93 93 94 94 94 94 94 95 95 95 95 95 95 95 94 94 93 93 93 93 93 93 93 94 94 94 94 94 94 95 94 94 92 91 89 87 85 84 83 82 82 82 82 83 84 84 85 86 87 87 87 86 85 85 84 84 84 84 83 82 82 82 82 82 81 81 81 81 80 80 79 79 79 78 78 78 77 77 76 76 76 76 76 76 77 77 77 77 77 77 77 78 78 78 78 78 78 78 79 79 79 79 79 80 80 81 81 81 82 82 82 83 83 84 84 85 85 86 86 86 87 88 88 89 90 92 95 102 109 114 115 113 108 104 98 94 92 91 90 90 89 89 88 88 88 88 89 89 88 88 88 88 87 87 87 87 86 86 86 86 86 85 85 85 84 84 84 84 85 85 84 84 84 85 85 84 84 84 84 84 84 85 85 85 86 86 86 86 87 87 88 88 88 89 90 90 91 92 93 93 92 91 91 91 91 92 92 92 91 91 91 91 92 92 91 91 92 92 92 92 92 92 92 92 93 93 93 93 93 93 93 94 94 96 96 96 95 94 94 94 94 94 94 94 94 94 94 94 95 96 97 98 99 100 101 101 101 101 102 102 101 101 100 100 100 100 100 100 100 100 100 101 102 103 103 103 103 103 103 103 103 103 103 103 103 103 104 104 105 106 106 106 107 107 108 109 109 109 109 109 109 109 109 110 111 112 112 113 113 114 115 116 116 116 116 115 115 114 112 111 110 109 109 110 111 111 112 112 113 113 113 113 113 113 113 112 111 109 109 109 108 107 107 108 107 106 105 104 104 105 107 108 110 111 112 114 115 116 117 118 117 116 115 115 116 117 117 118 119 118 114 111 110 111 112 112 112 113 114 115 115 114 112 111 113 116 117 116 116 117 118 120 123 122 122 124 125 125 125 125 124 122 119 115 112 111 111 111 113 116 119 120 121 122 121 120 118 117 117 116 114 111 108 105 103 105 108 111 112 113 112 111 112 113 115 117 118 118 116 116 117 117 116 117 120 122 121 120 121 122 120 118 117 119 122 124 124 124 124 124 124 124 124 123 120 117 115 114 112 111 110 110 110 108 106 104 103 102 101 98 96 96 95 94 94 94 93 92 90 90 90 90 90 88 87 87 86 86 88 92 95 98 99 98 96 93 93 96 98 100 101 100 99 100 103 107 109 112 115 112 107 102 103 107 109 112 113 114 114 112 111 107 102 98 99 102 105 107 109 110 112 112 113 114 114 112 110 109 109 109 109 107 106 104 101 99 98 99 100 99 98 95 92 90 92 97 100 101 102 104 106 106 106 105 102 99 96 96 97 97 96 93 93 93 94 95 96 96 99 101 102 103 102 102 105 106 107 109 110 110 109 108 107 103 101 102 103 105 106 107 108 110 112 115 116 117 117 117 116 116 116 117 117 118 117 117 116 116 117 118 118 118 119 120 121 122 123 124 124 125 125 125 125 124 125 124 124 125 125 123 120 119 120 120 121 121 121 123 124 125 125 125 125 125 124 125 126 127 127 127 128 127 125 125 125 124 123 123 124 125 126 125 125 124 122 120 120 120 121 121 120 118 116 115 114 114 114 116 118 119 118 116 114 112 112 114 115 112 110 108 108 108 108 108 112 116 118 117 114 113 112 114 117 117 118 119 120 122 125 126 125 126 127 128 130 131 130 129 126 124 124 125 126 126 125 123 121 120 120 121 121 121 121 122 123 126 128 128 128 127 126 125 125 125 124 123 122 120 118 118 118 118 119 120 121 122 122 121 121 121 121 121 121 122 121 121 121 121 121 121 121 121 121 119 116 113 112 113 109 105 105 107 108 110 112 114 115 115 112 112 113 114 117 117 116 115 115 114 114 115 115 114 114 114 114 115 115 115 114 114 113 115 118 119 120 119 118 116 116 117 117 117 117
85 86 87 88 89 91 90 89 88 88 88 88 88 88 88 89 89 90 90 91 91 91 91 91 92 92 93 93 94 94 94 94 94 94 94 95 95 95 95 94 94 93 93 93 93 93 93 93 93 93 94 94 94 94 94 95 94 93 92 90 89 87 86 84 83 82 82 82 82 83 83 84 84 85 85 85 84 84 84 84 83 82 82 82 82 82 82 82 82 81 81 80 80 80 79 79 78 78 78 78 77 77 77 76 76 76 76 76 76 77 77 77 77 77 77 78 78 78 78 78 78 78 79 79 79 79 80 80 80 80 81 81 82 82 82 82 83 83 84 85 85 86 86 86 87 87 88 89 90 92 94 97 104 112 114 113 109 104 100 95 93 91 90 90 89 89 89 88 88 88 88 88 88 88 88 87 87 87 86 86 86 86 86 86 86 85 85 85 84 84 84 84 84 84 84 84 84 84 84 84 84 84 84 84 84 85 85 85 85 86 86 86 87 87 88 88 88 89 89 90 90 90 90 90 90 90 90 90 90 90 91 91 90 90 90 90 91 91 91 91 91 91 92 91 91 91 91 91 92 92 92 92 92 92 92 93 93 94 94 95 95 94 93 93 93 93 94 94 94 94 94 94 95 97 97 97 98 99 100 100 101 101 101 101 101 100 100 100 100 100 100 100 100 100 100 101 102 102 103 103 103 103 103 103 103 103 103 103 103 103 104 104 105 105 106 106 107 107 108 108 109 110 110 110 110 109 110 110 111 111 112 112 112 113 114 115 116 116 116 116 116 115 115 113 111 111 110 110 111 111 111 112 112 113 113 113 113 113 113 113 112 112 110 109 109 108 108 108 108 108 108 108 106 105 105 106 108 109 110 112 113 115 116 116 117 117 117 116 116 116 117 117 118 118 117 115 113 112 113 114 113 112 112 113 114 116 116 114 113 114 116 118 118 120 121 122 123 124 124 125 126 126 125 124 123 122 120 116 113 112 112 114 115 114 116 119 121 122 122 121 119 117 115 115 115 114 112 110 106 104 105 107 110 113 116 116 114 114 114 115 116 118 118 118 119 120 120 118 118 121 123 124 123 123 122 121 118 117 119 122 124 125 126 127 126 124 122 121 119 116 112 110 109 108 107 106 105 105 104 103 101 100 100 99 97 96 96 96 95 97 99 99 97 95 92 91 93 95 94 92 90 87 86 89 93 96 99 100 100 99 96 95 96 98 101 103 103 101 101 104 106 108 111 114 113 108 103 104 108 111 113 114 115 116 114 112 108 102 100 99 101 103 105 107 111 113 114 115 115 114 112 110 107 106 107 107 107 106 103 100 98 96 96 95 94 93 92 90 90 93 97 100 102 103 105 107 108 106 102 99 97 96 98 100 99 96 94 94 94 94 94 94 95 97 98 100 100 100 102 103 105 107 108 110 111 111 111 109 105 103 102 103 104 105 107 109 110 112 114 115 115 115 115 114 114 114 115 116 115 115 115 115 115 116 117 118 118 119 120 121 122 123 124 124 125 125 125 125 125 125 125 125 125 125 123 121 120 121 121 121 121 121 123 124 124 126 127 127 126 125 125 126 126 126 126 126 125 124 124 125 124 121 122 123 124 125 125 125 124 122 119 118 119 119 119 119 118 117 115 114 113 113 115 118 119 120 120 117 113 111 112 112 111 108 107 107 107 108 108 111 116 119 118 117 116 114 114 115 116 117 118 119 121 121 123 124 126 128 129 130 129 129 127 124 122 121 124 125 126 125 123 120 119 118 119 121 120 120 121 124 127 128 128 127 126 125 124 124 125 125 124 122 121 119 118 118 118 118 119 120 121 121 120 120 120 121 121 121 122 120 119 119 120 120 120 121 121 121 119 117 114 112 111 109 106 106 106 107 108 110 111 112 112 112 112 114 116 117 116 115 114 114 116 117 117 116 116 116 117 117 118 118 118 117 117 117 119 121 121 121 120 118 118 119 118 118 118 118
85 86 87 88 90 91 90 88 88 88 88 88 88 88 88 89 89 90 90 91 91 91 91 91 92 92 93 93 93 94 94 94 94 94 94 94 94 94 94 94 94 93 93 92 92 92 92 93 93 93 93 94 94 94 94 95 94 94 93 92 90 89 88 86 84 83 82 82 82 82 83 83 84 84 84 83 83 83 83 83 82 82 82 82 82 82 82 82 82 81 81 80 79 79 79 79 78 78 78 78 77 77 77 76 76 76 76 76 76 77 77 77 77 77 77 78 78 78 78 78 78 79 79 79 79 80 80 80 81 81 82 82 82 82 82 82 83 84 84 85 85 86 86 87 87 88 89 89 91 92 95 99 106 112 112 109 105 101 97 94 91 91 90 90 89 89 88 88 88 88 88 88 88 88 87 87 87 86 86 86 86 86 85 85 85 85 85 85 84 84 84 84 84 84 84 84 84 84 84 83 83 83 84 84 85 85 85 85 86 86 86 87 87 88 88 88 88 88 88 88 88 88 89 89 89 89 89 89 89 90 90 90 89 89 89 89 90 90 90 90 90 91 91 91 91 91 91 91 92 92 91 91 91 92 92 93 93 93 94 94 94 94 93 93 93 93 93 94 94 94 95 95 96 97 98 98 98 99 100 100 100 101 101 101 101 100 99 99 99 99 99 100 100 100 101 102 102 103 103 103 103 103 103 103 103 103 103 103 103 103 105 105 105 106 106 106 107 107 108 109 109 110 110 110 110 110 110 111 111 112 112 112 112 113 114 115 115 116 116 117 116 116 115 113 112 111 111 111 111 112 112 112 113 113 113 114 114 114 114 113 113 112 111 110 109 109 109 109 109 109 109 109 107 106 106 106 107 109 110 111 112 113 114 115 116 117 117 117 117 117 117 117 117 116 115 115 114 114 114 115 115 114 113 113 114 116 117 115 115 115 116 118 119 122 124 124 125 126 126 126 126 125 122 122 121 118 116 113 112 113 115 117 117 116 117 119 121 121 121 121 120 118 115 114 114 114 112 110 107 105 106 109 111 114 116 118 118 119 118 118 118 118 120 120 120 122 123 121 119 121 124 125 124 124 123 122 120 118 119 122 123 125 126 126 124 121 118 116 114 112 111 110 110 108 107 105 105 104 104 103 102 101 99 98 99 99 99 98 98 101 102 103 101 98 94 94 98 101 101 97 92 88 87 88 91 92 95 98 101 101 99 97 97 98 100 103 104 104 103 105 107 110 113 115 114 108 103 104 108 111 113 115 117 117 115 111 107 102 100 101 101 103 105 107 110 113 114 115 115 114 113 110 107 105 105 105 106 106 104 101 98 96 96 97 96 94 92 90 90 92 96 100 103 105 107 108 108 104 101 99 98 98 100 102 99 95 94 96 97 98 97 96 95 96 97 97 98 100 102 103 105 106 107 110 112 112 112 111 108 104 103 103 104 106 107 109 110 111 113 113 113 113 113 112 112 113 114 115 114 114 114 114 115 117 117 118 119 119 120 121 121 122 123 124 124 125 125 125 125 125 125 125 125 124 123 121 121 121 122 122 122 122 123 124 125 126 127 128 127 126 125 125 125 125 125 125 124 124 124 124 123 121 121 122 123 124 125 125 124 122 120 118 118 118 118 118 118 117 115 113 112 112 115 117 119 120 121 119 115 112 109 109 109 107 107 107 109 111 112 114 118 120 120 119 118 117 117 116 116 117 118 119 120 121 123 124 126 128 129 129 129 128 126 123 121 120 122 125 126 124 122 119 118 118 119 119 118 119 120 123 127 128 127 127 125 123 123 124 125 125 125 123 121 120 118 118 118 118 118 119 120 120 120 120 120 120 121 121 122 120 119 119 119 119 120 120 120 121 119 117 114 112 110 109 107 106 106 106 107 108 109 110 110 111 114 115 116 115 113 112 113 114 116 118 119 119 118 118 120 120 121 121 121 119 120 120 121 122 122 122 121 120 120 120 119 118 118 119
86 87 87 88 90 90 89 88 88 88 88 88 88 88 88 89 89 90 90 90 90 91 91 91 92 92 92 93 93 93 93 93 94 94 94 94 94 94 94 94 93 93 93 92 92 92 92 92 92 93 93 93 94 94 94 94 95 94 94 93 92 90 89 87 85 83 82 82 82 82 82 82 82 83 82 82 82 82 82 82 82 82 82 82 81 81 81 81 81 81 80 80 79 79 79 78 78 78 78 77 77 77 76 76 76 76 76 76 76 77 77 77 77 77 77 78 78 78 78 78 79 79 79 79 79 80 80 81 81 81 82 82 82 82 82 82 83 84 84 85 85 86 86 87 88 88 89 90 91 93 95 101 107 111 110 106 101 97 95 93 91 90 90 89 89 88 88 88 87 87 87 87 87 87 87 86 86 86 85 85 85 85 85 85 85 85 85 84 84 84 83 83 83 83 83 83 83 82 82 82 82 83 84 84 85 85 85 85 86 86 86 87 87 87 87 87 87 87 87 87 87 87 88 88 88 88 88 88 88 89 89 89 88 88 88 88 89 89 88 88 89 90 90 90 90 90 90 91 91 91 91 91 91 92 92 92 92 92 93 93 93 93 92 92 92 92 93 94 94 94 95 95 96 97 97 98 99 99 100 100 100 101 101 100 99 99 98 98 98 99 99 100 100 101 101 102 103 103 103 103 103 102 102 102 103 103 103 103 103 104 106 106 106 106 106 106 107 107 108 109 109 109 110 110 111 111 111 111 112 112 112 113 113 113 114 115 115 116 116 117 116 116 115 114 113 112 111 111 112 112 112 113 113 113 114 114 114 114 114 114 113 113 112 110 109 110 111 111 111 110 110 110 109 107 106 106 108 109 110 111 112 112 113 114 115 117 118 118 117 117 117 116 116 116 115 115 115 115 116 117 117 117 115 114 114 116 117 117 117 117 118 120 121 123 124 126 127 127 127 126 125 122 119 119 118 115 114 113 114 115 117 119 119 118 118 119 120 120 120 120 120 118 115 112 112 111 110 107 105 106 109 112 114 116 117 118 121 122 121 121 120 120 121 122 122 123 124 122 121 121 124 125 125 125 124 124 121 118 119 121 122 123 124 124 122 119 117 116 115 115 115 114 112 110 110 110 110 108 107 107 108 106 103 101 102 103 101 101 102 104 105 105 103 99 95 96 102 105 103 98 92 88 87 87 88 90 94 99 102 103 102 100 98 99 101 103 105 106 105 106 108 111 114 115 113 107 104 107 109 111 113 114 117 117 113 108 104 102 103 103 103 103 105 107 110 113 114 115 115 114 113 111 108 106 104 103 104 105 103 100 97 97 99 100 99 96 92 90 90 92 96 99 102 105 108 109 108 104 103 102 100 100 102 102 99 96 95 98 100 101 100 99 97 96 97 97 97 100 102 103 103 104 106 108 111 112 114 113 111 106 103 103 103 104 106 107 107 109 111 111 111 111 111 111 111 112 113 113 113 112 112 114 115 116 117 118 118 119 120 120 121 122 122 123 123 123 124 124 124 124 124 124 124 123 122 121 121 121 122 122 123 123 124 125 127 127 128 128 127 125 124 124 124 123 124 124 123 122 122 123 122 121 121 121 122 123 124 123 123 122 121 118 118 117 116 116 116 116 115 114 112 112 114 116 118 119 120 119 117 114 110 107 107 106 106 108 111 115 117 118 121 121 121 121 121 120 119 118 118 119 120 121 122 124 125 127 128 128 127 127 127 126 125 123 121 119 120 123 125 124 121 119 117 117 117 117 117 119 122 125 127 128 127 126 124 122 122 124 125 125 124 123 121 120 118 118 118 118 118 118 118 119 119 119 119 120 120 121 122 120 118 118 118 119 119 119 120 120 119 117 114 112 111 111 110 107 106 105 106 107 108 109 109 111 114 116 116 112 112 112 113 115 116 119 121 121 120 120 121 122 122 122 122 121 121 121 121 122 122 122 122 121 121 120 119 117 115 114
86 87 88 89 89 89 88 88 88 88 88 88 88 88 88 89 89 90 90 90 90 91 91 91 92 92 92 92 93 93 93 93 93 94 94 94 94 94 94 93 93 93 92 92 91 91 91 92 92 92 93 93 93 94 94 94 95 95 94 94 93 93 91 89 87 85 83 82 82 82 82 82 82 82 82 82 82 82 82 82 82 82 82 81 81 81 81 81 80 80 80 79 79 79 79 78 78 78 78 77 77 77 76 76 76 76 76 76 76 77 77 77 77 77 77 78 78 78 79 79 79 79 79 79 80 80 81 81 82 82 82 82 82 83 83 83 83 84 84 85 85 86 87 87 88 89 90 91 92 94 96 101 107 109 107 102 98 94 93 91 91 90 89 89 88 88 88 88 87 87 87 87 87 86 86 86 86 85 85 85 85 85 85 85 85 84 84 84 84 83 83 83 83 83 83 83 82 82 82 82 82 83 84 84 85 85 85 85 86 86 86 87 87 87 87 87 87 86 86 86 86 87 87 87 87 87 87 88 88 88 88 88 88 87 87 88 88 88 88 88 89 89 90 89 89 89 89 90 91 91 91 91 91 92 92 92 92 92 92 92 93 92 91 91 91 92 93 94 94 94 95 96 96 97 97 98 99 99 100 100 100 100 100 99 98 98 97 97 98 99 99 100 100 101 102 102 103 104 103 102 102 102 102 102 103 103 103 103 104 105 106 107 107 107 107 107 107 108 108 109 109 109 110 110 110 111 112 112 112 113 113 113 114 114 114 115 115 116 116 117 117 116 116 115 113 112 112 112 112 113 113 113 114 114 114 115 115 115 115 114 114 113 112 110 111 112 114 114 112 111 111 110 109 108 106 106 108 110 110 111 112 112 113 114 115 116 117 118 117 117 116 116 116 116 115 115 116 116 116 117 118 118 117 115 115 115 118 120 120 120 121 123 124 124 125 126 127 127 126 125 124 121 119 118 117 116 116 116 116 117 118 119 119 119 119 119 119 119 118 119 120 118 115 112 111 110 108 106 105 108 112 114 116 118 119 120 122 124 124 124 123 122 123 123 124 125 126 123 121 122 124 126 126 126 126 126 123 119 119 120 122 123 124 123 122 121 120 120 121 120 118 114 112 114 116 116 115 112 110 112 113 110 107 103 103 104 103 104 105 105 106 106 103 98 96 98 102 105 102 98 93 89 87 87 90 91 93 98 102 105 105 103 101 100 101 103 105 107 108 107 108 111 114 115 112 106 105 107 110 112 114 116 118 116 112 107 104 103 104 105 107 106 105 106 109 112 113 114 114 114 113 111 109 107 104 102 102 102 101 99 98 99 100 99 98 94 91 90 92 96 98 99 101 104 108 109 109 107 106 104 102 102 103 102 98 96 96 99 101 103 102 100 98 97 97 97 97 99 101 101 103 106 107 110 111 113 114 115 113 109 105 103 103 103 104 105 105 106 108 109 109 109 109 109 111 112 113 113 112 112 112 113 114 116 117 118 118 119 120 120 121 121 122 122 122 123 123 123 123 124 124 124 124 123 122 121 121 121 122 122 123 124 125 126 127 128 128 128 127 125 124 123 123 122 122 123 122 122 122 122 121 120 120 121 122 123 123 122 122 122 121 120 118 117 116 115 115 115 116 115 113 112 113 115 116 118 119 117 117 114 110 107 106 106 107 108 112 116 118 119 120 121 121 121 122 122 121 120 119 120 122 122 123 125 126 128 128 126 125 125 125 125 125 123 121 118 119 121 123 123 120 119 117 116 115 116 117 120 123 125 127 128 126 124 122 121 122 124 125 124 124 123 121 121 120 119 118 118 118 116 117 118 118 119 119 119 120 121 122 120 118 118 118 118 118 119 120 120 119 117 116 115 115 114 113 110 106 105 105 106 107 108 110 113 114 116 115 112 112 112 115 117 118 119 121 122 120 120 121 122 122 122 123 122 122 122 122 122 122 122 122 122 121 119 117 115 114 113
86 87 88 89 89 88 88 88 88 88 88 88 88 88 89 89 89 90 90 90 90 91 91 91 91 91 92 92 92 92 93 93 93 93 93 94 94 93 93 93 93 92 92 92 91 91 91 91 92 92 93 93 93 94 94 94 94 95 95 94 94 93 92 90 87 85 84 82 82 82 82 82 82 82 82 82 81 81 81 81 81 81 81 81 81 81 80 80 79 79 79 79 79 78 78 78 78 78 77 77 77 76 76 76 76 76 76 76 77 77 77 77 77 77 78 78 78 79 79 79 79 79 79 80 80 81 81 81 82 82 82 82 82 83 83 83 84 84 84 85 85 86 87 87 88 89 90 91 93 95 97 102 108 108 105 100 96 93 92 91 91 90 89 88 88 88 88 87 87 87 87 86 86 86 86 86 85 85 85 85 84 84 84 84 84 84 84 84 83 83 83 83 82 82 83 82 82 82 82 82 82 83 84 84 85 85 85 85 86 86 86 86 86 86 86 86 86 85 85 85 85 86 86 86 86 86 86 87 87 87 87 87 87 86 86 86 87 87 87 87 88 88 89 88 88 88 88 89 90 90 90 90 91 91 91 91 91 91 92 92 92 92 91 91 91 92 93 94 94 95 95 96 96 97 98 99 99 100 100 100 100 99 99 98 97 97 97 97 98 99 99 100 101 101 102 103 103 103 102 101 101 101 102 102 103 103 103 104 104 105 106 107 107 107 107 107 107 108 108 109 109 109 109 110 110 111 112 112 113 113 114 114 114 115 115 115 115 116 116 116 117 117 116 115 114 112 112 112 112 113 113 114 114 114 115 115 115 115 115 115 115 114 112 111 112 114 115 115 114 112 111 110 109 107 106 106 108 110 110 111 112 112 112 113 114 116 117 117 116 116 116 116 116 115 115 116 117 117 117 117 118 119 118 116 115 116 119 121 122 122 123 124 125 125 125 126 126 126 125 124 123 122 120 118 117 118 118 117 118 119 119 120 120 120 118 118 118 119 118 119 120 119 116 112 110 109 107 106 106 110 113 115 117 118 119 120 122 123 124 125 124 123 124 124 124 126 127 124 122 123 125 126 127 127 127 126 123 120 119 120 121 123 124 123 123 124 123 123 123 121 117 114 114 117 120 120 118 115 114 115 115 113 109 105 103 104 105 106 106 106 106 106 103 99 97 99 102 103 100 97 93 89 87 88 92 95 95 97 101 105 106 106 103 100 101 103 106 108 109 108 109 111 114 114 111 107 105 107 111 114 116 117 118 115 111 106 104 103 105 107 109 108 107 107 109 111 112 113 114 113 113 111 109 107 104 102 101 100 100 99 99 99 98 96 94 92 90 90 94 99 100 100 102 104 107 108 109 109 108 105 103 103 103 101 97 96 96 99 102 104 104 101 99 99 99 98 97 98 99 101 104 107 110 112 113 114 115 115 115 111 107 105 104 104 103 104 105 105 106 107 107 108 108 109 110 111 112 112 112 112 112 113 114 116 118 118 118 119 119 119 120 121 122 121 121 122 122 122 122 122 122 123 123 123 122 122 122 122 122 123 123 124 125 126 127 128 128 127 126 125 124 123 122 122 122 122 122 121 121 121 121 119 119 121 122 123 123 122 121 121 122 121 119 118 117 115 114 115 115 115 114 112 112 113 115 117 118 116 115 113 110 108 106 106 107 108 111 115 117 119 119 119 120 120 123 123 122 121 121 121 122 124 124 126 127 128 127 125 123 124 124 124 125 123 120 118 118 119 121 121 120 118 117 115 115 115 117 120 123 125 127 128 126 124 122 121 122 124 125 124 124 123 122 122 121 120 121 119 118 116 116 117 118 118 118 118 120 121 121 120 118 117 117 117 118 119 119 119 119 118 118 116 116 115 114 111 108 106 105 105 106 108 111 113 115 115 114 111 111 112 115 117 118 119 120 120 119 119 121 121 121 122 122 122 121 120 121 121 121 120 121 121 120 118 117 115 113 111
87 88 88 89 88 88 88 88 88 88 88 88 88 88 89 89 89 89 90 90 90 91 91 91 91 91 91 92 92 92 92 93 93 93 93 93 93 93 93 93 92 92 92 91 91 91 91 91 92 92 93 93 93 94 94 94 94 95 95 95 94 94 93 91 88 86 84 83 82 82 82 82 82 81 81 81 81 81 81 81 81 81 81 81 80 80 80 79 79 79 79 79 79 78 78 78 78 77 77 77 77 76 76 76 76 76 76 76 77 77 77 77 78 78 78 78 78 79 79 79 79 80 80 81 81 82 82 82 82 82 82 82 82 83 83 84 84 84 85 85 85 86 87 87 88 89 90 92 94 96 98 102 106 105 102 99 95 92 91 91 90 90 89 88 88 88 88 87 87 87 86 86 86 85 85 85 85 85 85 84 84 84 84 84 84 84 84 83 83 83 83 82 82 82 82 82 82 82 82 82 83 83 84 84 85 85 85 86 86 86 86 86 86 86 85 85 85 85 85 85 85 86 86 86 86 86 86 86 87 87 87 86 86 85 85 85 85 86 86 87 88 88 88 88 88 88 88 89 89 89 89 90 90 91 91 91 91 91 91 91 91 91 91 91 91 92 93 94 95 95 96 96 97 97 98 99 100 100 101 100 99 98 98 97 97 97 97 97 98 99 100 100 101 102 102 103 103 103 102 101 101 101 102 102 103 103 104 104 105 105 106 107 107 107 108 108 108 108 108 109 109 109 109 110 110 111 112 112 113 113 114 115 115 115 115 115 115 116 116 116 117 117 117 116 115 113 112 112 112 113 113 114 115 115 115 115 115 115 115 115 116 114 112 112 112 114 115 116 115 114 112 111 109 107 106 106 108 110 110 110 111 111 112 112 113 114 115 115 115 116 115 115 115 115 115 116 117 118 118 118 118 119 119 119 118 118 121 123 124 124 124 125 126 125 125 125 125 125 124 124 123 122 122 120 119 118 118 118 119 121 121 122 121 120 118 118 118 119 117 116 118 117 114 111 109 108 106 106 107 110 111 113 114 115 116 118 119 121 124 125 124 125 126 127 127 128 128 126 125 126 128 129 129 129 128 126 124 121 120 121 122 123 124 124 124 125 125 124 122 118 116 116 118 122 124 124 122 119 117 116 116 114 110 106 104 105 107 108 108 107 107 105 103 100 99 101 103 101 98 94 91 88 88 89 94 99 100 100 101 104 107 108 105 102 102 105 107 109 109 109 110 113 115 114 111 108 106 107 111 113 116 118 117 113 108 105 104 105 107 109 111 110 109 109 110 111 112 113 113 113 112 110 109 107 105 103 101 100 100 100 98 96 94 92 91 91 91 92 96 100 102 103 104 105 107 108 109 109 108 106 105 103 101 99 98 97 98 100 102 104 104 101 100 100 100 99 98 98 99 102 105 108 111 112 113 114 115 115 115 113 109 106 107 106 105 105 105 105 106 106 106 107 108 109 109 110 110 111 112 114 113 114 115 116 117 118 119 119 119 119 120 121 121 121 121 121 121 121 122 122 122 122 123 123 122 122 122 122 123 123 124 125 126 127 127 128 127 126 125 125 123 122 122 122 122 122 122 121 119 119 119 118 118 121 122 123 123 122 121 121 121 121 120 119 118 115 114 113 114 115 115 112 110 112 114 116 116 114 112 110 108 106 106 106 107 108 110 113 116 117 118 118 119 121 123 124 123 123 123 123 125 126 126 127 127 126 124 122 121 121 121 122 123 122 120 117 116 118 120 119 118 117 115 115 115 115 118 120 123 125 127 128 125 123 121 121 123 124 125 125 125 124 123 122 121 121 121 120 118 116 115 116 117 117 117 118 118 119 120 120 119 117 116 117 118 119 119 119 119 119 119 117 117 116 115 112 110 107 105 105 105 108 111 113 115 114 112 111 111 112 115 117 118 119 119 119 117 118 118 120 121 121 121 120 119 119 120 120 120 119 118 120 120 118 116 113 112 111
87 87 88 88 88 88 88 87 87 87 88 88 88 88 89 89 89 89 90 90 90 91 91 91 91 91 91 91 92 92 92 92 93 93 93 93 93 92 92 92 92 92 91 91 91 91 91 91 92 92 92 93 93 93 94 94 94 95 95 95 95 94 93 92 89 86 85 83 82 82 82 81 81 81 81 81 81 81 80 80 80 80 80 80 80 80 80 79 79 79 79 79 79 78 78 78 78 77 77 77 77 76 76 76 76 76 76 77 77 77 77 77 78 78 78 78 78 79 79 79 80 80 80 81 82 82 82 82 82 82 83 83 83 83 84 84 84 84 85 85 85 86 87 87 88 90 91 93 95 96 98 101 104 103 100 97 94 91 91 90 90 89 89 88 88 88 87 87 87 86 86 86 85 85 85 85 85 85 85 84 84 84 84 84 83 83 83 83 83 82 82 82 82 82 82 82 82 82 82 82 83 83 84 85 85 85 85 86 86 86 86 85 85 85 85 85 85 84 84 84 85 85 85 85 85 85 85 86 86 86 85 85 85 85 85 85 85 85 86 87 87 87 88 88 88 88 88 88 88 88 88 89 89 89 90 89 89 89 90 91 91 91 91 91 92 93 94 94 95 95 96 96 97 98 98 99 100 100 100 99 98 97 97 97 97 97 97 98 99 100 100 101 101 102 102 102 102 101 100 100 100 101 102 102 103 103 104 104 105 105 106 106 107 108 108 108 108 108 108 109 109 109 109 110 111 111 112 112 113 114 114 115 116 116 116 116 115 115 115 116 117 118 118 118 116 114 112 112 112 112 113 114 114 115 116 115 115 115 115 116 115 114 112 112 112 113 114 114 115 114 113 110 107 106 106 106 107 108 109 110 109 109 110 111 111 112 113 113 114 114 114 114 115 115 115 116 117 118 119 119 119 119 120 121 121 121 123 123 124 124 124 124 124 124 124 124 123 123 123 123 124 124 124 122 119 118 118 119 121 122 123 124 123 122 120 118 117 116 115 115 115 114 112 110 110 112 110 107 107 109 111 113 114 115 115 116 118 120 123 124 124 125 127 128 129 130 130 129 128 129 130 131 130 129 128 125 123 121 120 121 123 125 126 126 126 126 125 122 119 117 118 120 123 125 125 124 123 121 118 116 114 113 110 107 106 106 107 107 108 107 106 104 101 100 100 102 102 99 95 92 89 89 91 92 94 99 102 104 104 105 108 109 106 103 103 106 109 110 110 110 111 114 116 116 113 110 108 108 110 113 115 117 115 110 107 106 106 107 109 111 112 112 111 112 112 112 112 113 113 112 111 109 108 107 105 102 100 100 100 99 97 94 93 92 93 95 96 94 96 99 102 104 106 106 107 108 108 109 108 107 106 103 101 100 100 99 99 101 104 105 104 102 100 101 102 100 99 98 99 102 106 109 110 111 111 111 112 114 115 114 111 109 109 108 107 107 107 107 106 106 106 107 107 108 109 109 109 111 113 115 115 114 115 116 117 117 118 118 118 120 121 121 121 120 119 119 119 119 120 120 121 122 122 123 123 123 123 123 123 124 124 125 126 127 128 128 126 124 124 123 123 122 122 121 121 121 122 121 119 118 118 118 119 121 122 122 122 122 120 119 120 121 120 119 118 116 114 112 113 114 115 111 109 110 113 115 114 112 110 108 107 105 105 107 109 109 109 112 113 115 116 117 119 120 121 122 123 123 125 126 127 127 127 127 127 125 123 121 119 119 119 120 121 121 119 116 115 117 118 118 117 115 114 114 115 118 121 124 125 126 127 127 124 122 121 121 124 125 127 126 125 125 124 123 122 122 121 120 119 116 115 115 115 116 116 116 116 117 118 119 119 117 115 116 118 118 119 118 118 118 118 117 116 116 115 113 111 108 105 105 105 107 110 112 114 113 111 110 109 111 114 116 118 118 117 116 115 117 117 119 119 119 119 118 117 117 119 119 119 118 117 118 119 117 115 113 111 109
87 87 88 88 88 88 88 87 87 87 88 88 88 88 89 89 89 89 89 90 90 91 91 91 91 91 91 91 91 92 92 92 93 93 93 93 92 92 92 92 92 92 91 91 91 91 91 91 91 92 92 93 93 93 94 94 94 95 95 95 95 94 93 92 90 88 86 85 83 82 82 81 81 81 81 81 81 80 80 80 80 80 80 80 80 80 80 80 79 79 79 79 79 78 78 78 78 77 77 77 76 76 76 76 76 76 76 77 77 77 78 78 78 79 79 78 78 79 79 79 80 80 81 82 82 82 82 82 82 82 83 83 83 84 84 84 85 85 85 85 85 86 87 88 89 91 93 94 96 98 99 100 102 100 98 95 92 91 90 90 90 89 89 89 88 88 87 87 86 86 86 85 85 85 85 85 85 85 85 84 84 84 84 83 83 83 83 83 82 82 82 82 82 82 82 82 82 82 82 82 83 84 84 85 85 85 85 85 85 85 85 85 85 85 84 84 84 84 84 84 85 85 85 85 85 85 85 86 85 85 85 85 85 85 85 85 85 85 86 87 87 87 87 87 87 87 88 88 88 88 88 88 88 88 88 88 88 88 89 90 91 91 91 91 92 93 94 95 95 96 96 97 97 98 98 99 99 100 99 98 97 97 97 97 97 97 98 99 99 100 101 101 101 101 102 101 101 100 100 100 100 101 102 103 103 103 104 105 105 105 106 106 107 108 109 109 109 109 109 109 109 109 109 110 111 112 112 113 113 114 115 115 116 116 116 115 115 115 115 116 117 118 119 118 116 113 112 112 112 112 113 113 114 115 115 116 115 115 116 116 115 114 112 112 112 113 114 114 115 115 114 111 108 106 106 106 106 106 107 108 109 109 110 110 111 111 112 112 113 113 113 114 114 115 115 116 117 118 118 118 118 119 120 121 122 122 123 122 122 123 123 122 122 123 123 122 121 121 121 123 124 125 124 122 119 118 118 120 122 123 123 123 122 121 120 118 117 116 115 113 112 111 110 110 112 115 112 108 108 111 114 116 117 117 117 117 118 119 122 123 124 125 126 128 130 131 131 130 130 130 131 131 130 128 126 124 122 121 121 122 124 126 127 127 127 127 124 121 118 119 122 125 126 125 124 124 123 121 119 115 113 111 109 108 107 107 106 106 106 106 104 101 99 99 99 100 100 97 93 90 88 90 94 97 95 96 101 104 106 108 109 109 107 104 103 106 109 111 111 111 113 115 118 117 114 111 109 109 111 114 116 115 112 109 108 108 108 108 110 112 113 113 113 113 113 113 112 112 112 111 110 109 107 105 103 102 101 102 102 99 96 93 93 94 95 99 100 97 96 98 102 104 105 106 107 107 107 108 108 107 106 103 101 102 103 101 100 102 104 106 106 103 101 102 104 103 102 100 99 102 106 109 108 108 108 109 111 113 114 115 112 112 112 110 109 109 109 108 108 108 108 107 107 108 108 109 110 112 114 115 114 114 114 115 116 117 117 117 118 120 121 122 121 119 118 118 118 118 118 119 121 122 122 123 123 124 124 124 124 125 125 126 127 127 128 127 125 124 123 123 122 122 121 119 119 120 121 121 119 117 116 116 119 121 122 122 122 122 120 118 118 118 119 119 118 117 115 113 112 113 114 111 109 109 111 113 112 110 108 106 105 105 105 108 111 111 111 111 112 113 114 116 117 118 118 120 121 122 125 127 127 128 127 127 126 125 122 120 118 117 118 119 120 120 119 116 114 115 116 116 115 113 113 114 117 121 123 126 126 127 127 127 124 122 121 121 124 125 127 127 126 125 125 124 123 122 120 119 118 116 115 115 115 115 115 115 115 115 117 118 118 117 115 115 116 118 118 118 116 116 117 117 115 115 114 113 111 109 106 104 104 106 109 112 113 113 111 110 109 110 113 116 118 117 116 115 115 116 117 118 118 117 116 116 115 115 118 118 119 117 115 116 117 116 114 111 109 107
87 87 87 87 88 88 88 87 87 87 87 88 88 88 89 89 89 89 89 90 90 91 91 91 91 91 91 91 91 91 92 92 92 93 93 92 92 92 92 92 92 91 91 91 91 91 91 91 91 92 92 92 93 93 94 94 94 95 95 95 95 94 93 92 90 88 87 86 84 84 82 81 81 81 81 81 81 80 80 80 79 79 79 79 79 79 79 79 79 79 79 79 79 78 78 78 78 77 77 77 76 76 76 76 76 76 76 77 77 77 78 78 79 79 79 79 79 79 79 79 80 80 81 82 82 82 82 82 82 82 83 83 83 84 84 85 85 85 85 85 85 86 87 88 89 91 94 96 99 101 101 101 100 98 96 93 91 90 90 90 89 89 88 88 88 88 87 87 86 86 85 85 85 85 85 85 85 85 85 84 84 84 83 83 83 83 83 82 82 82 82 82 82 82 82 82 82 82 82 82 83 84 84 84 85 85 85 85 85 85 85 85 85 84 84 84 84 84 84 84 84 85 85 85 85 85 85 85 85 85 85 85 85 86 86 86 87 86 86 87 87 87 87 87 87 87 87 88 88 88 88 88 88 88 88 88 88 88 89 90 91 91 91 91 92 93 94 95 95 96 97 97 97 97 98 98 98 98 98 97 97 97 97 97 97 98 98 99 100 100 101 101 101 101 101 101 100 100 100 100 101 102 103 103 104 105 105 105 105 105 106 106 108 109 109 109 109 109 109 109 109 109 110 110 111 112 112 113 113 114 115 115 116 116 115 115 115 115 115 116 117 118 119 119 116 114 112 112 112 112 112 113 114 114 115 116 116 116 116 115 115 114 114 113 113 113 114 114 115 115 115 112 108 106 106 106 106 106 106 107 108 109 109 109 110 111 111 112 112 112 112 113 114 115 115 116 116 117 117 118 118 118 119 120 121 122 122 121 121 121 121 121 121 121 122 121 121 121 121 122 124 125 125 123 120 118 118 121 123 123 122 121 120 119 118 117 117 116 115 113 112 111 112 113 115 118 115 110 109 111 114 118 120 119 120 120 120 120 121 122 123 124 124 125 127 128 129 130 131 131 131 131 130 127 125 124 124 123 121 122 125 126 128 129 129 127 125 122 120 122 124 126 126 123 122 123 122 121 118 115 112 110 109 108 107 107 106 104 104 103 101 100 98 97 96 96 95 93 91 89 89 91 96 100 99 97 99 103 107 109 110 109 107 106 105 106 108 110 112 113 114 116 117 116 113 110 109 109 111 114 115 114 111 109 110 110 110 110 111 113 115 116 115 115 114 113 112 111 110 110 110 108 106 104 102 102 102 103 103 99 95 93 93 95 98 100 102 101 97 97 100 102 104 105 105 105 106 107 107 106 104 103 103 105 105 104 102 103 105 107 107 104 103 103 105 105 104 103 100 100 104 106 105 105 108 110 112 113 114 114 114 114 114 112 110 111 111 109 110 110 109 108 107 108 108 108 109 111 112 113 113 112 113 114 115 115 115 117 118 119 120 121 119 118 118 118 118 118 118 119 120 121 122 123 124 124 124 125 126 126 126 126 127 127 125 125 124 123 123 122 122 121 119 118 118 119 121 120 119 116 114 116 120 121 120 121 122 122 120 118 116 116 117 117 118 117 115 112 110 111 112 112 109 107 109 110 109 108 106 105 105 105 107 110 113 114 114 112 112 114 114 115 115 116 117 119 120 122 124 126 127 125 125 126 126 124 122 120 118 116 115 117 118 118 117 115 113 114 115 115 113 112 112 115 119 122 124 126 127 127 127 125 123 121 119 120 123 125 126 125 125 124 124 125 124 122 120 119 118 116 115 115 115 115 114 114 113 113 114 115 115 115 115 113 115 117 118 118 116 115 115 116 115 114 112 112 112 111 106 104 104 105 108 110 112 112 111 110 109 110 113 116 116 115 114 112 113 115 117 117 116 115 114 113 113 114 117 118 117 116 114 115 116 114 112 109 107 105
88 87 87 87 88 88 88 87 87 87 87 88 88 88 88 89 89 89 89 89 89 90 90 90 90 91 91 91 91 91 92 92 92 92 92 92 92 91 91 91 91 91 91 91 90 90 91 91 91 91 92 92 93 93 94 94 94 94 94 94 95 94 94 92 91 89 88 87 86 85 83 82 82 82 82 81 81 81 80 79 79 79 79 79 79 79 79 79 79 79 79 79 79 79 78 78 77 77 77 77 76 76 76 76 76 76 77 77 77 78 78 78 79 79 79 79 79 79 79 79 80 80 81 82 82 82 83 83 83 83 83 83 84 84 85 85 85 86 86 86 86 86 87 88 89 91 94 96 100 102 103 101 99 96 94 92 91 90 90 90 89 88 88 88 88 87 87 86 86 85 85 85 85 85 85 85 85 85 85 85 84 84 83 83 82 82 82 82 82 82 82 82 82 82 82 82 83 83 83 83 83 84 84 84 84 84 84 85 85 85 85 84 84 84 84 84 84 84 84 84 84 84 84 84 84 84 85 85 85 85 85 85 86 87 87 87 87 87 87 87 87 87 87 87 87 87 87 88 88 88 88 88 88 88 88 89 89 90 90 90 91 91 91 91 92 92 93 94 95 96 96 96 96 97 97 97 97 96 96 96 96 97 97 97 98 98 99 100 100 101 100 100 100 100 100 100 100 100 100 101 102 102 103 104 105 105 105 105 105 106 106 106 107 108 108 109 108 108 109 109 110 110 110 110 111 111 112 113 114 115 115 116 116 115 115 115 115 115 115 116 117 118 119 118 116 114 112 112 112 112 112 112 113 114 114 115 116 116 116 115 115 115 115 114 114 114 114 115 115 115 115 113 108 106 106 106 106 106 106 107 108 108 109 109 110 110 110 110 111 111 112 112 113 114 114 115 115 116 116 117 117 118 118 119 120 121 121 120 119 119 119 120 121 121 121 121 121 121 121 122 123 124 125 124 122 119 119 122 124 124 122 120 119 118 117 117 118 118 116 113 113 114 116 118 119 119 114 109 109 112 115 118 120 120 122 123 123 123 122 122 122 122 122 123 124 125 126 127 129 130 131 131 129 128 127 127 127 125 122 123 125 126 128 130 129 127 125 123 123 124 125 123 122 120 120 121 121 120 117 114 112 110 109 108 106 105 104 103 102 101 100 100 100 99 97 94 91 89 89 89 92 94 97 101 102 100 99 103 107 110 111 110 108 108 106 106 108 110 112 114 115 116 116 114 111 110 109 110 112 114 115 113 111 111 111 111 112 112 111 114 117 118 116 114 113 112 111 110 109 108 108 107 105 103 102 103 104 104 102 98 95 93 93 96 99 102 104 103 100 97 98 100 102 103 103 104 104 105 106 106 105 105 105 106 106 106 103 104 106 108 107 105 103 103 105 107 106 105 103 100 101 102 103 106 109 111 112 112 112 113 115 115 115 114 112 112 112 111 112 111 109 108 108 108 108 108 108 109 110 111 111 111 112 113 114 114 115 116 117 118 118 118 118 117 117 118 118 118 118 118 119 121 122 123 124 125 125 126 127 127 127 127 127 126 124 123 122 122 121 121 122 121 119 118 117 117 119 120 119 116 114 115 118 119 119 121 122 121 119 117 115 115 115 115 117 117 115 112 110 109 110 112 111 106 106 107 107 105 104 103 104 105 108 112 115 116 117 116 115 116 116 116 117 117 119 120 120 123 125 126 126 124 123 124 124 124 122 121 119 117 115 114 116 116 116 114 112 113 113 113 112 112 113 116 120 123 124 125 124 125 125 124 123 120 118 119 123 125 125 124 124 124 124 125 124 123 121 120 119 117 117 116 115 115 114 114 112 112 112 112 113 113 113 112 113 116 118 118 116 115 115 114 114 113 112 111 112 112 107 103 103 105 107 109 110 112 112 109 107 109 113 115 115 114 112 111 112 114 116 116 115 113 112 111 112 114 116 116 116 115 112 113 113 112 109 106 106 105
88 87 87 87 88 88 88 87 87 87 87 87 88 88 88 88 88 89 89 89 89 90 90 90 90 91 91 91 91 91 92 92 92 92 92 92 92 91 91 91 91 91 91 90 90 90 91 91 91 91 92 92 93 93 94 94 94 94 94 94 94 94 94 92 91 90 89 88 87 85 84 82 82 82 82 82 81 81 80 79 79 79 79 79 79 79 79 79 79 79 79 79 79 79 78 78 77 77 77 76 76 76 76 76 76 76 77 77 77 78 78 78 79 79 79 79 79 79 79 80 80 81 81 82 82 82 83 83 83 83 83 84 84 85 85 85 86 86 86 86 87 87 88 89 90 92 95 96 100 102 103 100 97 95 93 91 91 90 90 90 89 88 88 88 88 87 87 86 85 85 85 85 85 84 84 85 85 85 85 85 84 83 83 83 82 82 82 82 82 82 82 82 82 82 83 83 83 83 83 83 83 84 84 84 84 84 84 84 84 84 84 84 84 84 84 84 84 84 84 84 84 84 84 84 84 84 84 85 85 85 85 85 87 88 88 88 88 88 88 88 88 88 88 88 88 88 89 89 90 90 90 89 89 89 89 90 90 91 91 91 90 90 91 91 91 91 93 94 95 95 96 96 96 96 96 96 96 95 95 95 96 97 97 97 98 99 99 100 101 100 100 100 100 100 100 100 100 100 100 101 102 103 104 105 106 106 105 105 105 105 106 106 107 107 108 108 108 108 108 109 109 110 110 110 110 111 112 112 113 115 116 116 115 115 114 114 114 115 115 117 118 119 119 118 116 114 112 112 112 112 112 112 113 113 114 115 115 116 116 116 116 116 115 115 115 115 115 115 115 114 112 110 107 106 108 109 109 108 107 107 108 108 109 109 109 109 109 110 110 111 111 112 113 113 114 115 115 115 116 117 117 117 118 118 118 119 119 119 119 118 118 119 120 120 121 121 121 121 121 121 121 122 124 124 123 121 120 122 126 126 122 120 119 118 117 117 120 121 118 115 116 118 120 123 123 118 112 109 110 112 115 117 118 120 122 124 124 124 122 121 121 121 121 121 122 123 124 124 126 128 130 131 130 129 129 128 126 124 123 123 125 126 128 130 129 127 126 125 124 124 124 122 120 118 118 119 119 118 116 115 113 111 109 108 106 104 103 103 102 101 101 102 102 101 99 95 91 89 89 91 95 98 101 103 105 104 102 103 106 109 111 112 111 110 109 108 109 111 113 114 115 116 115 113 111 110 110 110 111 113 113 112 111 112 113 114 114 113 113 115 118 118 116 114 112 111 110 109 108 107 106 105 104 103 104 105 106 105 102 99 96 94 93 96 99 102 106 106 104 101 99 99 100 101 102 103 103 104 105 106 105 106 107 107 107 106 103 104 107 109 108 105 104 104 105 108 108 107 105 102 101 101 104 107 108 110 111 111 111 113 115 116 116 115 114 113 112 112 112 112 109 109 110 109 109 108 108 108 109 109 109 110 112 113 112 112 114 115 116 116 116 116 116 116 117 118 118 118 118 118 119 121 122 123 124 125 126 128 128 128 127 126 125 125 123 122 121 121 121 121 121 120 119 118 116 116 117 119 118 115 114 114 116 116 118 121 122 121 118 116 115 115 115 115 118 118 116 113 110 108 108 111 112 109 106 104 104 103 103 103 105 107 110 113 116 118 120 119 119 119 119 119 120 120 121 122 122 124 126 127 126 123 121 122 123 123 123 121 120 119 117 114 113 114 115 113 112 112 112 111 111 112 114 117 121 123 123 122 121 123 124 123 121 119 118 119 123 125 125 124 123 123 124 124 125 124 123 122 121 119 120 119 117 116 115 114 112 112 112 111 110 110 111 111 111 114 116 117 117 115 115 114 112 112 111 110 109 110 108 104 103 103 104 107 109 111 111 108 106 108 112 113 114 112 110 110 111 113 115 114 113 112 110 110 112 114 115 116 116 114 111 111 111 109 107 104 105 107
87 87 87 88 88 87 87 86 86 86 87 87 88 88 88 88 88 88 88 88 89 89 89 90 90 91 91 91 91 92 92 92 92 92 92 92 91 91 91 90 90 90 90 90 90 90 91 91 91 91 91 92 92 93 94 94 94 94 94 94 94 94 93 93 92 91 90 89 87 85 84 84 83 83 82 82 81 81 80 80 79 79 79 79 79 79 79 79 79 79 79 78 78 78 78 78 77 77 77 76 76 76 76 76 76 76 77 77 77 78 78 78 78 79 79 79 79 79 79 80 80 81 81 82 82 82 82 83 83 83 84 84 84 85 85 85 85 86 86 87 87 88 88 90 91 94 97 99 101 102 101 99 95 93 92 91 91 91 90 90 89 88 88 88 88 87 87 86 85 85 85 85 84 84 84 85 85 85 85 84 83 83 82 82 82 82 82 82 82 82 82 82 82 82 83 83 83 83 83 83 83 84 84 84 84 84 84 84 84 84 84 84 84 84 84 84 84 84 84 84 84 84 84 84 84 84 85 85 85 85 85 86 87 88 89 88 88 88 88 88 88 89 89 90 90 90 90 91 91 91 91 91 91 91 91 91 92 92 93 92 90 90 90 90 91 91 93 94 95 95 95 95 94 94 95 95 94 94 94 95 96 97 97 98 99 99 99 99 99 98 98 98 98 99 99 100 100 100 101 102 103 103 104 105 105 105 105 105 105 104 104 105 106 106 107 107 107 107 108 108 109 109 109 109 109 110 111 112 113 114 115 114 114 114 114 114 114 115 116 118 118 119 120 119 116 114 113 113 114 114 113 112 113 113 114 115 115 115 116 116 116 116 116 115 115 115 115 115 114 112 109 108 107 108 109 111 112 110 109 109 109 108 109 109 109 109 109 109 109 110 110 111 112 113 113 114 114 115 115 116 116 117 117 117 117 117 117 118 118 117 117 117 118 120 121 121 122 123 123 122 121 121 123 124 124 122 121 122 126 126 123 120 118 118 118 119 122 122 119 118 120 122 124 125 123 117 111 109 110 111 113 115 117 119 121 122 122 121 120 119 119 121 122 123 123 123 124 125 126 128 130 131 131 130 130 128 126 124 124 124 125 126 127 129 129 128 127 126 125 125 124 121 119 117 116 116 116 115 114 114 113 110 108 107 106 104 103 103 102 102 103 104 104 101 98 94 90 89 90 94 98 101 103 105 106 108 106 105 105 107 112 114 115 114 111 109 109 111 114 115 116 117 116 115 113 112 111 111 112 113 113 113 113 114 115 116 116 115 116 117 118 117 115 112 110 109 109 108 107 106 106 105 106 106 107 108 107 105 103 100 97 94 93 95 99 102 106 107 106 105 101 100 100 100 101 102 103 104 105 106 107 108 108 109 108 106 104 105 108 109 107 106 105 106 107 109 109 109 107 103 102 101 103 105 106 107 108 109 111 112 114 114 115 115 115 115 113 113 113 112 109 110 112 113 112 111 110 109 108 109 109 109 110 111 112 112 112 113 114 114 115 115 115 116 117 118 119 120 120 120 120 121 122 123 125 126 127 129 129 129 127 126 125 124 122 121 120 119 119 119 119 119 119 118 117 115 116 117 117 114 112 113 114 116 119 121 122 119 117 115 114 114 114 115 118 118 117 115 113 109 107 108 111 110 106 103 102 102 102 105 108 110 113 115 117 119 121 121 121 122 121 121 123 123 123 124 124 125 126 126 124 122 120 118 120 121 121 121 121 120 118 115 112 112 113 112 111 110 110 109 111 114 116 119 121 122 120 119 120 121 122 121 119 118 118 120 124 125 125 123 122 122 123 124 125 125 124 124 123 122 121 121 119 117 116 115 114 113 112 111 110 109 109 109 109 111 114 115 116 116 115 114 113 112 111 109 108 107 107 104 102 102 103 106 109 109 109 106 105 106 110 111 112 110 108 109 110 112 112 112 112 111 109 109 112 114 115 115 115 113 111 108 109 107 104 103 105 107
87 87 88 88 88 87 85 85 86 86 87 87 87 88 88 88 88 88 88 88 88 89 89 90 90 91 91 91 91 92 92 92 92 92 91 91 91 91 90 90 90 90 90 90 90 90 91 91 91 91 91 92 92 93 93 94 94 94 94 94 94 94 94 93 92 92 91 90 87 86 85 84 84 84 83 82 82 81 81 80 80 80 80 80 79 79 79 79 79 79 79 78 78 78 78 78 77 77 77 76 76 76 76 76 76 76 77 77 77 78 78 78 78 79 79 79 79 79 79 80 80 81 81 81 82 82 82 83 83 83 84 84 84 85 85 85 85 86 87 87 88 88 89 91 92 94 97 101 102 102 99 97 94 93 92 92 91 91 91 90 89 89 88 88 88 87 87 86 85 85 85 85 84 84 84 84 85 85 85 84 83 82 82 82 82 82 82 82 82 82 82 83 83 83 83 84 84 84 84 84 84 84 84 84 84 84 84 84 84 84 84 84 84 84 84 84 85 85 85 85 85 85 84 85 85 86 87 87 87 87 86 87 87 88 89 89 89 89 89 89 89 89 90 91 91 91 91 91 92 92 92 92 92 92 92 93 93 93 93 92 91 90 90 90 91 91 92 94 95 95 95 94 94 94 94 94 94 94 94 95 96 97 98 98 99 98 98 98 97 97 97 97 98 99 99 100 100 101 101 102 103 104 104 104 105 105 105 104 104 103 103 104 105 106 106 107 107 107 107 108 108 108 108 108 109 109 110 111 112 113 113 113 113 113 113 114 114 115 116 118 119 119 119 119 116 114 114 114 114 114 114 113 113 113 114 115 115 115 116 117 117 117 117 116 116 116 114 113 111 109 109 108 108 109 110 111 112 112 111 110 109 109 109 109 109 109 109 109 109 109 109 110 112 113 113 114 114 115 115 116 116 116 116 116 116 116 117 117 116 116 115 116 117 118 119 120 122 124 124 124 124 123 123 124 124 124 123 123 126 127 123 120 119 119 119 120 123 122 121 122 123 125 126 124 120 115 111 110 110 111 112 114 116 117 119 119 119 118 117 117 120 123 125 127 126 126 125 126 128 128 129 131 131 131 130 128 127 126 125 125 125 126 126 128 129 128 127 126 125 125 124 123 120 117 115 113 112 112 111 111 109 108 107 106 105 103 103 103 103 104 105 105 105 100 95 92 89 89 90 93 98 100 102 104 106 107 107 106 107 108 112 115 117 116 114 110 109 111 114 116 117 117 117 117 114 112 112 112 113 114 114 114 115 116 116 117 118 118 117 118 117 115 113 112 111 110 109 108 109 108 108 108 108 109 109 109 107 105 103 101 99 95 93 94 97 100 104 106 107 107 104 101 100 100 101 102 103 104 105 106 107 109 109 109 108 106 105 107 109 109 108 106 106 108 109 110 111 110 107 104 102 102 102 104 105 106 106 108 109 111 112 114 115 116 116 115 114 114 114 112 111 111 113 114 114 114 113 109 109 110 110 111 111 111 112 112 112 112 113 115 117 117 117 117 117 118 120 121 121 121 120 121 122 123 125 126 128 130 130 129 127 125 124 123 122 121 120 119 119 118 118 118 118 119 118 116 115 115 116 113 112 114 116 118 119 120 120 117 115 114 113 113 114 116 118 118 118 116 114 111 108 106 108 109 106 102 102 102 104 107 110 113 115 117 118 119 120 121 121 122 122 123 124 124 124 124 125 125 125 125 124 121 119 116 117 119 120 120 121 120 118 116 112 110 111 111 109 109 109 109 112 115 117 120 121 120 118 118 119 121 120 118 117 117 117 120 124 125 125 123 122 121 123 124 125 126 125 125 124 123 122 122 120 118 116 116 116 115 113 113 111 111 109 109 108 109 110 112 114 115 115 115 115 113 112 111 109 108 107 105 103 102 103 105 107 107 107 105 103 105 107 108 108 108 107 107 109 110 110 111 111 109 107 109 111 113 114 112 113 111 110 107 104 104 103 101 104 107
87 87 88 88 87 86 85 85 86 86 86 87 87 87 87 88 88 88 88 88 88 89 89 90 90 90 91 91 91 91 92 92 92 91 91 91 91 91 90 90 90 90 89 89 90 90 90 91 91 91 91 91 92 93 93 93 93 93 94 94 94 94 94 93 93 93 93 91 89 88 87 86 85 84 84 83 82 81 81 81 81 80 80 80 79 79 79 79 79 79 79 78 78 78 78 77 77 77 77 76 76 76 76 76 76 77 77 77 77 78 78 78 78 79 79 79 79 79 79 80 80 81 81 81 82 82 82 83 83 83 84 84 84 85 85 85 85 86 87 87 88 89 91 91 92 94 97 100 103 102 99 96 93 92 92 92 91 91 91 90 89 89 89 88 88 87 87 86 85 85 85 85 84 84 84 84 84 84 84 83 83 82 82 82 82 82 82 82 82 82 83 83 83 83 84 84 84 84 84 84 84 84 84 84 84 84 84 84 84 85 85 85 85 85 85 85 85 85 85 85 85 86 86 86 87 88 89 89 88 88 88 87 88 89 89 89 90 90 90 90 90 90 90 91 92 92 92 92 93 93 94 94 94 94 93 94 94 94 93 92 91 91 90 90 91 91 91 93 94 94 94 94 93 93 94 94 94 94 95 96 97 97 98 98 97 97 97 97 97 97 97 97 98 99 100 100 100 101 102 102 103 103 103 104 104 105 104 104 103 103 103 103 104 105 105 106 106 106 107 107 107 107 107 107 108 109 110 110 111 112 112 112 112 112 113 114 114 115 116 118 118 118 119 119 118 117 116 115 114 115 114 114 114 114 114 115 115 115 116 118 118 118 118 117 117 116 113 111 110 109 109 108 109 109 110 111 113 113 112 111 110 109 109 109 109 110 111 109 109 109 109 110 111 113 113 113 114 114 115 115 116 116 115 115 115 115 116 116 115 115 115 118 120 119 118 119 121 123 124 125 124 124 123 124 124 126 126 125 126 127 124 121 121 122 122 123 124 125 124 125 127 127 126 122 117 113 111 110 111 111 112 112 114 115 116 116 115 115 116 118 121 125 128 130 130 128 128 129 130 130 130 131 132 132 131 130 128 127 127 126 125 126 126 127 128 127 126 126 125 124 124 124 122 119 116 113 111 110 109 109 108 106 106 105 104 104 104 104 105 105 106 107 106 100 95 91 90 90 93 94 95 96 98 101 103 105 105 106 108 110 113 116 118 118 116 112 110 111 114 117 118 118 119 118 115 112 112 113 115 116 116 116 118 119 118 118 118 118 118 117 116 116 116 114 113 111 110 111 112 111 110 110 110 110 110 108 106 104 102 101 99 97 94 93 95 98 102 105 107 108 106 105 101 100 102 102 103 104 105 106 107 109 110 109 107 106 106 108 110 110 109 108 107 109 110 111 112 111 108 105 103 102 102 104 106 107 108 109 110 111 113 115 115 117 117 116 116 116 115 112 111 111 114 115 116 116 114 111 109 110 112 112 113 113 112 112 113 114 115 116 118 119 120 119 119 118 120 121 122 122 122 122 122 123 125 127 128 129 128 127 126 124 122 122 122 121 120 119 118 118 117 117 117 118 118 117 114 114 114 112 112 114 116 118 119 120 118 116 114 112 112 113 114 116 117 116 116 115 113 110 108 105 105 105 104 102 102 102 104 108 112 115 116 117 117 117 118 119 121 122 123 123 123 123 123 123 124 124 125 125 124 121 118 115 115 116 117 118 119 119 117 115 112 109 109 110 109 109 109 110 113 116 118 121 121 119 117 117 118 119 118 117 116 116 117 120 124 125 125 123 122 121 122 124 125 126 126 125 125 124 122 122 120 118 117 118 118 116 116 114 114 113 112 110 108 108 108 109 111 112 113 114 115 114 113 112 111 109 107 106 106 102 101 103 105 105 105 104 102 103 105 105 105 106 106 106 107 108 109 110 110 108 106 107 109 112 113 111 111 109 108 106 103 103 101 100 103 106
88 88 88 87 87 85 85 85 85 86 86 87 87 87 87 88 88 88 88 88 88 89 89 89 89 90 90 91 91 91 92 92 91 91 91 91 91 91 90 90 89 89 89 89 89 90 90 91 91 91 91 91 92 92 93 93 93 93 94 94 94 94 94 94 94 94 93 91 90 89 88 87 86 85 84 84 83 83 82 82 81 81 80 80 79 79 79 79 79 79 78 78 78 78 78 77 77 77 77 76 76 76 76 76 76 77 77 77 77 78 78 78 78 79 79 79 79 80 80 80 81 81 81 81 82 82 82 83 83 84 84 84 85 85 85 85 86 86 87 88 88 89 90 91 92 94 96 99 101 100 97 95 93 92 91 91 91 91 90 90 89 89 89 88 88 87 87 86 86 85 85 85 84 84 84 84 84 84 84 83 83 82 82 82 82 82 82 82 82 83 83 83 84 84 84 85 85 85 85 85 84 84 84 84 85 85 85 85 85 85 85 85 85 85 85 85 86 86 86 86 86 86 87 88 89 89 89 89 89 89 88 88 88 89 90 90 90 91 91 91 91 91 91 92 92 93 93 93 93 94 95 95 95 95 94 94 95 94 93 92 92 91 91 91 91 91 91 91 92 93 94 93 93 93 93 94 94 95 96 97 97 98 97 97 97 97 97 97 97 97 97 97 98 99 100 101 101 101 102 103 103 103 103 104 104 104 104 104 103 103 103 103 104 104 105 105 105 106 106 106 106 106 106 106 107 108 109 110 110 111 111 112 112 112 113 114 114 115 116 118 118 118 118 119 118 118 118 117 115 115 115 115 115 115 115 115 115 115 116 117 119 119 118 118 118 116 113 111 110 109 109 109 109 110 110 111 113 114 113 112 110 109 109 109 109 111 113 113 112 110 109 110 111 112 112 113 113 113 114 114 115 114 114 114 115 115 115 115 115 115 117 120 121 121 119 118 120 122 123 124 125 124 124 124 124 126 127 126 127 127 124 121 121 123 125 126 127 127 127 127 128 128 125 120 115 112 111 112 113 112 112 112 112 112 112 113 114 115 118 120 122 126 129 131 131 130 130 131 132 132 132 132 132 132 132 131 130 128 127 126 126 126 126 127 127 126 125 125 125 124 124 124 123 122 119 116 112 111 109 109 107 106 106 105 104 104 105 105 106 107 108 108 105 99 94 91 90 90 93 96 97 97 97 98 100 101 102 105 108 111 112 114 116 117 116 113 111 111 114 116 117 118 119 118 115 113 113 114 115 116 117 118 120 120 120 120 119 119 117 115 115 117 118 115 113 112 112 112 112 112 111 111 110 110 109 107 104 102 100 99 97 97 95 93 93 97 101 103 106 107 107 106 103 102 102 103 103 104 105 106 107 108 109 109 107 106 106 108 110 110 110 109 108 109 110 112 112 111 109 106 103 103 103 105 107 108 110 111 111 112 114 115 116 117 118 117 117 116 115 112 112 113 115 116 117 117 115 111 109 110 112 113 114 114 114 113 113 114 115 117 119 120 121 121 120 120 120 122 122 123 123 122 123 123 125 126 127 128 127 126 124 123 121 121 121 122 121 120 119 118 116 115 116 117 117 116 114 112 112 112 112 113 115 117 118 119 118 115 112 112 112 113 114 115 115 113 112 112 110 109 108 106 103 103 103 102 102 102 104 108 111 113 115 115 115 116 118 120 121 122 122 122 122 121 121 121 122 123 124 125 124 121 118 115 114 114 115 116 117 116 115 113 111 109 108 109 108 108 108 110 113 116 119 121 120 118 115 116 117 118 116 115 115 115 117 120 124 125 125 123 122 121 122 123 125 125 126 125 124 123 122 121 119 118 119 120 119 118 117 116 115 115 113 111 108 108 107 107 108 110 110 111 112 112 112 112 111 110 108 106 106 103 100 101 104 104 103 102 101 100 103 103 103 105 105 105 106 106 107 109 109 107 106 106 107 110 111 110 109 109 107 105 102 101 100 100 102 104
88 88 88 87 85 85 85 85 85 86 86 86 87 87 87 88 88 88 88 88 88 89 89 89 89 89 89 90 91 91 91 91 91 91 91 90 90 90 90 89 89 88 88 88 89 90 90 91 91 91 91 91 92 92 92 93 93 93 94 94 94 94 94 94 94 94 93 93 92 92 91 89 87 87 87 86 86 85 83 82 81 81 80 80 79 79 79 79 79 78 78 78 78 78 77 77 77 77 76 76 76 76 76 76 76 77 77 77 77 78 78 78 78 79 79 79 79 80 80 80 81 81 81 81 82 82 82 83 83 84 84 84 85 85 85 86 86 87 87 88 88 89 90 91 92 94 96 97 99 97 95 94 92 91 91 91 91 90 90 89 89 89 88 88 88 87 87 86 86 85 85 85 85 84 84 84 83 83 83 83 82 82 82 82 82 82 82 82 82 83 83 83 84 84 85 85 86 86 86 86 85 84 84 84 85 85 85 85 85 85 85 85 85 86 86 86 86 86 86 87 87 87 88 89 90 90 90 90 90 90 89 89 89 90 90 90 90 91 91 91 92 92 92 93 93 93 93 93 94 95 96 97 97 96 96 96 95 94 93 93 92 92 91 91 91 91 91 91 91 91 92 92 92 93 93 94 94 95 96 97 97 97 97 97 97 97 97 97 97 98 98 98 99 99 100 101 101 101 102 102 103 103 103 104 104 104 104 103 103 103 103 103 103 103 104 104 104 104 105 105 105 106 106 106 106 107 108 109 109 109 110 111 112 112 113 114 115 115 116 116 116 116 117 118 119 120 120 119 118 116 115 115 115 115 115 115 115 115 116 117 118 119 118 117 116 115 112 111 110 109 109 109 110 111 111 111 113 115 116 114 112 112 112 112 111 112 113 115 115 113 110 110 111 111 112 112 112 112 112 112 112 112 112 114 115 115 115 115 115 116 117 120 121 122 122 120 120 121 121 122 124 125 126 126 126 126 127 128 128 128 126 123 123 126 128 128 129 129 129 129 128 125 122 117 114 112 112 115 117 117 115 112 111 113 115 115 115 115 117 120 122 125 127 129 130 131 131 131 133 135 135 135 135 135 134 133 130 129 128 127 126 126 126 127 127 127 125 124 123 122 121 121 122 122 121 118 115 114 112 110 109 108 107 106 106 107 108 107 107 108 108 107 104 98 94 92 91 90 92 96 100 102 102 101 100 99 101 103 106 108 109 111 112 114 115 115 113 112 112 114 115 116 118 118 116 115 114 115 116 117 117 118 119 121 121 121 121 119 117 115 115 116 117 116 114 113 114 114 114 112 111 109 108 107 106 105 103 103 102 101 100 99 98 95 93 96 99 101 103 104 105 106 105 103 102 103 105 105 105 106 107 108 109 109 108 107 107 109 111 112 112 111 110 111 112 112 112 110 108 106 103 103 103 105 107 108 110 111 112 112 113 114 115 117 118 118 118 117 114 113 112 114 116 117 118 118 116 113 111 110 111 112 113 115 115 114 114 114 115 117 118 120 121 122 122 121 120 123 124 124 124 124 124 124 125 125 126 126 126 125 122 121 119 118 119 120 120 120 119 119 117 116 115 115 116 116 115 112 111 110 110 113 114 116 117 118 118 116 112 112 114 115 115 115 115 114 113 112 111 111 110 108 104 103 102 102 102 102 103 106 109 111 112 113 115 117 118 119 119 120 121 121 119 118 119 120 121 124 125 125 124 121 118 116 114 111 112 113 113 113 113 111 109 106 107 106 107 108 109 111 114 117 119 119 117 116 114 115 115 114 114 114 115 115 117 119 123 125 124 122 121 120 121 123 124 125 125 125 124 122 121 121 119 119 120 121 121 120 120 119 118 117 115 112 109 108 107 106 106 106 107 107 107 108 108 108 108 106 105 103 104 102 100 100 101 103 102 101 100 100 100 100 101 103 103 104 104 104 106 107 107 106 105 105 106 109 110 109 108 107 106 105 102 100 100 100 101 102
88 87 87 86 84 84 85 85 85 85 86 86 87 87 87 88 88 88 88 88 88 88 88 88 88 88 89 90 91 91 91 91 91 90 90 90 90 89 89 89 88 88 88 88 89 90 91 91 91 91 92 92 92 92 92 92 93 93 94 94 94 94 94 94 94 94 94 94 94 94 92 90 89 89 88 88 87 85 83 82 82 81 81 80 80 79 79 79 79 78 78 78 78 78 77 77 77 77 76 76 76 76 76 76 76 77 77 77 78 78 78 78 78 79 79 79 80 80 80 81 81 81 81 82 82 82 82 83 83 84 84 85 85 85 86 86 87 87 88 89 89 90 91 92 93 94 96 97 97 95 93 92 92 91 91 90 90 90 89 89 89 88 88 88 88 87 87 86 86 86 86 85 85 85 84 84 83 82 82 82 82 82 82 82 82 82 82 82 83 83 83 84 84 85 86 87 87 87 87 87 86 85 85 85 85 85 85 86 86 86 86 86 86 87 87 87 87 87 88 88 88 88 89 90 90 91 91 91 91 90 90 90 90 91 91 91 91 91 92 92 93 93 93 94 94 94 94 95 96 97 97 98 98 97 97 97 96 95 95 94 93 93 92 92 92 91 91 91 91 91 91 92 92 93 93 94 95 96 97 97 96 96 96 96 97 97 97 97 98 99 99 99 99 100 100 100 101 101 102 102 103 103 103 103 104 103 103 103 103 103 103 103 103 103 103 103 103 103 103 104 104 105 105 106 106 106 107 108 109 109 110 111 112 112 113 113 114 115 115 115 115 115 116 117 118 119 121 121 119 117 115 116 116 115 115 115 115 115 116 117 118 119 119 119 117 114 112 111 111 110 109 110 111 112 112 112 113 115 117 117 115 114 116 115 112 112 113 115 117 117 113 110 111 111 111 112 112 112 113 113 112 112 112 114 116 118 118 118 118 117 117 119 121 122 123 123 122 121 121 122 123 124 125 126 127 127 128 128 129 128 127 124 125 128 130 131 131 131 130 129 127 123 119 114 111 112 115 118 120 122 119 115 114 116 118 118 117 117 117 119 120 122 124 126 128 128 128 131 134 136 137 137 137 137 136 133 131 130 130 129 127 125 125 126 127 127 126 124 122 120 119 119 120 120 120 118 117 117 114 112 111 110 108 108 109 109 108 107 106 107 107 105 101 97 96 95 92 91 92 96 101 103 104 104 103 102 102 102 103 104 105 107 108 111 113 115 115 113 112 114 115 115 116 117 117 116 116 116 116 117 117 116 117 120 122 122 122 120 118 115 115 115 116 116 115 116 117 116 114 113 112 111 109 107 106 105 106 107 106 106 104 102 99 95 94 96 97 99 100 101 104 106 106 104 103 103 105 106 106 107 108 109 109 109 108 108 108 110 112 114 114 112 111 112 112 111 110 108 106 105 103 103 103 105 106 106 108 109 110 111 112 113 114 117 118 119 119 118 115 114 113 114 116 118 118 118 116 115 112 111 111 112 113 114 115 115 115 115 115 116 117 119 120 121 122 122 122 123 125 126 126 126 126 125 125 124 124 125 125 124 121 119 118 117 117 118 118 118 119 119 118 117 116 114 113 114 114 112 110 109 109 111 113 114 117 118 117 114 112 112 114 117 117 116 117 116 114 113 113 112 112 109 105 104 103 102 102 102 105 106 108 109 110 112 115 116 117 117 117 118 118 118 116 117 118 120 122 124 125 125 123 121 118 115 113 111 109 110 111 111 110 110 107 105 106 106 107 109 111 113 115 117 118 117 115 114 113 113 112 112 113 114 115 117 119 122 124 125 123 121 120 119 120 122 124 125 125 125 124 122 121 121 120 120 121 122 122 121 121 120 120 118 116 112 109 108 107 106 106 106 105 106 105 103 104 105 104 104 102 102 102 100 100 99 100 101 101 100 100 99 99 99 100 100 102 103 102 103 105 106 106 105 103 104 105 108 109 109 108 106 106 105 103 100 100 99 100 102
88 87 86 84 84 84 85 85 85 85 86 86 87 87 88 88 88 88 88 88 88 88 88 88 88 88 89 90 91 91 91 91 90 90 90 90 89 89 89 88 88 88 88 88 89 90 91 91 92 92 92 92 92 92 92 92 93 93 94 94 94 94 94 94 95 95 95 95 95 95 94 92 90 89 89 88 87 86 84 83 82 81 81 81 81 80 79 79 79 78 78 78 78 78 77 77 77 77 76 76 76 76 76 76 77 77 77 77 78 78 78 78 79 79 79 79 80 80 80 81 81 82 82 82 82 82 83 83 84 84 84 85 85 86 86 87 87 88 89 90 90 91 92 93 94 95 96 97 96 94 93 92 91 91 91 90 90 90 89 89 88 88 88 88 88 87 87 86 86 86 86 85 85 85 84 84 83 82 82 82 82 82 82 82 82 82 82 82 83 83 84 84 85 85 87 88 89 89 89 88 87 85 85 85 85 85 86 86 87 87 87 87 87 87 88 88 88 88 88 89 89 89 89 90 91 91 91 92 91 91 91 91 91 91 92 91 91 92 92 93 93 94 94 94 95 95 95 96 97 98 98 98 98 98 98 97 96 96 96 95 94 93 93 93 92 92 92 91 91 91 91 92 92 93 94 95 96 96 97 96 95 95 95 96 97 97 97 98 98 99 100 100 100 100 100 100 101 101 101 102 103 103 103 103 103 103 103 103 103 103 103 103 103 103 103 103 103 103 103 104 104 105 105 106 106 106 107 108 109 109 110 111 111 112 113 113 114 114 114 114 114 115 116 116 117 119 120 121 120 118 116 117 118 117 117 116 115 115 116 117 118 119 121 120 118 115 113 112 111 110 110 110 111 112 113 112 112 115 116 117 118 118 118 115 112 112 114 116 118 118 116 112 111 111 111 111 112 114 116 117 117 116 114 114 116 118 119 120 120 119 118 118 120 122 123 124 124 123 124 125 124 124 124 125 127 128 128 129 129 129 127 126 128 130 132 132 132 131 128 127 125 121 117 113 111 113 117 121 123 124 120 116 117 120 121 121 120 119 118 119 120 121 122 123 125 126 128 131 134 137 138 138 138 138 136 134 132 131 131 129 127 125 124 125 126 127 126 124 122 120 118 118 118 117 117 116 116 115 113 112 112 111 110 110 111 110 107 106 104 104 104 102 99 98 99 98 94 91 92 96 100 103 104 104 105 105 104 105 105 105 106 107 108 110 112 114 115 114 113 114 115 115 116 117 118 118 118 117 117 116 115 115 116 119 121 122 121 119 118 116 113 114 115 116 116 117 118 117 114 112 112 112 111 110 108 108 109 109 109 108 105 102 99 95 94 95 96 98 99 101 103 106 106 106 104 103 105 106 107 107 108 109 110 109 109 109 109 110 112 114 114 113 112 112 112 110 109 107 106 104 103 103 104 106 108 109 110 111 112 112 114 114 114 116 117 118 119 118 116 115 115 114 116 118 119 118 117 115 112 112 112 112 113 114 115 115 115 115 115 115 117 119 120 121 122 123 123 124 126 127 127 127 126 126 125 124 124 124 124 124 123 120 118 116 116 116 117 117 118 119 117 117 116 115 113 112 112 110 109 109 109 112 113 114 116 116 115 112 112 112 114 118 118 118 118 117 116 115 114 114 113 110 108 106 103 102 102 102 104 106 107 108 109 112 114 115 115 115 116 116 116 115 115 116 118 122 124 125 125 125 123 120 117 115 113 111 109 109 109 108 108 108 106 105 105 107 109 112 113 114 115 116 114 113 113 112 112 112 112 112 114 116 119 120 122 124 125 124 121 119 118 118 120 121 123 124 125 125 124 123 122 121 121 122 122 122 123 122 122 121 121 118 114 112 111 110 109 107 107 106 105 105 106 104 103 103 103 103 102 102 102 100 100 99 99 100 100 100 100 99 99 99 99 99 101 101 101 103 104 105 104 103 103 103 105 107 108 108 107 106 106 105 103 101 100 98 99 100
87 86 85 84 84 84 85 85 85 85 86 86 87 87 88 88 88 88 88 88 88 88 88 88 88 88 89 90 91 91 90 90 90 89 89 89 89 89 88 88 88 88 88 89 90 91 91 92 92 91 91 91 91 91 91 92 93 93 94 94 94 94 94 94 95 96 96 96 96 96 94 92 91 90 90 88 87 86 84 83 83 82 81 81 81 80 79 79 79 79 78 78 78 78 77 77 77 76 76 76 76 76 76 76 77 77 77 78 78 78 78 79 79 79 79 79 80 80 81 81 81 82 82 82 82 82 83 83 84 84 85 85 85 86 86 87 87 88 89 91 91 92 93 94 95 96 97 97 96 93 92 91 91 91 90 90 90 89 89 88 88 88 88 88 87 87 87 86 86 86 86 85 85 85 84 83 83 82 82 82 82 81 81 81 81 82 82 82 83 83 84 84 85 86 88 89 90 90 89 88 87 86 85 85 85 85 85 86 87 88 88 88 88 88 88 88 88 88 89 89 89 90 90 90 91 91 91 92 91 91 91 91 91 91 92 92 92 92 93 94 94 94 94 95 96 96 96 96 97 98 99 99 99 99 98 97 97 97 97 95 94 93 93 93 93 93 92 92 91 91 91 92 93 94 94 95 96 96 95 94 94 94 95 96 97 97 98 98 99 100 100 100 100 100 100 100 101 101 101 102 102 103 103 103 103 103 103 102 102 102 102 102 103 103 103 103 103 103 103 104 104 105 105 106 106 106 107 108 109 110 110 110 110 111 112 113 113 113 113 114 114 115 115 116 117 117 118 119 119 118 118 119 120 119 118 116 115 115 116 117 118 119 120 121 119 116 113 112 111 111 111 111 112 113 114 113 112 114 115 118 120 120 119 115 112 112 114 116 118 119 118 115 112 111 111 111 112 114 116 118 119 119 116 114 115 117 119 120 121 120 119 119 120 121 122 123 124 124 126 127 127 125 124 125 126 127 128 129 129 129 129 129 130 132 133 132 131 129 126 124 122 119 115 113 112 114 118 122 124 124 120 117 119 121 122 121 120 121 121 121 121 121 122 123 124 126 128 131 134 136 137 137 137 137 136 134 133 132 131 130 127 125 123 124 125 126 126 124 123 122 120 118 117 116 116 115 115 114 113 113 113 112 111 112 112 110 107 105 103 102 101 100 98 100 102 100 95 92 92 95 99 101 102 104 106 106 106 107 109 108 108 109 109 109 111 113 114 114 115 115 116 116 117 118 118 119 118 117 116 115 115 115 116 119 120 121 120 119 117 115 113 113 114 115 116 117 118 117 114 112 111 111 112 111 110 109 110 110 109 107 103 99 97 95 96 97 98 98 99 100 103 105 107 106 105 104 104 105 107 108 109 109 110 110 110 109 109 111 113 115 115 114 113 113 112 111 110 109 106 104 103 103 105 107 110 111 112 112 112 113 115 115 116 116 117 118 119 118 117 117 116 116 117 119 119 118 117 115 112 112 112 114 114 114 115 115 115 115 115 115 117 118 120 121 122 123 124 125 126 127 128 127 126 126 125 124 122 122 123 124 124 121 119 116 115 115 115 116 117 118 117 116 115 115 114 112 111 109 109 108 110 112 113 114 115 115 113 111 111 112 114 117 118 118 118 118 117 117 116 113 111 109 108 105 103 102 102 102 103 105 106 107 109 111 113 113 114 114 115 115 115 114 114 116 118 122 123 125 125 124 122 120 117 115 113 111 109 109 108 107 107 106 105 105 106 108 110 112 114 114 113 113 112 111 111 110 111 111 112 113 115 117 121 122 124 124 125 122 120 118 118 118 120 122 122 124 125 125 124 124 123 123 123 124 123 123 122 122 122 121 120 117 113 112 113 112 110 109 109 108 107 108 108 106 104 103 103 102 103 105 103 101 100 99 99 100 100 99 99 99 98 98 99 99 100 100 101 103 103 104 103 103 103 103 105 106 107 107 107 106 105 104 104 101 100 97 98 99
87 85 84 84 84 84 85 85 85 86 86 86 87 87 88 88 88 88 88 88 88 88 88 88 88 88 89 90 90 90 90 90 89 89 89 89 89 88 88 88 88 88 88 89 90 91 91 91 91 91 91 91 91 91 91 92 92 93 94 94 94 94 94 95 95 96 97 97 97 97 94 92 91 91 90 89 87 86 85 84 83 82 82 82 81 81 80 79 79 79 79 78 78 78 77 77 77 76 76 76 76 76 76 76 77 77 77 78 78 78 79 79 79 79 79 80 80 80 81 81 82 82 82 82 83 83 83 84 84 84 85 85 85 86 86 87 87 88 90 91 92 92 93 94 96 97 97 97 95 93 92 91 91 91 90 90 89 89 89 88 88 88 88 87 87 87 87 86 86 86 86 85 85 84 84 83 83 82 82 82 81 81 81 81 81 81 82 82 83 83 84 85 86 87 89 90 91 90 89 88 87 86 85 85 85 85 85 86 87 87 88 88 88 88 88 89 89 89 89 90 90 90 91 91 91 91 91 92 91 91 91 91 91 92 92 92 93 93 93 94 95 95 95 96 97 97 97 97 98 99 100 100 100 99 98 98 98 98 97 95 94 94 94 94 94 93 93 93 92 91 91 92 92 94 95 95 95 94 94 94 94 95 96 97 98 98 98 99 99 100 100 100 100 100 100 100 101 101 101 102 102 103 103 103 103 103 103 102 102 102 102 102 102 102 102 103 103 103 103 104 104 104 105 105 106 107 107 108 108 109 110 110 110 110 111 112 113 113 113 113 113 114 115 115 115 115 116 117 117 119 120 121 121 120 119 117 116 115 116 117 118 119 120 121 118 114 112 112 112 112 111 111 112 115 116 114 113 115 117 120 121 121 119 116 113 112 114 116 118 120 120 119 117 114 112 111 112 114 116 118 120 120 119 116 114 115 117 118 120 121 121 121 121 121 121 122 123 124 126 127 127 127 126 126 126 127 128 129 130 130 130 130 132 133 133 132 131 128 125 121 118 117 116 114 112 114 118 122 124 123 120 118 120 122 123 123 123 122 122 122 122 122 123 123 124 126 128 130 132 135 136 135 134 134 135 134 133 133 131 129 127 125 123 122 124 125 125 124 122 122 121 119 118 116 115 114 114 114 114 114 113 113 112 112 111 109 107 105 104 102 100 100 101 103 103 100 95 92 94 96 98 98 100 101 104 107 109 111 112 112 112 112 111 110 111 112 113 114 115 116 117 118 118 118 118 117 116 116 115 115 115 115 115 118 119 120 118 118 117 115 113 112 113 114 115 116 117 116 114 111 109 109 110 110 109 108 109 109 106 102 98 95 95 97 98 100 101 100 100 100 101 104 107 108 107 106 105 105 106 108 109 110 110 111 111 110 111 112 114 115 115 114 114 114 113 112 111 109 107 104 103 104 106 108 110 111 112 112 112 113 114 115 116 116 118 119 119 119 119 119 118 117 118 119 120 118 117 115 113 112 112 114 115 115 115 115 117 117 116 115 115 117 119 120 121 122 123 124 126 127 128 127 125 125 125 124 122 121 122 123 124 123 121 118 116 115 114 115 116 116 117 116 114 113 113 113 112 110 108 108 110 112 113 113 113 112 110 110 112 114 114 115 118 120 120 120 119 118 115 112 111 109 106 105 102 101 101 101 102 103 104 106 108 109 110 111 112 113 113 112 112 113 114 116 118 121 123 124 125 124 124 120 117 115 114 113 111 110 109 106 106 105 104 105 106 108 110 112 113 112 110 109 109 109 109 109 110 111 113 115 118 120 123 124 125 124 121 119 118 118 118 120 122 124 124 124 125 125 125 125 124 124 124 124 124 123 122 121 121 120 118 115 113 114 115 114 113 112 112 110 109 112 112 109 108 106 104 105 107 110 107 104 101 100 100 99 99 99 99 99 98 98 98 98 99 99 100 102 103 103 102 102 102 103 105 106 106 106 106 105 104 103 103 102 100 98 97 95
86 84 84 84 84 84 85 85 85 85 86 86 86 87 87 87 87 87 87 87 87 87 87 88 88 88 89 89 89 89 89 89 89 88 88 88 88 88 88 88 88 88 88 89 90 91 91 91 91 91 91 91 91 91 91 92 92 93 94 94 94 94 94 95 96 96 97 97 97 97 94 93 92 91 90 88 87 86 85 84 83 82 82 82 81 81 80 79 79 79 79 78 78 78 77 77 77 76 76 76 76 76 76 76 77 77 78 78 78 79 79 79 79 79 80 80 80 81 81 81 82 82 82 83 83 83 83 84 84 84 85 85 86 86 87 87 87 88 90 91 92 92 93 94 97 97 97 96 94 93 92 91 91 90 90 89 89 89 88 88 88 88 87 87 87 87 86 86 86 86 86 85 85 84 83 83 82 82 82 81 81 81 81 81 81 81 82 82 83 84 85 86 87 89 90 91 91 90 89 88 87 86 86 85 85 85 85 85 86 87 88 88 88 88 88 88 89 89 89 90 91 91 91 91 91 91 92 92 92 92 91 91 92 92 93 93 93 93 94 95 96 96 97 97 98 99 99 99 99 100 100 100 100 99 99 99 99 98 97 96 95 95 96 96 95 94 94 94 93 92 91 92 92 94 94 94 94 94 94 94 95 96 97 98 99 100 100 100 100 100 100 100 100 100 100 100 101 101 101 102 102 102 102 102 102 102 102 102 102 102 102 102 102 102 102 102 103 103 103 104 104 104 104 105 105 106 107 107 107 108 109 109 109 109 110 112 112 112 112 112 113 114 114 115 115 115 115 115 116 118 120 121 122 122 120 118 117 116 116 117 118 118 120 119 116 114 113 112 112 112 112 112 114 116 117 116 115 117 120 122 122 121 119 115 113 113 115 117 119 121 123 122 120 116 113 112 112 114 116 118 120 121 121 117 114 114 116 117 119 121 122 122 123 122 121 122 123 125 127 128 128 128 128 127 127 128 129 130 131 131 131 132 133 133 132 130 128 125 122 119 118 119 119 117 113 113 116 121 124 124 122 119 120 123 125 125 124 124 124 124 123 123 124 125 127 127 128 129 131 134 135 133 131 131 132 133 133 132 131 129 128 127 124 121 121 123 124 124 122 121 119 119 118 117 115 113 112 112 113 114 114 114 112 111 109 107 106 105 103 102 101 102 103 103 102 98 94 93 95 99 100 99 100 102 104 107 110 113 114 115 115 114 113 112 112 112 113 115 115 116 117 119 120 120 118 116 115 115 115 114 114 114 114 115 117 118 117 116 116 115 113 112 112 112 113 114 115 116 114 112 109 108 108 109 109 107 105 105 102 98 95 95 96 99 101 103 104 103 101 100 101 102 104 107 109 108 107 106 106 107 109 110 111 112 112 112 111 113 115 115 115 115 115 115 114 112 110 109 106 105 104 104 106 107 108 109 109 109 110 111 113 114 114 115 117 119 120 121 121 121 120 118 119 120 121 119 118 116 114 112 112 114 116 116 116 116 118 118 118 117 116 116 117 119 120 121 122 123 125 126 127 127 125 124 124 123 121 121 121 122 123 123 122 120 117 115 113 113 114 115 115 116 115 112 112 112 112 111 108 107 110 112 113 111 111 109 109 111 113 115 116 115 117 120 121 121 120 118 116 114 112 111 108 105 102 101 101 101 102 102 103 105 106 107 108 109 110 111 111 111 112 113 114 116 118 120 122 123 124 125 125 120 118 117 116 115 114 113 111 108 107 105 104 103 105 106 109 111 110 109 107 107 108 108 109 110 111 112 114 116 118 120 123 124 125 123 120 117 116 117 118 122 124 125 126 126 126 127 126 126 125 125 125 123 123 122 121 120 119 119 117 115 114 116 117 115 115 115 114 112 111 114 114 112 111 108 107 109 111 114 110 106 102 100 100 99 99 99 99 99 102 101 98 97 97 99 100 101 101 102 101 100 102 103 104 104 104 104 104 104 104 102 103 102 101 99 97 95
86 84 84 84 84 84 85 85 85 85 85 86 86 86 86 87 87 87 87 87 87 87 87 88 88 88 88 88 89 89 89 88 88 88 88 88 88 88 88 88 88 88 89 89 90 90 91 91 91 91 91 91 91 91 92 92 93 93 94 94 94 94 94 95 96 97 97 97 97 97 95 93 92 92 90 88 86 86 85 84 83 82 82 82 81 81 80 80 79 79 79 78 78 77 77 77 77 76 76 76 76 76 76 77 77 77 78 78 78 79 79 79 80 80 80 80 81 81 81 81 82 82 83 83 83 83 84 84 84 85 85 85 86 86 87 87 88 89 90 91 92 93 93 94 96 98 97 95 93 92 92 91 91 90 90 89 89 89 88 88 88 88 87 87 87 87 86 86 86 86 85 85 85 84 83 83 82 82 81 81 81 81 81 81 81 81 82 82 83 84 85 86 88 91 91 91 90 89 89 88 87 87 86 85 85 85 85 85 86 86 87 88 88 88 88 88 88 88 89 90 91 91 91 91 92 92 92 92 92 92 92 92 92 93 93 94 94 94 95 95 96 98 98 99 99 100 100 100 100 100 101 101 100 100 100 100 99 98 97 96 96 96 96 96 96 95 95 94 94 93 92 92 92 93 94 94 94 94 94 95 96 97 97 98 99 100 101 101 101 101 100 100 100 100 100 100 101 101 101 101 102 102 102 102 102 102 102 102 102 102 102 102 102 102 102 102 103 103 103 103 104 104 104 104 104 106 106 106 106 108 109 109 109 110 111 112 112 113 113 113 113 114 114 115 115 115 116 116 116 117 119 120 122 122 121 119 117 117 117 117 118 118 119 118 117 117 115 114 113 113 112 113 116 118 118 118 118 119 121 122 122 120 117 115 115 116 117 119 122 123 124 123 121 117 114 112 112 114 116 118 120 121 121 120 116 115 116 117 118 119 122 123 124 124 123 123 125 127 128 129 129 129 129 129 128 128 129 130 131 132 132 133 134 133 131 128 125 122 121 121 122 124 122 118 114 113 116 120 123 125 123 119 119 123 125 126 126 126 126 125 124 124 126 128 129 130 130 130 131 131 133 132 129 128 129 130 131 130 129 130 129 126 124 121 120 120 122 123 122 121 119 118 118 118 117 114 112 112 112 112 112 113 111 110 108 106 104 103 102 101 101 101 102 102 100 96 93 94 98 101 101 100 101 104 106 107 109 112 114 116 117 115 114 113 112 112 113 115 116 116 117 118 120 120 119 118 116 115 115 114 114 114 114 114 115 115 115 115 115 114 112 110 110 110 112 113 114 115 114 113 110 107 106 108 109 108 105 101 98 96 95 95 97 101 104 106 107 105 103 102 102 102 103 106 109 109 109 107 106 107 109 110 111 112 113 113 113 114 115 116 116 115 114 114 112 111 109 107 106 105 104 104 105 106 107 107 108 109 109 109 111 112 113 115 118 119 120 121 122 122 120 119 120 121 121 120 118 117 115 113 112 114 115 117 118 118 118 119 119 118 117 116 117 118 119 120 121 123 124 126 127 126 124 123 123 122 121 120 120 121 122 122 121 119 117 115 113 112 112 112 113 114 115 112 111 111 111 110 107 106 109 112 112 110 109 109 110 111 115 116 118 117 117 119 121 121 120 119 117 116 114 112 107 104 102 101 101 101 102 102 103 103 104 106 106 107 108 110 111 112 112 113 114 115 117 119 120 122 124 125 124 122 120 120 118 117 117 116 114 111 108 106 104 103 103 105 108 108 107 106 106 107 108 110 111 112 114 114 114 116 117 119 122 124 125 122 118 116 116 117 118 122 125 126 127 127 127 127 127 126 125 125 124 122 122 121 120 118 118 117 116 115 116 118 119 117 118 118 115 113 112 115 117 114 112 109 109 112 114 114 110 105 102 102 102 102 100 101 101 101 103 102 98 97 97 98 99 100 100 101 100 100 102 103 103 104 103 103 103 104 104 102 100 101 101 100 98 96
85 84 84 84 84 84 84 85 85 85 85 85 86 86 86 86 86 86 86 87 87 87 87 88 88 88 88 88 88 88 88 88 88 88 88 88 88 88 88 88 88 88 89 89 90 90 90 91 91 91 91 91 91 92 92 92 93 93 94 94 95 95 95 95 96 97 97 97 97 96 95 94 94 93 90 87 86 85 85 84 83 82 82 82 81 80 80 79 79 79 78 78 78 77 77 77 77 76 76 76 76 76 76 77 77 77 78 78 79 79 79 79 80 80 80 80 81 81 81 82 82 82 83 83 83 84 84 84 84 85 85 85 86 86 87 87 88 89 90 91 92 93 93 94 96 97 96 94 92 92 91 91 90 90 90 89 89 88 88 88 88 87 87 87 87 86 86 86 86 86 85 85 85 84 83 82 82 82 81 81 81 81 81 81 81 81 82 82 83 84 85 85 88 90 90 90 89 89 88 88 87 87 86 86 85 85 85 85 85 86 86 87 88 88 88 88 88 88 89 90 91 91 91 91 92 92 92 92 93 93 93 93 93 93 94 95 95 96 96 96 97 99 100 100 101 101 100 100 100 100 101 101 101 101 101 100 99 98 97 97 97 98 98 97 96 96 96 95 94 93 92 92 93 93 93 94 94 94 95 96 97 97 98 99 99 100 100 101 101 100 100 100 100 100 100 100 101 101 101 101 102 102 102 102 102 101 101 101 101 101 101 101 101 102 102 102 103 103 103 103 103 103 103 103 104 105 106 106 107 109 109 110 111 112 112 112 113 115 115 115 114 114 114 115 115 117 119 118 117 117 117 119 121 122 122 121 120 118 117 117 118 118 119 119 119 118 117 115 114 114 114 115 118 120 119 119 120 121 121 121 120 118 116 115 115 117 118 121 123 124 124 122 120 117 114 112 113 115 116 118 120 121 122 121 117 115 117 118 118 119 121 122 123 124 124 125 126 129 130 130 130 131 131 131 130 129 130 131 132 133 133 133 134 133 131 127 124 122 123 125 126 126 123 118 115 114 115 118 122 125 124 122 120 121 124 127 128 128 128 127 126 126 127 129 131 131 131 130 128 129 130 129 127 126 127 128 128 128 127 127 126 124 122 120 119 118 120 121 121 121 120 118 116 117 117 115 113 111 110 109 110 111 110 109 107 105 103 102 101 100 99 98 98 97 95 93 93 96 100 103 103 102 103 106 108 110 111 113 115 117 117 116 115 114 114 114 114 115 115 116 117 118 118 119 119 118 117 116 115 114 113 113 113 113 114 114 114 114 114 113 112 110 109 109 111 112 113 113 114 113 110 107 105 107 109 109 107 103 99 96 95 95 98 101 104 108 108 107 106 105 104 105 106 106 108 109 110 109 108 107 109 110 111 112 113 115 115 115 116 116 116 114 112 111 110 110 108 107 105 105 105 105 105 106 108 109 109 110 110 111 111 111 112 114 117 118 120 121 122 122 121 121 122 122 122 121 119 117 115 114 113 114 115 117 118 119 120 120 120 120 118 117 117 119 121 121 123 124 124 126 127 126 124 123 122 121 121 119 119 120 121 121 120 118 116 115 114 113 111 110 111 112 113 113 110 109 110 109 107 106 108 110 110 109 109 109 112 113 115 118 121 120 120 120 121 120 119 119 118 116 115 112 109 105 102 101 101 101 101 102 103 106 106 106 108 109 109 111 113 114 115 114 114 115 117 119 121 123 125 125 123 122 121 120 119 119 118 117 115 112 109 106 103 103 103 105 107 106 105 105 106 108 109 111 113 114 116 117 118 117 117 119 123 125 124 120 118 115 115 117 118 122 125 127 128 128 128 128 127 126 125 123 121 121 120 120 118 118 117 117 116 116 117 120 120 120 121 119 116 115 114 116 117 115 113 111 111 113 115 112 106 104 103 103 106 105 102 104 105 105 105 102 98 97 97 97 98 99 99 100 100 100 101 102 102 102 102 102 102 102 102 102 100 99 100 100 98 96
