ncols         802
nrows         31
xllcorner     -77.79961
yllcorner     38.7577
cellsize      1.0E-5
NODATA_value  -9999
143 144 145 145 147 148 149 149 149 149 150 150 150 150 149 149 149 150 149 149 148 148 147 147 147 147 147 146 146 145 144 143 143 146 148 150 151 152 153 154 155 156 155 155 154 154 152 149 147 146 145 145 145 146 149 151 153 155 157 159 160 161 161 162 163 163 164 164 165 164 164 162 161 160 159 158 157 154 152 150 147 145 142 141 140 138 136 136 137 138 138 139 141 141 141 140 138 134 131 131 131 136 141 145 146 145 143 142 140 137 133 134 140 144 142 141 143 143 142 142 144 145 145 145 145 146 149 151 152 152 153 154 156 157 158 158 157 154 151 149 147 145 145 145 146 147 146 144 143 144 147 151 152 152 151 149 146 142 139 136 134 132 131 131 135 138 141 141 139 135 131 127 126 126 127 131 134 135 135 134 134 134 136 138 139 141 141 141 140 141 144 146 147 148 148 149 150 150 151 152 152 151 150 150 149 148 146 146 145 145 145 145 145 146 145 143 139 138 138 139 139 136 133 131 129 128 128 127 126 124 122 123 128 131 134 134 135 136 137 135 130 128 128 124 120 121 123 126 129 132 132 130 128 127 126 122 116 111 109 109 110 110 109 111 119 124 125 124 123 123 123 123 122 122 119 113 108 109 113 114 115 117 120 121 121 121 120 118 116 115 113 111 111 111 112 113 112 110 108 106 105 105 105 106 110 117 126 136 143 150 157 162 165 169 171 173 175 177 175 173 170 169 165 161 158 158 159 158 157 156 157 159 161 162 161 158 155 150 146 145 146 149 153 155 157 159 161 163 163 160 156 152 147 143 141 141 141 140 139 137 135 133 132 131 129 126 123 121 123 127 129 127 122 117 112 108 106 105 106 110 115 118 121 125 128 129 132 134 136 138 139 140 141 141 137 133 131 134 139 141 138 132 128 133 141 148 155 161 167 173 180 186 189 192 195 199 203 208 214 217 216 211 203 195 188 182 175 166 156 146 137 131 127 125 125 126 125 124 123 124 123 122 121 120 118 117 115 113 110 109 110 112 113 114 115 115 115 115 116 117 117 116 116 116 116 115 114 113 112 112 112 113 115 118 119 119 118 117 116 115 113 112 110 107 106 105 104 103 102 102 102 102 101 101 101 100 99 97 97 97 98 99 100 102 104 105 105 103 102 104 106 106 107 108 109 111 112 114 115 116 117 119 121 123 124 123 121 119 118 120 123 125 126 126 127 127 128 128 128 127 125 124 123 122 121 120 120 120 120 119 119 119 118 117 116 115 115 114 114 114 115 115 114 113 113 112 111 111 109 105 103 105 107 109 109 109 109 109 108 107 105 100 98 97 95 95 94 95 94 95 96 97 99 99 100 100 100 100 100 98 97 98 98 97 95 95 96 95 95 94 94 94 93 93 94 94 94 94 93 90 90 89 88 88 88 88 88 88 88 88 90 90 90 89 89 90 92 91 92 93 93 91 89 88 89 92 93 93 92 92 92 92 91 90 88 91 92 93 93 94 95 94 92 90 87 87 87 88 90 91 93 94 95 95 96 96 96 96 96 96 96 96 96 96 95 95 95 95 94 91 90 89 90 93 94 95 96 97 97 94 93 93 93 96 97 97 97 97 97 97 97 97 96 95 93 91 90 89 88 87 87 90 93 94 94 94 94 94 94 94 92 92 91 90 89 89 89 89 88 88 87 87 87 87 87 87 85 85 85 85 85 85 85 84 84 84 84 84 84 84 84 84 84 84 84 84 84 83 82 82 82 82 81 81 81 81 81 81 81 82 82 82 82 82 82 82 82 83 83 83 83 83 83 84 85 84 84 84 84 83 82 82
140 142 143 143 145 147 148 148 148 148 149 150 150 150 150 150 150 150 149 149 148 148 148 148 148 148 148 147 147 146 145 145 144 146 149 152 152 153 154 155 156 156 156 156 155 154 152 150 149 148 146 145 145 145 147 150 152 154 156 158 160 161 162 162 163 163 164 164 164 164 163 162 161 160 159 159 158 156 154 152 150 147 144 142 139 137 136 137 139 141 141 142 144 144 143 141 139 135 132 132 132 136 142 146 146 145 143 142 140 136 133 135 141 145 145 145 146 146 145 145 145 146 146 146 145 146 146 150 151 152 153 154 157 158 158 157 156 154 152 149 145 145 145 147 149 150 149 146 145 146 148 151 152 151 150 147 144 141 138 137 135 133 132 132 136 140 141 141 138 134 130 127 126 126 128 131 134 135 136 136 136 136 138 140 141 143 143 143 143 143 144 145 146 148 149 149 150 151 152 152 152 151 150 150 149 148 147 146 146 145 145 145 145 145 145 142 139 139 139 140 139 137 134 132 131 130 129 128 127 126 123 122 127 131 134 135 136 137 137 135 131 130 130 124 119 119 121 126 129 129 129 127 123 121 117 114 112 111 111 112 113 112 111 109 114 121 122 121 121 122 122 122 121 121 117 110 106 106 107 107 107 107 110 113 115 118 121 121 120 117 115 112 109 109 109 110 110 109 108 106 105 105 105 107 111 117 127 136 144 151 158 163 166 169 172 174 176 177 176 174 173 170 166 161 159 161 162 161 160 159 159 162 164 163 161 158 154 150 148 146 147 150 153 156 159 161 162 163 163 160 156 152 147 144 144 143 141 140 139 137 135 133 132 129 127 124 122 123 125 128 129 126 121 116 111 107 105 105 107 111 114 116 119 122 126 129 131 133 135 136 137 138 140 140 138 135 133 136 142 146 142 135 129 133 141 149 157 164 170 176 182 186 188 189 192 196 200 207 213 216 215 210 201 193 185 179 171 163 154 144 135 131 129 126 127 128 127 126 126 127 126 123 121 119 117 115 114 112 110 110 112 113 115 115 116 116 116 116 117 117 117 117 117 117 116 115 114 113 112 112 112 114 117 119 120 119 118 117 116 114 112 111 109 107 106 105 104 103 102 102 102 102 102 102 101 100 99 97 97 97 98 100 102 104 105 106 107 106 105 105 105 105 106 108 108 110 111 113 114 115 116 118 121 123 124 123 121 119 118 119 122 123 124 125 126 127 128 128 128 127 126 126 126 125 122 121 121 121 119 118 118 119 119 117 115 114 114 114 113 113 113 113 112 112 111 110 109 109 108 104 103 105 106 106 107 107 107 106 106 106 105 102 102 101 97 97 98 97 95 94 94 95 97 96 98 99 98 99 98 96 95 96 96 95 94 93 94 93 94 93 92 92 91 91 91 92 92 92 91 90 89 89 89 90 90 90 88 88 88 87 88 88 87 87 88 88 89 88 90 92 91 89 88 87 88 90 92 91 91 91 90 91 90 89 88 91 92 92 93 94 95 94 92 90 87 87 87 88 90 92 93 94 95 95 95 95 96 96 95 95 95 95 95 95 95 95 95 95 94 93 90 88 88 91 92 94 96 97 96 93 93 93 93 96 97 97 97 97 97 97 97 97 97 95 94 93 91 89 87 87 88 91 93 94 94 94 94 94 94 94 93 92 92 91 90 90 90 91 90 89 88 88 87 88 88 87 86 85 85 85 85 85 85 84 84 86 86 85 85 84 84 84 84 84 84 84 84 84 85 84 82 82 81 81 81 81 81 81 81 82 81 81 81 81 81 81 82 82 82 82 82 82 83 84 84 83 83 83 83 83 83 82
139 140 141 142 144 145 146 146 146 146 148 149 149 150 150 150 150 150 150 149 149 149 149 149 149 149 149 149 148 148 147 146 145 146 148 151 153 154 155 156 156 157 157 157 156 155 152 151 150 149 148 146 145 145 146 149 151 153 156 158 160 161 162 162 163 163 164 164 163 162 162 161 160 159 159 159 158 157 155 154 152 150 146 144 141 138 137 138 140 143 144 145 146 146 145 142 140 137 133 132 133 137 142 146 147 146 144 142 139 135 133 136 141 145 146 146 147 147 147 147 146 148 148 148 148 148 148 149 150 151 152 154 157 159 159 158 156 154 151 149 147 146 147 150 151 152 151 148 147 148 149 152 152 151 149 146 144 141 139 138 136 133 133 134 138 141 141 140 138 134 130 127 126 126 128 131 133 135 137 138 138 138 139 141 144 145 145 145 145 146 146 146 146 147 149 150 151 152 153 153 152 152 151 151 150 149 148 147 147 146 146 146 145 145 144 142 140 140 140 140 139 137 135 133 133 132 130 129 128 126 123 121 124 129 132 134 135 135 134 133 130 128 127 122 119 118 120 125 128 128 127 123 118 115 113 112 112 113 114 115 115 114 111 109 111 118 120 119 119 120 120 120 120 118 114 108 107 107 107 107 107 107 107 107 108 111 116 117 115 115 115 113 110 109 107 107 107 107 107 106 106 106 106 108 112 120 128 137 145 152 159 163 167 170 173 175 176 178 177 176 175 172 167 163 163 165 166 165 163 162 163 165 165 163 160 156 153 151 150 148 149 151 154 157 160 163 164 164 164 160 156 153 149 146 145 143 141 139 138 137 135 134 132 129 127 125 125 127 129 129 127 124 120 115 111 107 105 105 108 114 118 119 119 121 124 127 129 131 132 133 134 136 138 138 138 137 136 140 146 149 147 139 131 133 140 149 157 165 172 178 182 183 183 182 186 192 198 204 210 214 214 209 200 191 183 175 167 159 151 143 136 132 129 127 127 128 128 127 127 128 126 123 120 118 116 114 113 111 111 112 114 116 118 118 118 118 118 118 118 119 119 119 118 117 116 115 114 113 112 112 114 116 118 119 120 119 118 116 115 113 111 110 109 108 107 106 104 103 103 103 103 103 103 102 101 100 99 97 97 98 99 100 102 105 107 108 109 109 108 108 108 107 106 106 108 110 112 113 114 115 116 119 121 123 124 124 122 120 118 120 122 123 124 124 125 127 127 128 129 128 128 128 129 127 125 123 122 121 119 118 118 118 118 117 115 114 113 112 111 110 111 111 109 108 107 107 106 106 104 103 103 104 105 106 105 104 104 103 102 102 102 101 101 99 96 99 101 100 98 97 94 94 94 94 95 96 95 96 95 94 93 93 93 93 93 93 92 92 91 91 91 91 90 90 90 90 90 90 90 89 89 90 90 92 94 93 90 90 88 87 87 87 87 87 87 87 87 87 86 88 88 88 87 87 87 88 89 88 88 88 88 88 88 87 89 91 91 92 93 94 94 93 91 89 87 87 87 88 90 92 93 94 95 95 95 95 95 95 95 95 94 94 94 95 95 95 95 95 94 93 91 88 89 91 93 94 96 96 94 93 93 93 94 96 96 96 96 96 96 96 97 97 97 96 95 94 92 89 87 87 89 91 93 93 94 94 94 94 94 94 94 94 93 92 91 91 91 91 92 90 90 90 89 90 90 89 88 87 86 86 85 85 86 87 87 88 88 87 85 85 85 85 85 85 86 86 86 86 86 85 83 82 81 83 83 83 82 82 82 82 81 81 81 81 81 81 81 81 81 82 82 82 82 82 83 83 83 83 83 83 82 82
138 138 139 140 142 143 144 144 144 145 147 148 148 149 150 150 151 150 150 149 149 149 149 150 150 150 150 150 149 149 148 147 146 146 148 151 153 155 155 156 157 157 158 158 157 155 153 152 151 151 150 147 145 145 146 148 150 152 155 158 159 161 162 162 163 163 164 164 163 162 161 160 159 158 158 158 158 157 156 154 153 151 148 146 143 140 139 139 142 145 146 148 149 147 146 144 142 138 133 132 133 137 142 145 146 146 145 143 139 136 134 136 141 144 146 147 147 148 148 148 149 150 150 150 150 151 151 151 150 151 152 153 157 159 159 158 157 156 152 150 148 147 149 152 153 154 153 151 150 150 150 151 151 149 148 146 143 141 140 138 135 133 133 136 139 141 141 139 137 134 131 127 127 127 129 132 135 137 139 140 140 140 141 143 145 146 147 147 147 147 146 146 147 148 150 151 152 152 152 152 152 152 152 152 151 150 149 148 147 146 146 146 145 144 143 143 141 140 140 140 139 138 135 134 134 133 132 130 128 125 122 121 124 128 132 133 134 134 132 132 131 127 124 121 119 116 118 123 126 127 125 121 116 113 112 112 113 116 119 120 117 114 110 109 111 116 117 116 117 119 119 119 118 116 112 108 108 108 108 108 108 108 107 107 107 107 108 109 108 109 111 109 107 107 106 106 106 106 106 106 106 106 107 109 113 120 129 137 145 153 160 164 167 170 173 175 176 178 178 178 177 174 169 165 165 168 169 168 165 164 165 166 166 163 159 157 155 153 151 150 151 153 155 158 161 163 165 165 164 160 156 153 149 147 146 143 140 139 137 136 135 134 132 129 127 126 128 131 133 131 127 123 118 115 110 107 105 105 109 116 121 123 123 122 123 125 127 128 129 131 132 133 134 136 138 139 140 143 149 152 150 142 133 133 140 149 157 164 171 177 179 178 176 178 185 190 196 201 208 213 213 208 200 191 184 176 168 161 153 144 137 132 130 128 128 128 128 127 128 128 126 123 120 117 115 113 112 111 112 114 117 120 121 121 120 119 119 119 120 120 120 120 119 117 115 115 114 113 113 114 115 116 118 120 120 119 118 116 114 113 111 109 108 107 106 106 104 103 102 102 102 103 102 102 102 100 99 98 98 99 100 101 103 106 108 109 110 111 110 110 111 109 106 106 108 111 112 114 115 117 118 120 121 123 124 124 122 120 120 121 122 123 124 124 125 126 127 128 128 129 129 130 131 130 127 124 122 121 119 118 117 118 117 116 114 113 112 111 110 110 109 109 107 106 106 106 106 106 105 103 104 105 106 106 106 106 106 105 103 102 102 101 99 97 98 102 104 102 101 100 98 97 95 93 94 94 94 94 93 93 93 93 93 93 93 93 91 91 91 91 91 91 91 90 90 90 90 90 90 90 90 90 92 95 97 96 92 92 92 89 88 87 87 87 87 87 87 86 86 86 87 87 87 86 86 86 87 87 87 87 87 87 87 87 90 91 91 91 93 94 94 93 90 88 87 87 87 89 91 93 94 95 94 94 94 94 95 95 94 94 94 94 94 95 95 95 95 95 94 92 90 88 89 92 94 95 97 96 93 92 92 93 94 96 95 95 95 95 95 96 96 97 96 95 95 94 91 88 87 87 89 90 91 93 93 94 94 94 94 94 94 94 93 92 92 92 92 92 92 91 91 91 90 91 91 90 89 88 87 87 87 87 88 89 89 90 89 88 86 85 85 85 85 86 87 88 87 87 87 85 84 82 82 85 85 85 84 83 83 82 81 81 80 80 80 80 80 80 81 81 82 82 82 82 82 82 82 82 82 82 82 81
137 137 137 137 139 140 141 141 142 144 146 147 148 149 150 151 151 151 150 150 150 150 151 151 151 151 151 151 151 150 150 149 147 146 148 151 153 155 156 157 157 158 159 160 159 155 154 153 154 154 152 149 146 145 145 148 150 152 154 157 159 160 161 162 163 164 164 164 163 162 161 161 159 158 157 156 156 155 154 153 152 151 149 148 145 141 140 141 143 147 149 150 150 150 148 146 143 139 134 132 132 136 140 143 146 147 147 145 141 137 136 137 139 143 145 147 148 149 150 150 151 152 152 152 152 153 154 154 152 152 152 153 156 158 159 159 159 158 155 151 149 149 150 153 155 156 155 153 152 151 150 149 148 147 146 144 142 139 138 136 133 133 135 138 141 141 140 138 136 135 131 128 127 127 130 133 136 138 140 141 142 143 144 145 146 147 149 150 150 148 148 148 148 150 151 152 152 152 152 152 152 152 152 152 152 151 149 148 147 146 146 146 145 145 145 145 144 142 142 141 140 139 137 136 135 133 131 129 126 122 120 122 127 132 134 134 133 132 131 131 128 125 123 122 119 115 116 120 123 125 125 122 119 115 113 113 115 119 121 122 120 115 111 109 112 115 115 115 116 117 117 117 116 114 110 108 109 109 109 109 109 109 108 107 107 106 106 106 106 106 107 107 105 105 105 105 105 106 106 106 106 107 108 111 114 120 127 136 145 153 160 164 168 170 173 175 177 178 178 178 178 175 172 168 169 170 171 170 169 168 169 170 168 164 160 158 157 155 152 152 154 156 158 160 162 164 165 165 164 160 156 152 148 145 144 142 140 138 137 135 133 132 131 128 127 127 131 134 134 132 128 123 118 114 110 107 105 106 109 116 122 126 128 127 126 126 126 128 130 132 133 133 133 135 138 141 144 147 152 155 151 141 134 135 142 149 157 164 170 175 175 173 172 177 184 189 194 199 206 211 211 206 199 192 186 179 170 160 151 142 135 132 130 129 128 127 126 127 127 127 125 122 120 117 115 113 113 112 113 116 120 122 122 122 121 120 120 121 121 121 121 121 120 118 116 115 114 114 115 117 118 118 120 121 121 119 118 117 115 114 112 110 109 107 106 105 103 103 102 101 102 102 102 102 101 99 99 99 99 99 101 103 104 106 108 110 112 112 112 112 113 111 108 107 109 110 112 114 115 117 119 120 122 124 125 124 123 121 121 121 123 124 125 125 125 126 127 128 128 129 130 132 133 131 128 125 122 121 120 118 116 115 115 115 113 112 110 109 109 109 109 109 109 109 109 109 109 109 108 105 105 108 109 110 110 110 109 108 107 104 102 101 99 97 100 105 106 104 104 102 100 100 99 96 96 95 96 97 95 95 95 96 95 94 95 95 95 95 92 92 95 96 95 94 94 92 92 93 94 92 91 91 93 97 100 99 94 93 94 92 92 89 88 89 89 89 88 88 87 87 87 87 87 86 86 87 87 87 87 87 87 86 86 86 89 89 89 91 93 94 94 92 90 88 87 87 87 90 92 93 94 95 94 94 94 94 94 94 94 94 94 94 94 95 95 95 95 95 94 93 90 88 88 92 94 96 96 95 93 92 92 93 94 95 94 94 94 94 94 95 96 96 95 94 94 93 90 87 87 87 89 90 91 93 93 94 94 94 94 94 94 94 94 93 93 93 93 92 92 92 92 92 92 92 92 91 90 89 88 88 88 88 89 90 91 91 91 89 88 87 87 85 85 86 88 89 88 88 87 85 84 83 85 87 87 86 85 85 85 84 81 81 80 80 79 79 79 80 80 81 81 81 81 81 81 81 81 82 82 82 81 81
136 135 136 136 137 138 140 140 142 143 145 147 148 149 150 151 151 151 151 151 151 151 151 152 152 152 152 152 151 151 151 150 149 148 148 151 153 155 156 157 158 159 160 160 159 155 155 155 155 154 152 150 147 145 145 148 151 153 155 157 158 159 160 161 163 164 164 164 163 162 162 161 161 159 158 156 154 153 152 152 151 150 149 148 145 141 140 142 145 148 150 151 152 151 149 147 144 140 134 132 132 135 139 142 146 148 149 146 142 139 138 139 139 142 146 147 148 149 150 151 152 153 153 154 154 155 156 155 154 153 153 154 156 158 159 159 158 158 155 151 150 150 150 152 155 157 157 155 153 151 150 148 146 145 145 143 140 139 137 134 133 133 136 139 141 141 140 138 136 134 131 127 127 128 131 134 136 138 140 142 143 144 146 147 147 148 150 152 151 149 149 149 149 150 151 152 153 152 151 151 151 151 151 152 151 151 150 149 148 147 147 146 146 146 146 145 145 144 143 142 140 140 139 136 134 132 130 127 124 121 120 123 128 133 134 134 133 131 130 128 126 124 122 121 118 115 116 119 122 124 124 124 121 117 113 113 116 121 123 124 122 117 111 109 111 113 113 114 115 116 117 117 116 113 109 108 109 110 111 111 110 109 109 108 107 106 106 106 106 105 105 105 105 105 105 105 105 106 106 107 107 108 109 112 116 122 130 138 146 154 161 165 168 171 173 175 176 177 177 177 177 176 173 170 171 172 172 171 170 170 171 170 168 164 161 159 158 155 154 154 156 158 159 161 163 164 165 165 163 159 155 152 148 144 142 141 139 138 136 135 133 132 130 128 127 128 132 134 133 131 128 124 119 115 110 107 105 106 110 116 121 126 129 130 130 129 129 130 133 135 136 134 133 135 138 142 146 150 155 157 152 143 136 138 145 151 158 164 169 172 172 169 170 176 182 188 193 198 204 209 209 205 199 192 186 179 170 159 149 141 135 132 130 129 128 127 126 126 126 126 124 122 120 117 115 114 113 113 114 117 121 123 123 122 121 121 121 122 122 122 122 122 120 118 117 115 115 115 116 118 119 120 121 122 120 119 118 117 116 114 112 110 109 107 106 105 104 103 102 101 101 101 101 100 100 99 99 99 99 100 101 102 104 107 109 110 111 112 113 113 114 113 109 108 108 110 111 113 115 117 118 120 122 124 126 125 123 122 122 122 123 124 125 126 127 127 127 128 128 129 130 132 133 130 128 125 122 122 121 119 116 115 114 113 113 112 110 109 109 110 109 109 110 111 111 111 111 110 109 106 105 108 110 111 111 111 111 109 109 105 103 103 101 99 102 106 107 105 105 102 101 103 100 97 100 98 100 100 97 98 98 99 98 97 97 98 98 98 94 94 97 98 97 97 97 94 93 96 97 93 91 91 94 98 101 101 94 94 94 94 94 90 89 91 93 93 92 92 91 89 88 87 87 88 89 91 89 88 89 88 87 86 86 86 87 87 89 91 93 94 93 92 89 88 87 86 87 90 92 93 94 94 94 93 94 94 94 94 94 94 94 94 94 95 95 95 95 94 94 93 91 88 87 91 93 96 96 94 92 91 91 93 94 94 94 94 94 94 94 95 95 95 94 93 94 92 88 87 87 88 90 91 92 93 94 94 94 94 94 94 94 94 94 94 93 93 93 93 93 93 92 92 92 92 92 91 91 89 89 90 88 88 89 90 91 92 91 90 89 88 87 85 86 87 88 89 88 88 87 85 85 85 86 87 88 87 86 86 85 84 82 82 81 80 79 79 79 79 79 80 80 80 80 81 81 81 81 81 82 82 81 80
133 134 136 138 138 139 140 141 142 143 145 146 147 149 150 151 151 151 151 151 151 152 152 152 152 153 153 152 152 152 152 151 150 149 148 150 152 154 155 156 158 159 159 159 158 156 155 155 156 155 153 151 147 145 145 148 151 153 155 156 157 158 159 161 162 164 165 164 163 163 162 162 161 161 160 158 156 154 152 150 148 148 148 146 145 141 140 142 145 149 151 152 153 153 151 148 145 140 134 132 132 134 138 141 146 149 151 148 144 141 141 141 140 141 144 146 147 149 150 151 152 153 154 154 155 156 157 157 156 155 155 157 158 159 159 159 158 157 155 152 150 150 151 153 156 158 159 157 154 152 150 147 145 143 143 141 140 139 138 134 134 135 138 140 142 141 140 138 136 134 130 127 127 128 132 135 137 139 140 141 143 144 146 146 147 148 150 151 151 150 149 150 150 151 151 152 152 152 151 151 150 150 151 151 151 150 150 149 148 148 147 147 146 146 146 145 145 145 143 142 141 140 138 135 132 130 127 125 121 120 122 125 129 132 134 133 132 129 127 126 125 123 121 119 116 115 115 118 122 123 124 125 124 120 115 113 116 121 125 126 125 120 113 109 109 111 112 113 115 115 116 116 116 113 109 108 111 112 112 112 112 111 110 109 107 106 106 106 106 105 105 105 105 105 105 106 106 106 106 107 108 109 110 112 117 125 134 142 149 156 161 165 168 170 172 174 175 176 177 177 176 174 173 171 172 172 172 172 172 172 171 170 168 165 163 161 158 156 156 156 157 159 160 161 163 165 165 164 161 157 154 150 146 143 140 139 138 137 136 135 134 132 130 128 127 130 133 133 132 129 127 123 118 114 110 107 106 107 111 117 122 126 130 133 135 135 133 133 137 140 141 139 136 137 139 142 148 153 158 161 157 149 140 140 146 152 158 163 168 170 168 166 169 175 181 186 190 195 200 205 207 204 198 192 186 179 170 159 149 142 136 133 131 128 127 126 125 124 124 124 122 120 118 116 115 114 113 113 115 119 122 123 124 123 122 122 122 122 123 123 123 122 120 119 117 115 115 115 116 118 120 121 121 122 120 118 117 116 115 113 112 110 108 107 107 106 105 103 102 101 100 100 100 100 100 99 99 99 99 100 102 103 105 107 108 110 111 112 114 115 115 114 111 108 108 110 112 113 115 117 118 120 122 125 126 126 124 122 122 123 124 124 125 127 128 128 128 128 128 129 129 130 130 128 126 124 123 122 120 118 116 115 114 113 112 112 111 111 112 112 111 111 112 113 113 112 111 110 109 106 106 108 111 112 112 112 112 110 109 106 105 104 102 100 103 107 108 107 106 103 102 104 100 100 101 99 101 101 99 100 100 101 99 99 99 99 100 98 94 95 99 100 99 99 98 95 95 97 97 93 91 92 95 98 102 102 95 96 96 97 95 90 89 92 95 96 96 98 96 94 93 90 90 93 96 96 92 91 93 90 87 86 86 86 86 87 88 91 93 93 92 90 88 87 86 86 87 89 91 92 94 93 93 93 93 93 93 93 93 93 93 94 95 94 94 95 94 94 94 93 91 88 87 91 93 95 95 93 91 91 91 93 94 93 93 93 93 93 93 94 94 93 92 92 93 92 88 87 86 89 92 93 93 94 94 93 93 93 94 94 94 94 94 94 93 93 93 93 92 92 92 92 92 92 92 91 91 90 90 90 90 89 90 90 91 91 91 90 89 88 87 86 87 87 88 89 88 88 87 86 86 86 87 87 88 87 87 86 85 85 84 82 82 81 80 79 79 79 79 79 79 79 80 80 80 80 80 81 81 81 80 79
133 136 139 140 141 143 143 144 144 144 145 146 147 149 150 151 152 151 151 151 151 152 152 152 153 153 153 153 153 153 152 152 151 150 149 149 151 153 154 156 158 159 159 159 158 157 157 157 156 155 153 151 148 146 145 148 150 152 154 155 155 157 158 160 162 164 165 164 163 163 162 162 162 162 161 159 157 155 153 151 149 147 145 145 143 141 141 142 145 149 151 153 154 154 153 150 146 141 135 132 132 134 137 141 145 150 151 150 147 145 145 144 142 140 143 145 146 148 150 151 153 154 155 155 156 157 159 158 158 157 158 158 159 160 159 158 158 156 155 152 152 152 152 155 157 159 160 158 155 152 150 147 145 143 141 139 139 139 138 136 136 138 140 140 142 141 140 138 135 132 130 127 127 128 132 134 137 138 139 140 142 144 145 146 147 148 150 150 150 150 150 151 151 152 152 152 152 152 151 151 150 150 150 149 149 149 148 148 149 148 148 147 146 146 146 145 144 144 143 142 140 139 137 134 131 128 124 121 120 121 125 128 131 133 133 133 131 129 127 125 123 122 122 119 116 115 115 116 119 121 122 124 125 122 115 113 114 120 126 129 127 123 116 110 109 110 111 112 114 114 115 115 114 112 109 109 112 114 114 114 114 113 112 110 108 107 107 107 106 105 105 105 106 106 106 106 107 107 107 108 109 110 113 115 119 128 137 144 151 157 162 166 168 170 172 172 173 174 175 175 174 173 171 170 170 171 172 172 172 172 171 170 168 166 164 161 159 157 157 157 158 158 159 160 162 164 164 163 159 155 151 148 144 141 139 138 137 135 134 134 133 132 130 128 129 131 133 133 129 125 123 121 117 113 109 106 106 107 112 118 123 128 132 135 138 139 138 137 140 144 145 142 139 138 139 143 149 155 160 165 163 155 145 141 145 151 157 161 164 166 164 164 169 174 178 182 186 190 195 200 202 200 196 191 185 179 171 160 150 143 137 133 129 127 126 125 124 123 122 122 121 119 118 117 117 115 114 114 116 120 122 124 125 125 124 124 124 124 124 124 123 122 121 119 117 115 115 115 116 118 120 121 122 122 120 118 116 115 113 112 110 109 108 107 106 106 105 104 103 101 100 100 100 100 100 99 99 99 100 101 102 103 105 106 108 109 111 113 115 116 116 116 112 109 109 110 112 114 116 117 119 121 123 125 127 126 125 124 124 124 125 126 126 127 128 128 128 129 129 128 128 128 128 127 124 123 122 121 120 118 116 115 114 113 113 113 113 113 114 115 113 113 114 115 114 112 111 110 108 106 106 108 111 112 113 112 111 110 109 107 106 104 101 101 104 108 108 108 107 104 103 104 101 102 102 100 102 101 101 102 102 102 100 101 100 101 102 98 94 95 98 100 100 101 99 96 98 99 98 93 91 93 96 99 102 102 96 98 99 98 95 91 91 93 96 98 98 99 98 97 95 91 92 96 98 98 94 94 96 93 90 89 86 86 86 86 87 89 91 91 90 89 88 87 85 85 87 88 90 92 92 92 91 93 92 92 92 93 92 92 94 95 95 94 94 94 94 94 93 93 91 88 87 91 93 94 93 91 90 90 91 93 94 93 91 92 92 92 93 94 94 92 91 91 91 90 89 86 86 90 93 94 94 94 93 92 91 93 93 93 93 94 94 93 93 93 93 92 92 92 92 92 92 92 92 91 91 91 91 91 91 91 91 91 91 91 91 91 90 88 88 88 88 88 88 89 88 88 88 88 88 88 88 88 88 87 87 85 85 85 84 83 83 82 81 79 79 79 79 79 79 79 79 79 80 80 80 80 80 80 80 79
133 135 137 138 140 142 144 145 146 146 146 146 147 149 149 151 152 151 151 151 151 152 152 152 153 153 153 154 153 153 153 153 152 151 150 149 150 152 154 156 157 158 159 159 158 158 158 157 157 155 153 151 148 147 146 147 149 151 152 153 155 157 160 163 164 165 165 164 163 162 162 161 161 161 161 159 157 156 154 152 150 148 145 143 142 141 141 143 145 149 151 153 154 155 154 151 146 142 137 133 133 135 139 142 146 150 152 151 149 146 147 146 144 143 143 144 145 147 149 151 152 153 155 156 157 158 159 160 160 160 160 160 160 160 159 158 157 156 155 153 152 154 156 157 159 162 162 160 156 152 150 147 145 142 140 139 139 139 138 137 138 139 141 142 142 141 139 137 135 132 130 127 127 128 131 134 135 136 138 139 141 142 144 145 147 148 149 149 149 150 150 151 152 152 153 153 152 152 151 151 150 149 149 149 148 148 147 148 148 148 148 147 146 146 146 145 144 143 142 142 140 138 135 133 132 129 124 120 120 123 126 128 131 132 131 131 129 127 125 123 122 122 121 118 116 114 114 115 116 118 121 122 123 121 116 113 113 117 124 130 130 128 122 114 109 109 110 111 112 113 113 113 112 110 108 109 114 117 117 117 117 115 114 111 109 108 108 107 107 106 106 106 106 107 107 107 107 107 108 108 110 112 115 118 122 128 136 144 151 157 162 165 167 169 169 170 171 172 172 172 172 170 169 168 169 170 171 172 172 171 170 169 167 166 164 162 160 158 156 156 156 156 156 157 159 161 162 162 159 155 151 147 143 141 139 138 136 134 133 133 132 132 130 130 130 132 133 132 126 121 119 117 114 111 108 106 106 108 114 120 125 130 133 137 140 141 141 142 144 146 147 143 139 140 143 146 150 156 163 168 167 160 149 142 142 148 153 157 160 160 160 164 169 173 176 179 182 185 189 194 196 196 193 189 184 177 169 159 150 143 136 132 129 127 126 125 123 122 121 121 121 120 120 121 119 116 115 115 116 119 122 124 126 127 126 126 125 124 124 123 123 122 121 120 117 115 115 115 117 118 120 122 123 122 121 119 116 115 113 111 109 109 107 106 106 106 105 104 103 101 101 101 102 102 100 99 99 99 100 101 103 103 105 106 108 110 113 114 115 116 116 115 113 110 109 111 112 114 117 118 119 121 123 125 127 127 125 125 125 126 126 126 127 127 128 129 129 129 129 128 127 127 127 125 124 123 122 121 119 118 116 115 114 114 114 114 114 115 116 116 115 115 115 116 114 112 111 109 109 108 108 109 111 112 113 112 110 109 108 106 104 103 102 101 104 107 108 108 107 104 105 105 101 102 101 101 103 101 101 102 103 102 102 103 103 103 102 98 94 94 97 100 101 101 99 98 100 101 98 94 91 92 96 100 103 102 98 99 100 98 94 91 91 93 98 99 100 100 100 97 95 92 93 98 100 99 95 97 98 94 93 92 88 86 86 86 86 86 87 87 87 87 87 86 85 85 85 85 88 90 90 90 91 92 91 90 91 91 91 92 95 96 94 94 94 94 94 93 93 92 92 89 87 90 92 92 91 90 89 90 91 93 94 92 91 91 91 92 93 94 93 92 91 90 90 89 88 86 85 90 92 93 93 93 92 91 91 91 92 92 93 94 93 93 92 92 92 92 92 92 92 92 92 92 92 91 91 91 91 91 91 91 91 91 91 91 91 90 89 88 88 88 88 88 88 89 88 88 88 88 88 88 88 88 88 87 87 85 85 85 84 83 83 82 81 80 79 79 79 79 79 79 79 79 79 79 80 79 79 79 79 78
137 138 138 138 139 141 143 144 146 147 147 147 148 148 149 151 151 151 150 150 151 151 152 152 153 154 154 154 154 154 154 153 152 151 151 151 151 152 154 155 156 157 158 159 159 159 158 158 157 155 153 151 149 147 147 148 149 151 152 155 157 160 162 164 166 166 165 164 163 162 161 160 160 160 159 158 156 155 153 152 150 148 145 142 142 142 142 143 146 149 151 153 154 155 155 150 147 142 138 135 133 136 140 144 147 150 152 152 151 149 149 148 145 144 144 145 145 146 148 149 151 152 154 155 157 158 159 160 162 163 163 162 160 159 159 158 157 156 155 155 155 156 157 159 161 164 164 160 155 151 149 147 145 142 140 138 138 138 139 139 140 140 142 143 142 141 139 137 134 132 130 128 128 129 131 133 134 134 136 139 140 141 143 145 146 147 148 148 149 150 150 151 152 152 152 152 153 152 152 151 150 149 148 147 147 147 146 146 147 147 148 148 147 147 146 145 144 142 140 140 140 138 135 134 132 128 123 120 121 124 128 129 129 129 128 128 128 125 122 120 121 121 119 116 114 114 113 113 114 116 118 119 120 118 115 113 112 115 123 131 134 132 127 118 111 109 109 110 111 111 111 111 110 108 107 110 117 120 119 119 119 117 115 113 110 109 109 108 107 107 107 107 107 107 108 108 108 109 109 110 112 114 118 124 129 133 137 143 150 156 161 165 166 167 168 168 169 170 170 169 169 169 167 167 168 169 170 171 171 170 169 168 166 165 163 161 159 157 155 153 152 152 153 155 157 158 159 160 158 155 151 147 144 142 140 139 136 134 133 133 132 132 132 132 132 132 133 131 125 119 116 114 112 109 107 106 107 110 115 121 127 131 135 138 140 142 143 145 147 149 148 143 141 143 146 149 153 158 165 170 170 163 153 143 141 146 150 153 154 154 157 163 168 171 173 175 178 181 184 187 191 192 190 186 182 176 167 157 149 142 136 132 130 128 126 125 123 122 121 121 121 121 122 122 119 116 115 115 117 119 121 124 126 127 128 127 126 125 124 122 121 121 121 119 117 115 115 115 117 120 121 122 124 123 121 119 116 115 113 112 110 109 107 106 106 106 104 103 103 103 103 103 103 103 101 99 99 99 100 101 102 103 105 106 108 110 112 115 116 116 116 115 113 111 110 111 112 114 117 119 119 121 123 125 127 127 125 125 126 127 128 128 128 128 129 129 129 129 129 128 127 126 125 124 124 122 121 120 119 118 116 116 116 116 116 116 116 117 118 117 116 116 116 116 115 113 112 110 109 109 110 111 111 112 113 112 109 109 108 108 106 104 103 102 103 105 107 107 106 104 105 105 102 103 101 102 103 102 103 104 104 104 104 104 104 103 101 96 95 96 97 100 101 101 99 99 101 101 98 94 92 93 96 100 103 103 100 100 101 98 94 91 92 94 99 100 100 100 100 98 95 93 94 98 100 99 96 99 100 96 95 93 89 87 87 86 86 85 85 85 85 85 85 85 85 85 85 84 85 87 88 88 90 90 89 89 91 91 89 90 95 96 94 93 93 93 93 93 92 92 91 89 87 89 91 91 90 89 89 91 92 93 93 91 91 91 91 92 93 94 93 93 92 89 88 87 86 85 85 88 91 92 92 92 92 91 90 90 91 91 93 93 93 92 92 91 91 92 91 91 91 91 91 92 92 91 91 91 91 91 91 91 91 91 91 91 91 90 89 88 88 88 88 89 89 89 89 89 89 89 89 89 89 88 88 88 87 85 85 85 84 84 83 82 82 81 80 79 79 79 79 79 79 79 79 79 79 79 79 78 78 77
140 142 142 141 141 141 142 143 145 146 147 147 148 148 149 150 151 150 150 150 150 150 151 152 153 154 154 154 154 154 154 154 153 152 151 151 151 152 153 154 155 156 157 158 159 159 159 158 157 156 154 152 149 147 147 148 150 152 155 157 160 162 164 166 167 167 166 164 163 163 161 159 157 156 154 153 153 153 152 151 149 146 144 143 143 142 142 144 146 149 151 153 154 155 155 150 147 143 140 137 133 135 141 144 147 149 152 152 151 151 151 150 146 145 145 145 145 146 146 148 150 152 153 154 157 158 159 160 162 163 163 162 160 158 159 159 158 157 156 156 156 157 158 159 161 162 163 159 155 151 149 146 144 142 140 138 138 138 139 139 140 141 143 143 142 141 139 137 134 132 130 129 129 130 131 132 133 133 135 137 139 140 143 145 146 147 147 148 149 149 150 151 152 152 152 152 152 152 151 151 150 148 147 146 146 146 146 146 146 147 148 148 147 147 146 145 144 141 139 140 140 139 138 135 130 125 122 120 120 124 127 128 128 127 127 127 127 124 122 120 119 118 116 114 113 113 112 113 114 115 115 114 114 114 113 112 112 117 125 131 134 133 128 121 113 109 109 109 111 111 110 109 108 108 107 111 119 122 121 121 120 119 116 113 111 109 109 108 107 107 107 107 107 107 108 109 109 109 110 112 114 117 123 128 134 138 143 145 149 154 159 163 164 165 166 167 168 168 168 168 167 167 165 164 165 167 169 170 170 169 168 166 165 164 162 161 159 156 154 152 150 150 151 152 154 155 157 158 158 154 150 147 145 144 142 140 137 135 133 133 133 132 132 133 132 130 131 129 123 117 114 112 109 108 107 107 108 112 116 122 128 132 135 138 140 142 143 145 148 150 148 145 144 145 148 152 156 160 166 171 171 165 156 145 142 144 147 148 149 151 156 161 165 167 169 171 174 177 179 182 185 186 186 184 179 174 166 155 147 141 136 134 132 130 127 125 124 122 121 121 121 122 123 122 119 116 115 116 118 119 121 124 126 127 128 127 126 124 123 122 121 120 120 119 117 115 115 115 117 120 121 122 124 123 121 119 116 115 113 112 111 109 108 107 106 106 104 103 103 103 103 103 103 103 102 99 99 99 99 100 102 103 104 106 107 108 111 113 115 116 117 115 113 111 111 111 112 114 117 118 119 120 122 124 127 127 125 124 125 127 127 128 128 129 129 129 130 129 129 128 127 126 125 124 124 122 121 120 119 118 118 117 116 116 116 116 116 117 118 118 117 117 117 116 115 113 112 111 110 110 110 111 112 112 113 112 110 110 109 109 108 106 106 103 104 106 108 107 106 105 105 104 103 103 102 102 103 103 103 104 104 104 104 103 103 103 100 96 97 99 98 100 101 102 100 100 101 101 98 94 93 94 97 100 103 103 101 101 101 97 94 93 93 95 99 101 101 101 101 99 96 94 95 99 100 99 97 99 100 97 96 94 90 87 87 86 86 85 85 85 85 85 85 85 85 85 85 84 84 84 86 86 87 87 86 88 90 89 88 89 94 97 95 93 92 93 92 91 92 92 91 89 87 88 91 90 88 88 90 91 92 93 92 91 90 90 91 93 94 93 93 93 93 91 89 87 85 84 85 89 91 91 92 92 91 90 89 90 91 91 91 92 92 91 91 91 91 91 91 91 91 91 91 91 91 91 90 90 90 90 90 91 91 91 91 91 91 90 89 88 88 88 88 88 88 88 88 88 88 89 89 88 88 88 88 88 87 86 85 85 84 84 83 82 82 81 81 80 79 79 79 79 79 79 79 79 79 79 78 78 77 76
142 143 144 145 145 144 142 142 144 146 146 147 148 149 149 150 150 150 149 149 148 149 151 152 153 154 155 155 155 155 155 154 154 153 152 152 153 153 153 154 155 155 156 158 159 159 159 158 158 157 155 153 150 147 147 148 152 153 156 158 161 163 165 167 168 167 166 165 164 163 162 160 158 156 153 151 151 150 149 147 145 145 145 147 146 143 142 145 148 150 152 153 154 155 155 151 148 145 142 139 135 134 138 142 144 147 150 152 152 152 151 150 147 146 146 147 147 147 147 148 149 151 152 153 157 158 159 160 161 162 162 161 158 157 157 158 157 157 156 155 155 156 157 157 158 159 160 157 153 150 148 145 143 140 139 138 138 139 139 140 142 143 144 144 142 141 139 137 134 132 130 130 131 132 133 133 133 134 135 137 139 140 143 145 146 146 146 147 148 149 150 151 152 152 152 152 151 151 151 150 149 147 146 146 146 145 145 146 146 147 149 148 148 147 145 145 144 141 139 138 139 140 140 136 129 123 120 119 120 123 125 125 125 125 125 125 125 124 122 120 117 115 114 113 112 112 112 112 112 113 113 112 112 112 112 112 115 120 128 133 134 133 129 122 115 110 108 109 109 109 109 108 108 108 111 116 121 124 123 122 121 119 117 114 112 111 110 109 108 108 108 108 108 108 109 110 110 110 112 114 118 124 131 136 140 144 148 151 153 155 158 160 162 163 165 165 165 165 165 165 165 165 164 163 163 165 167 169 169 168 166 164 162 161 160 160 158 155 152 150 148 147 148 149 151 153 156 158 157 154 151 149 147 144 142 141 138 136 134 134 134 133 132 131 129 127 127 126 120 115 112 110 107 107 107 109 111 115 119 123 128 132 135 138 139 139 141 144 146 147 147 146 146 148 151 155 159 163 168 172 171 166 157 147 143 144 146 148 150 151 153 157 161 163 165 168 171 173 175 176 178 179 180 179 176 172 164 154 147 142 139 137 136 132 128 126 125 124 124 124 124 124 123 121 118 115 116 117 119 120 121 123 126 127 127 127 126 124 122 122 121 120 119 118 116 116 116 116 118 121 123 124 123 123 121 118 116 115 113 113 112 110 109 109 108 107 105 103 103 103 104 105 105 104 103 100 99 99 99 101 102 103 104 105 106 107 109 113 116 116 117 115 113 112 112 112 113 115 117 117 117 119 121 124 126 126 124 123 123 125 127 128 129 130 130 130 130 130 129 128 128 127 125 125 124 122 122 122 121 120 119 118 118 117 117 117 117 118 119 118 118 117 117 116 115 114 113 113 111 110 111 112 113 113 113 113 112 111 111 111 109 107 107 104 105 108 109 108 107 106 105 103 104 104 103 103 104 105 105 105 105 104 104 103 102 101 98 96 99 101 100 100 102 103 102 102 102 101 97 94 94 95 97 101 103 103 102 101 101 97 94 94 94 97 100 101 102 102 101 100 97 95 98 100 101 99 98 100 100 98 97 95 92 88 87 86 86 86 86 86 87 86 85 86 86 86 85 84 84 84 84 84 84 84 84 85 87 86 86 89 93 97 94 91 91 91 91 90 91 91 91 90 87 86 88 87 87 89 90 91 92 91 91 90 90 90 91 93 93 93 93 93 93 91 91 88 85 84 84 88 89 90 91 92 90 89 88 89 90 91 90 91 91 91 91 91 91 91 91 91 91 90 90 90 90 90 90 89 89 89 90 90 91 92 92 91 91 91 90 89 88 88 88 88 88 88 88 88 88 88 88 88 88 88 88 87 86 85 85 84 84 84 83 83 83 82 82 82 81 81 82 81 79 79 79 79 79 78 78 78 77 76
142 143 144 146 147 147 146 144 144 146 146 146 148 149 149 150 150 149 149 148 147 149 151 152 153 154 155 155 155 155 155 155 154 154 153 153 154 154 154 154 155 155 156 158 159 159 159 159 158 157 155 153 150 148 147 148 151 154 157 159 162 164 166 167 167 167 166 165 165 164 163 161 160 158 156 154 152 151 149 147 146 147 149 149 148 144 143 146 148 151 152 153 154 154 154 151 149 145 142 140 136 135 136 139 142 146 149 152 153 153 152 151 149 148 147 148 149 150 150 150 150 151 151 152 156 157 157 158 159 160 160 159 157 157 157 157 157 156 155 154 154 154 155 155 156 157 157 154 151 149 147 145 142 139 138 138 138 139 140 142 144 145 145 144 140 139 139 137 134 132 131 131 132 133 134 135 136 137 137 138 139 139 141 144 145 145 145 146 147 149 151 151 152 152 152 152 151 151 150 149 148 146 145 145 145 145 145 146 147 149 149 149 149 147 145 144 143 141 139 137 137 138 138 134 129 124 121 118 118 121 122 122 122 123 123 123 123 123 122 121 117 114 113 112 112 112 112 112 112 112 112 112 112 112 113 116 121 126 130 133 135 134 130 123 116 109 109 110 110 110 109 108 108 110 117 123 125 124 124 123 121 120 118 116 114 112 110 109 109 108 108 108 108 109 109 110 111 112 114 117 124 131 137 142 145 148 152 155 159 160 161 161 163 164 164 164 164 163 163 163 163 163 163 162 162 164 166 166 166 165 164 162 159 158 158 158 157 154 151 149 147 145 145 146 148 150 153 156 157 155 152 149 147 144 142 140 139 137 135 134 134 133 131 128 126 123 124 123 118 113 110 108 107 107 108 110 113 117 122 125 129 132 134 136 137 138 140 142 143 144 146 146 147 150 153 156 161 166 170 172 170 164 155 147 144 144 148 152 154 156 157 158 159 161 164 166 168 170 170 171 172 172 173 173 172 168 161 153 148 146 143 141 138 133 129 127 126 126 127 126 126 125 122 120 118 116 117 119 120 122 123 124 125 126 127 127 126 124 122 122 121 120 119 118 117 116 117 118 118 121 124 124 123 122 120 118 116 115 114 113 112 111 110 109 108 107 105 103 103 104 105 106 106 105 104 101 99 99 99 101 103 104 105 106 108 108 110 113 115 116 117 115 113 113 113 113 113 114 115 116 117 118 120 122 124 123 123 122 123 125 127 128 129 130 131 131 130 130 129 129 129 128 126 125 124 123 123 122 122 121 120 119 118 118 117 117 117 118 118 118 118 117 117 116 116 115 114 113 112 111 111 112 113 113 113 113 113 112 112 112 109 108 108 105 106 109 110 109 107 106 105 105 105 105 103 103 104 105 106 106 105 104 103 102 100 98 97 98 101 102 100 100 103 104 103 103 103 101 97 94 94 96 99 101 103 103 102 101 101 98 96 96 96 97 100 101 102 102 101 100 97 96 99 101 101 99 99 99 100 98 96 94 92 91 88 87 90 92 92 93 93 90 87 88 89 88 87 86 86 85 84 84 84 84 84 84 85 84 86 89 93 95 93 91 90 90 89 89 91 90 90 90 87 85 85 86 86 89 91 92 91 90 90 89 89 90 92 93 92 92 92 93 92 90 90 88 86 85 85 86 88 90 91 92 90 89 88 88 90 90 89 90 91 90 90 90 90 91 91 91 91 90 89 89 89 89 89 88 88 89 89 90 91 92 92 91 91 90 89 88 88 88 88 88 88 88 88 88 88 88 88 88 88 87 87 86 85 85 84 84 83 83 83 83 83 83 83 82 82 82 82 82 80 79 79 79 78 78 78 77 77 76
140 140 142 145 148 149 149 147 146 146 146 146 148 149 150 150 149 148 147 145 146 149 151 152 153 154 155 156 156 156 156 156 155 155 155 155 155 156 156 155 155 155 156 158 158 159 159 159 158 157 155 154 151 148 147 148 150 153 156 159 162 164 165 166 166 166 165 165 165 164 163 162 161 160 158 156 154 152 151 150 149 150 151 150 148 145 145 147 149 151 153 153 153 153 152 150 148 146 142 139 138 137 136 138 141 145 149 151 153 153 153 152 150 150 149 149 150 152 152 152 152 152 152 152 154 156 157 157 158 158 158 158 157 156 156 155 155 154 153 152 152 153 153 153 153 154 153 151 148 146 145 143 141 139 138 138 139 140 142 144 145 146 146 143 139 138 138 136 133 132 132 132 133 134 136 137 139 140 141 141 141 140 140 142 144 145 145 146 148 149 151 152 152 153 153 152 151 151 149 148 147 145 144 144 144 145 145 147 149 151 151 151 150 147 145 143 141 140 140 137 134 134 132 128 125 124 124 120 116 117 118 119 120 121 122 121 121 122 122 121 118 114 113 112 112 112 114 116 116 116 116 116 117 116 116 120 126 131 133 135 135 132 128 123 118 115 114 116 118 118 117 115 115 115 119 124 124 124 124 123 122 121 119 116 114 113 111 109 109 109 109 109 109 109 109 111 113 114 116 120 127 134 141 146 150 152 154 158 161 163 164 164 164 164 164 163 162 161 161 161 161 161 161 161 162 163 164 164 164 163 162 160 157 155 154 155 154 152 150 148 145 143 142 142 144 148 151 153 154 153 151 149 147 144 141 139 138 137 135 133 132 130 128 125 122 120 120 119 115 111 108 108 108 108 109 111 114 118 123 127 130 132 134 134 134 136 138 140 140 141 142 144 145 147 150 155 161 166 171 171 167 161 151 146 148 149 151 153 156 160 164 165 165 166 166 167 167 167 167 166 166 166 167 167 166 163 159 155 152 149 146 143 139 134 130 128 129 130 130 129 128 126 122 119 118 118 119 121 122 124 125 126 126 126 127 127 125 124 123 122 121 121 120 119 118 118 119 120 121 121 123 124 123 122 121 119 117 115 113 112 111 110 109 108 108 107 105 103 103 105 106 106 106 106 103 100 99 99 99 101 104 105 107 108 110 111 112 112 114 116 117 116 114 114 113 113 114 114 115 115 116 117 118 120 120 120 120 122 123 125 127 128 129 130 131 131 131 130 130 131 130 129 128 126 125 124 123 123 122 122 121 120 119 118 117 117 116 117 117 117 116 116 116 116 116 116 115 114 112 112 112 112 113 114 114 113 113 113 113 112 109 109 108 106 107 110 111 109 107 107 106 106 107 106 106 106 106 106 107 106 105 103 103 101 101 101 100 101 101 102 100 100 103 104 104 104 103 100 96 94 94 97 100 101 103 104 103 102 101 99 97 97 98 99 100 101 102 101 101 100 98 97 100 101 101 100 100 100 100 98 97 95 95 94 91 89 92 95 97 97 96 92 88 89 92 92 90 91 93 90 89 88 87 85 84 84 84 84 85 88 91 92 90 89 89 88 87 87 89 88 89 90 88 85 85 85 86 89 91 92 91 90 89 88 88 90 92 92 91 90 91 91 91 90 88 87 85 84 85 87 89 90 91 91 90 89 87 87 88 88 88 90 90 89 89 89 90 91 91 91 91 90 88 88 88 88 88 88 88 88 88 90 91 92 92 91 91 90 89 88 88 87 87 87 87 87 87 87 88 88 88 88 88 87 86 85 85 85 84 84 83 82 82 82 82 83 83 83 83 82 82 82 80 79 79 79 78 78 77 77 77 77
138 137 141 145 148 150 150 149 148 147 146 146 148 149 149 150 149 148 146 144 147 150 151 152 152 153 154 155 156 157 157 157 156 155 155 156 156 156 157 157 157 157 157 158 158 160 159 159 158 157 156 154 151 149 148 148 151 153 157 160 162 164 165 165 164 163 163 164 165 164 163 162 162 160 159 157 155 154 153 152 151 151 151 149 147 145 145 147 149 151 152 151 151 149 148 147 146 144 141 140 141 140 137 137 141 145 148 152 153 154 153 152 152 151 150 150 151 152 153 154 154 154 155 155 154 155 156 157 157 158 158 157 156 156 155 154 154 153 152 151 151 151 151 151 152 152 151 149 146 144 143 141 139 139 139 139 140 142 143 145 146 146 145 141 139 137 136 135 133 132 132 133 134 135 137 139 139 141 143 144 144 143 142 143 145 145 146 147 148 150 152 153 153 153 153 152 151 150 148 147 147 146 144 143 144 145 146 149 151 151 151 150 149 146 144 142 140 139 139 136 132 130 128 124 121 122 124 122 117 115 116 117 119 119 119 119 119 120 120 119 117 114 112 111 112 113 117 120 123 126 127 126 126 124 121 122 128 132 135 135 135 132 129 125 124 124 124 128 130 129 127 125 123 121 120 123 123 123 123 123 122 121 119 117 115 112 110 109 109 109 109 109 110 111 112 114 115 117 118 121 127 134 142 148 152 155 157 159 162 164 166 166 165 164 163 162 161 160 159 159 159 159 159 159 159 161 162 162 162 161 160 159 156 152 152 152 152 151 149 147 144 141 139 139 142 146 149 151 152 152 150 148 146 144 141 139 138 137 135 133 132 130 128 127 123 120 117 115 112 110 108 108 108 109 111 114 115 117 121 126 129 131 131 131 132 134 136 137 138 139 139 140 142 145 148 154 159 165 171 170 164 157 149 149 154 157 158 157 157 162 168 170 171 171 170 170 169 168 165 163 162 161 161 161 160 159 156 154 152 149 146 143 138 134 132 132 133 133 132 130 128 125 121 119 119 120 120 121 123 125 127 128 127 127 127 126 125 124 122 121 121 121 120 120 120 119 119 120 122 123 124 124 123 122 121 119 116 115 113 112 110 109 109 108 107 106 105 104 104 105 106 107 107 105 102 99 99 99 100 102 104 105 107 110 112 113 114 114 114 116 118 117 115 114 114 114 114 115 115 115 115 116 117 118 119 119 120 121 122 124 126 128 130 131 131 131 131 131 131 131 131 130 128 127 125 124 123 123 122 121 120 119 118 117 117 116 115 116 116 116 115 115 115 116 116 116 115 114 113 113 113 113 113 114 114 113 113 112 112 111 109 109 108 106 107 111 112 109 108 108 108 107 107 106 106 106 107 107 107 107 106 105 104 103 103 102 102 102 103 103 101 101 103 103 104 104 103 100 96 94 94 97 100 101 103 104 103 102 101 99 97 97 98 100 101 102 102 101 100 99 98 98 100 101 101 100 100 100 100 99 98 97 96 95 92 91 93 96 98 99 97 92 90 91 94 94 93 93 94 93 93 93 92 89 86 85 84 84 84 86 89 89 88 86 86 86 86 86 86 86 87 88 88 85 85 85 87 90 91 91 90 89 89 88 88 91 91 90 89 90 91 91 91 90 88 86 84 84 85 88 90 91 91 91 89 88 87 86 88 87 87 88 89 88 88 89 90 91 91 92 91 90 88 88 88 88 88 88 88 88 88 90 91 91 92 91 91 89 88 88 87 87 87 87 87 87 87 87 87 87 88 88 88 88 86 85 85 85 84 84 83 82 82 82 82 82 83 82 82 82 82 82 81 80 79 79 78 78 77 77 77 77
136 137 141 144 147 149 150 150 149 148 147 147 148 148 148 149 149 147 144 144 147 150 150 151 151 152 153 154 155 156 157 157 156 155 155 156 156 157 157 157 157 157 157 158 159 160 159 158 158 157 156 154 152 149 148 148 152 154 157 161 162 164 164 164 163 162 162 164 165 164 164 163 162 161 159 158 156 155 154 153 152 151 150 149 147 145 145 147 149 151 152 150 149 147 146 145 145 144 143 143 144 143 139 137 140 144 148 152 153 153 153 153 152 151 151 151 151 152 154 154 155 156 157 156 156 155 156 157 157 157 157 157 156 155 154 153 153 152 152 151 150 150 149 149 150 150 150 148 145 143 142 140 139 139 139 140 142 143 144 146 146 146 143 140 137 136 135 134 133 132 132 133 134 135 138 140 140 142 144 146 145 144 144 145 145 145 147 148 149 150 152 152 153 152 152 152 151 148 146 146 146 145 144 143 144 145 147 149 150 150 150 150 148 145 142 141 139 138 137 134 130 127 125 122 120 120 121 121 118 115 115 116 117 117 117 115 115 116 116 115 114 113 112 111 111 114 118 122 126 131 132 130 129 128 124 123 128 132 134 134 134 132 129 127 128 128 128 131 133 132 129 127 125 123 122 123 123 122 122 122 122 121 119 117 114 112 110 109 109 110 111 111 111 113 115 116 119 121 123 124 126 133 141 147 153 156 159 161 163 165 166 166 165 164 163 162 161 159 158 158 158 158 158 158 158 159 161 161 161 160 159 158 155 151 150 150 150 150 148 147 145 141 139 139 141 145 148 150 152 151 149 147 145 143 141 140 139 138 136 134 133 133 132 129 125 120 116 113 111 110 108 108 109 111 114 116 117 118 121 125 127 129 129 130 131 132 133 134 135 137 138 139 142 145 150 156 161 166 170 167 161 155 151 153 158 161 163 161 158 161 167 172 174 175 174 173 172 171 168 165 164 162 160 157 156 154 153 151 150 148 145 142 138 134 133 134 134 133 131 129 126 122 120 119 119 120 120 121 123 125 127 127 128 127 127 126 125 123 122 121 121 121 121 120 120 119 119 120 122 123 124 124 123 122 120 118 116 114 113 112 111 109 109 108 107 106 105 105 105 105 106 107 107 105 101 99 99 99 101 102 103 105 107 110 112 112 114 115 115 117 118 117 115 114 114 114 114 115 116 116 116 116 117 118 119 119 120 121 122 124 126 128 130 130 131 131 130 130 130 131 131 130 129 127 125 124 123 123 122 121 120 119 118 117 116 115 115 115 115 115 115 114 115 115 115 115 115 114 114 113 113 113 113 114 114 113 112 112 111 110 109 109 107 106 107 110 111 109 108 108 108 108 107 106 106 107 108 108 107 107 106 105 104 104 104 103 103 104 104 104 103 102 102 103 103 103 103 101 97 94 94 97 100 102 103 103 103 102 101 99 97 97 99 100 101 101 101 101 100 99 98 98 100 101 101 100 100 100 100 99 98 97 96 95 92 92 93 96 98 98 96 92 91 92 94 94 94 94 94 93 93 95 93 91 89 86 84 83 83 85 86 87 85 84 85 85 85 85 85 85 86 87 86 85 85 85 88 90 90 90 89 88 88 88 88 91 90 89 89 90 90 90 90 89 88 86 84 84 84 88 90 90 90 90 89 88 86 85 87 86 86 88 88 88 88 89 90 91 91 92 91 91 90 88 88 88 87 87 87 87 88 89 90 91 92 91 91 89 88 87 87 86 86 86 86 86 86 87 87 87 88 88 88 88 87 86 85 85 84 84 82 82 82 82 82 82 82 82 82 82 82 82 81 80 79 79 78 78 77 77 77 77
134 138 141 144 147 149 150 150 149 148 148 147 147 147 147 148 148 146 142 143 147 149 150 151 151 152 152 154 155 156 157 157 157 156 156 157 157 157 158 158 159 159 159 160 160 160 159 158 158 157 156 155 153 150 148 148 152 154 158 160 162 163 163 163 161 161 162 164 165 165 164 163 162 162 160 159 157 156 155 154 152 151 150 148 146 146 146 148 149 151 151 148 147 146 146 145 145 145 145 145 147 146 142 138 140 143 147 150 152 152 153 153 152 152 152 152 152 152 154 155 157 158 158 158 157 157 157 156 156 156 156 156 156 155 154 152 152 152 151 151 149 148 147 146 146 146 146 146 144 144 143 139 139 140 140 141 143 145 146 146 145 145 142 139 137 134 133 132 132 132 133 133 134 136 138 140 142 143 145 147 146 146 146 146 147 148 149 151 151 151 152 152 152 152 151 150 149 147 145 145 145 144 143 141 142 145 147 149 149 149 148 148 147 144 141 139 137 135 133 131 128 125 122 120 119 117 117 118 117 114 114 115 115 115 115 113 112 112 112 112 112 112 112 112 114 118 120 124 128 132 134 134 133 132 129 127 128 131 133 133 133 132 131 130 130 131 132 133 132 130 128 126 124 123 122 121 121 121 120 120 120 119 118 116 114 111 109 109 110 111 112 113 114 116 119 122 125 128 130 130 129 131 137 145 151 157 160 163 164 166 167 167 166 165 163 162 161 159 158 157 157 157 157 157 157 158 158 158 158 158 158 156 153 150 148 147 147 146 146 146 144 141 139 138 140 143 146 148 150 149 147 145 143 142 141 141 140 139 137 135 133 133 132 128 123 118 115 112 111 109 108 108 110 113 116 119 120 120 121 122 125 127 127 128 129 130 131 131 133 134 137 140 144 148 154 159 165 169 170 163 156 153 154 158 162 166 168 165 162 163 166 170 174 177 178 177 176 175 173 172 172 169 165 160 155 152 149 147 146 145 143 141 139 137 136 135 134 132 129 126 123 121 121 121 121 121 121 121 124 126 127 127 127 128 127 126 125 123 122 121 121 121 122 122 120 119 119 120 122 124 125 124 123 122 120 118 116 115 114 113 112 110 109 109 108 107 106 106 106 106 107 106 105 103 100 99 99 100 102 103 104 105 107 108 109 110 112 115 116 117 118 118 116 114 114 114 114 116 118 118 118 118 119 120 121 121 121 121 122 123 125 127 129 130 130 131 130 130 130 130 131 130 129 128 126 124 124 123 121 121 119 118 118 118 116 116 114 113 114 114 114 113 113 114 115 115 114 114 113 113 113 113 113 114 114 113 112 112 111 110 110 109 108 107 108 109 110 109 109 109 109 109 108 108 108 108 109 109 108 107 107 106 106 106 105 105 105 105 105 105 104 103 103 103 102 102 102 99 96 95 95 97 100 101 102 103 102 101 100 99 97 97 99 100 100 101 101 100 100 98 97 98 100 101 100 100 100 99 99 98 97 97 96 95 94 94 94 96 97 98 96 92 92 93 94 94 94 94 95 94 94 96 95 93 91 86 84 83 83 83 83 83 83 83 84 84 84 84 84 84 85 85 85 85 85 85 87 88 89 89 88 88 88 88 89 90 89 88 89 91 90 89 88 88 87 85 84 84 84 87 89 89 89 90 89 88 86 85 85 85 85 86 87 88 88 89 90 91 92 92 92 92 91 89 88 88 87 87 87 87 88 89 90 91 92 91 90 89 88 87 87 86 85 85 85 85 86 86 87 87 87 88 88 88 88 87 86 85 85 84 82 82 82 82 82 82 82 82 82 82 82 81 81 80 79 79 78 78 78 77 77 77
135 138 141 144 147 149 150 150 149 148 147 147 146 146 146 145 145 143 140 143 146 148 149 150 151 152 152 153 154 155 156 156 157 157 157 157 158 158 158 159 160 160 160 161 161 160 159 158 157 157 156 155 154 151 148 149 152 154 157 159 161 162 162 162 161 161 162 164 165 165 164 163 163 162 161 160 158 157 155 154 153 151 149 148 146 146 148 148 149 151 150 149 149 149 147 146 146 146 146 147 148 148 143 140 140 143 145 148 151 152 152 152 152 152 153 153 153 153 155 156 157 159 158 158 157 157 157 156 156 156 156 156 155 154 153 152 152 152 151 150 149 148 147 146 146 145 145 144 143 142 142 140 140 141 142 143 145 146 147 146 145 144 142 140 137 134 132 132 132 132 133 133 135 137 139 141 143 144 145 147 147 147 146 148 149 151 152 152 151 151 152 152 152 151 150 149 148 146 144 144 144 143 141 140 141 145 147 148 147 147 147 147 146 143 140 138 135 132 130 128 126 122 120 119 118 116 115 115 115 114 114 114 115 115 114 112 112 112 112 112 112 112 112 114 119 125 127 127 128 133 135 136 136 134 133 132 131 131 132 132 131 131 130 130 131 132 132 132 130 126 124 122 121 120 120 120 120 120 119 119 118 117 116 115 112 110 109 110 111 112 114 116 118 120 124 128 131 133 136 137 136 134 135 142 149 156 161 164 165 167 168 168 167 165 163 163 162 161 159 157 157 156 156 156 156 156 157 157 157 156 155 153 151 149 145 144 144 144 144 143 141 139 137 137 140 142 144 146 147 146 145 143 141 140 140 140 140 139 137 134 132 131 129 125 119 116 113 112 110 109 109 110 113 116 118 121 123 123 122 123 125 127 128 129 130 131 131 131 133 135 138 142 146 151 157 163 169 173 171 162 156 156 159 163 166 169 171 170 169 170 170 170 173 177 181 182 182 179 179 180 179 177 172 168 162 156 149 145 142 141 141 141 139 137 135 134 132 130 127 125 122 121 123 123 123 122 121 122 126 129 128 127 127 127 127 126 125 124 122 122 122 122 122 122 121 120 119 119 121 124 125 124 123 122 120 118 117 116 116 115 113 111 110 110 110 108 107 106 106 107 107 105 103 101 99 99 99 100 102 105 106 106 106 106 107 109 112 115 116 118 119 119 117 114 114 114 114 116 118 119 119 119 120 122 123 122 121 121 122 124 126 127 128 129 130 130 130 129 129 130 130 129 129 128 126 125 124 123 121 121 119 119 119 118 117 116 114 112 112 113 113 113 112 113 114 114 113 113 112 112 112 113 113 113 114 113 113 113 112 111 110 109 108 108 109 110 110 110 110 109 109 109 109 109 109 109 109 109 108 108 107 107 106 106 106 106 106 106 106 105 104 103 103 103 101 100 100 98 96 96 96 96 99 100 102 102 101 100 99 98 97 97 98 99 100 100 100 100 99 98 97 98 100 100 100 99 99 98 98 97 97 97 96 95 94 94 95 96 97 97 96 93 93 93 94 94 94 95 94 94 95 96 95 93 91 87 85 83 83 83 83 83 83 83 83 83 83 83 83 84 84 84 84 84 84 84 85 87 88 88 87 87 87 87 88 88 86 87 90 91 90 88 87 87 86 84 83 83 84 86 88 88 89 89 89 88 87 85 85 85 85 86 87 88 88 89 90 91 91 91 92 92 91 90 89 88 87 87 87 87 87 89 90 91 91 91 90 89 88 87 86 85 85 85 85 85 86 86 86 86 87 87 87 87 87 86 86 85 85 84 83 82 82 82 81 81 81 81 81 81 81 80 80 79 79 79 78 78 78 77 77 77
136 138 141 143 146 149 150 150 149 148 146 145 145 146 145 143 142 139 140 143 146 147 148 149 151 152 152 153 153 154 155 155 156 158 158 158 159 159 160 161 161 161 161 162 161 160 159 157 156 156 156 155 154 151 149 149 152 154 156 157 159 160 160 160 160 161 162 165 165 165 164 164 163 162 161 160 159 157 156 154 153 151 149 148 147 147 149 150 150 152 152 151 152 150 148 147 147 147 147 148 148 146 142 140 140 142 144 146 150 151 152 151 151 152 153 154 155 155 156 157 158 159 158 158 157 157 157 157 156 156 156 156 155 154 153 152 152 152 151 150 150 149 149 147 147 146 145 144 143 141 140 140 141 142 144 145 146 147 147 146 145 144 142 140 138 135 132 132 132 132 133 134 136 138 140 142 144 146 148 149 149 149 149 150 151 152 153 153 152 152 152 152 152 151 150 148 147 145 144 143 142 141 140 139 140 144 146 146 146 145 146 145 144 141 139 137 135 133 129 126 122 120 119 118 117 116 115 114 113 113 112 113 113 113 113 113 114 114 114 114 114 115 116 119 126 131 133 131 130 134 136 138 138 136 134 134 133 132 131 130 129 128 128 128 129 129 130 129 127 124 122 121 119 118 118 118 118 117 117 117 116 115 114 113 112 111 111 112 113 114 115 118 122 125 129 133 136 139 142 143 142 139 137 140 146 153 160 164 166 167 169 170 169 167 165 165 164 163 161 159 157 156 155 154 154 154 155 155 155 154 152 150 149 147 144 142 141 141 141 139 137 136 134 135 137 140 143 145 145 144 143 142 140 139 139 139 139 138 136 133 130 128 126 122 118 115 113 112 110 109 110 114 117 118 120 123 125 127 128 130 131 132 134 135 135 135 133 132 134 136 140 144 149 154 161 168 174 176 172 162 157 157 160 164 167 171 174 175 176 177 176 175 176 180 184 187 187 186 186 188 187 184 179 174 167 160 152 146 142 139 138 138 138 137 135 134 132 130 127 125 123 124 126 127 126 123 121 122 126 129 129 128 128 127 127 127 126 124 123 123 123 123 123 122 122 121 121 121 122 124 125 124 122 121 120 119 118 118 118 116 114 112 111 111 110 109 108 108 107 107 106 105 103 100 99 99 100 101 103 105 107 108 109 109 108 108 110 114 116 118 121 120 118 115 114 114 114 117 119 120 121 121 121 123 125 124 122 121 123 124 126 127 128 129 130 130 129 128 128 128 128 127 127 126 126 125 124 123 122 121 121 120 119 118 117 116 114 112 112 112 111 112 111 112 112 112 112 111 111 111 112 113 113 113 114 115 114 113 112 111 110 108 107 108 110 111 112 111 110 109 109 110 109 109 109 109 109 110 109 108 108 108 107 107 107 107 107 107 106 105 104 103 103 103 102 101 101 100 99 98 98 97 98 99 101 101 101 100 99 98 97 96 96 97 98 99 99 99 98 96 96 98 100 100 99 98 98 97 97 97 96 96 96 96 96 96 96 97 97 97 95 94 94 94 94 94 94 94 94 93 94 95 95 93 92 89 85 84 83 83 83 84 84 84 83 83 83 83 83 83 83 84 84 84 84 84 84 86 86 86 86 87 86 87 88 87 85 87 91 90 89 87 86 86 85 83 82 82 84 86 87 87 88 89 89 89 88 86 85 85 85 86 87 88 88 89 90 90 91 91 91 91 91 91 90 89 88 87 87 87 87 89 90 90 91 91 90 89 88 87 86 85 85 85 85 85 86 86 86 86 86 86 86 86 86 86 85 85 85 84 83 82 82 81 81 81 81 81 81 80 80 80 79 79 79 78 78 78 78 78 78 77
139 139 141 143 146 148 150 150 149 148 144 144 144 145 145 142 139 139 140 143 145 146 147 148 150 151 151 152 152 153 153 154 156 158 158 159 159 161 161 162 162 162 162 162 161 160 158 157 156 155 155 155 153 151 149 149 151 153 154 156 157 158 159 159 160 161 162 164 165 165 165 164 163 162 161 160 159 157 156 154 152 150 149 148 148 148 150 151 152 152 153 153 152 151 149 148 148 148 147 147 147 144 140 140 140 142 145 147 150 152 151 151 151 152 153 154 156 157 157 157 158 159 158 158 158 157 157 157 157 157 157 157 156 155 154 152 152 152 152 151 151 151 150 149 149 147 145 144 143 142 141 141 142 144 145 146 146 147 147 146 145 144 142 140 138 135 132 132 132 132 133 135 137 139 142 144 147 150 152 151 150 150 150 151 152 152 153 153 153 152 152 153 152 151 150 148 147 145 143 141 140 140 139 139 140 143 145 145 145 145 145 145 143 141 138 137 135 134 130 126 122 120 119 118 117 116 116 115 113 112 112 112 112 113 115 118 120 119 117 115 117 121 122 124 131 136 137 135 133 136 138 140 139 136 133 133 132 130 129 128 128 127 127 127 127 127 127 127 126 124 121 119 118 117 117 116 116 116 116 115 114 114 113 113 112 112 112 113 115 116 118 120 124 128 132 137 141 144 147 149 147 144 141 141 145 151 158 164 166 168 170 170 169 168 168 167 166 165 163 161 159 157 156 154 152 153 153 153 153 152 151 149 147 145 143 141 139 139 138 135 133 132 132 133 135 138 141 143 143 141 140 140 139 138 138 138 138 136 134 132 128 125 123 121 117 114 113 111 110 109 111 117 120 121 123 125 127 130 132 134 137 139 141 143 143 142 139 136 135 138 142 146 152 158 164 171 177 178 172 163 157 158 160 163 166 171 175 179 182 183 183 181 181 185 189 191 192 193 195 196 195 190 184 177 170 161 154 149 145 142 139 137 135 134 134 133 132 130 127 125 125 127 128 128 128 126 122 122 124 126 127 128 128 127 127 127 126 125 125 124 124 124 123 123 122 121 121 121 123 125 125 124 122 121 121 121 121 120 118 116 114 112 111 111 110 109 109 108 107 107 106 104 102 100 100 100 101 102 103 105 108 110 112 113 112 110 111 114 117 119 121 121 118 115 114 114 114 117 119 120 122 123 123 124 126 125 123 122 124 126 127 128 129 130 130 130 129 128 128 127 127 126 126 126 125 124 124 123 122 122 121 121 120 118 117 115 114 114 112 112 110 110 109 110 111 111 111 110 110 111 112 112 112 113 114 115 114 113 112 111 110 108 106 108 110 112 112 110 109 109 109 110 110 109 109 109 109 109 109 108 108 107 107 107 107 107 107 106 106 105 103 103 103 103 103 103 102 101 100 99 98 98 98 99 100 101 101 100 99 99 97 96 95 96 96 97 98 98 97 95 95 97 99 99 98 97 97 96 96 96 96 95 95 96 96 96 96 96 97 97 95 94 94 94 94 93 93 93 93 92 94 94 93 92 91 88 85 84 83 83 85 87 89 88 85 83 83 83 83 83 83 83 83 83 84 84 84 84 85 85 85 85 85 87 88 86 84 87 90 89 88 86 85 85 85 83 82 82 84 85 86 87 88 88 89 88 87 86 85 85 85 86 87 88 88 88 89 90 90 90 90 90 90 90 90 89 88 87 87 87 87 88 89 90 91 90 90 88 87 87 86 85 85 84 84 85 85 85 85 85 85 85 85 85 85 85 85 85 85 84 83 82 82 81 81 80 80 80 80 80 80 79 79 79 78 78 78 78 78 77 77 77
139 140 142 144 146 148 150 150 149 147 143 142 143 144 144 142 139 138 140 142 144 145 146 146 148 149 149 151 152 152 152 154 156 158 158 159 160 160 161 162 163 163 163 162 161 159 158 157 155 154 154 154 153 150 149 149 152 152 154 155 156 157 158 159 160 160 162 163 164 164 164 164 163 162 161 160 159 157 155 154 152 150 149 149 149 149 150 152 153 154 154 154 153 151 150 150 150 148 147 146 145 142 140 141 140 142 145 147 149 151 151 150 150 151 152 154 157 158 158 158 159 159 159 158 158 158 158 158 158 158 158 157 156 155 154 153 153 153 152 152 152 152 151 151 150 148 146 144 144 143 142 142 142 144 145 147 147 147 147 146 145 144 142 139 137 134 132 131 132 132 133 135 137 139 142 145 149 152 152 151 149 149 150 151 152 153 153 153 153 153 152 153 152 151 150 148 147 145 143 140 139 139 139 139 140 143 145 144 144 143 143 143 142 140 137 135 134 134 130 126 122 120 119 118 116 116 118 117 113 112 112 112 113 117 122 124 125 123 119 117 120 124 126 129 133 136 137 136 135 137 139 140 138 134 132 131 130 129 128 127 126 125 125 125 125 126 126 127 127 124 121 119 117 116 116 115 115 114 114 114 114 113 113 113 113 113 113 115 118 119 120 121 125 130 135 141 144 148 151 152 151 149 147 145 146 151 158 163 166 169 171 171 170 170 169 168 167 165 164 162 160 158 155 153 152 152 152 152 152 151 150 148 146 144 143 142 141 140 139 137 135 132 132 132 133 136 140 142 141 139 138 138 138 137 137 137 136 135 134 131 127 125 122 119 116 114 113 111 110 109 111 117 121 122 124 126 128 131 133 136 139 142 144 146 147 146 143 139 137 139 143 148 154 160 166 174 179 179 173 163 159 160 162 163 165 169 175 180 183 186 187 186 184 187 192 196 197 199 201 202 199 193 186 179 171 162 156 151 147 143 140 138 136 133 132 132 131 129 127 126 126 127 128 129 128 127 123 121 123 126 127 128 129 128 128 127 127 126 126 125 124 124 123 123 122 122 122 122 124 125 125 124 123 122 122 122 122 120 118 116 114 113 112 111 110 109 108 108 107 106 106 104 102 100 100 101 102 103 103 105 108 110 112 114 114 114 112 114 117 120 122 121 119 116 114 114 114 116 119 120 122 124 124 125 126 126 124 123 124 126 128 129 130 131 131 130 129 128 128 127 126 126 125 125 124 124 123 122 122 122 122 121 120 119 117 115 115 115 115 113 111 109 109 109 110 110 110 109 109 111 112 112 111 112 114 114 114 112 111 110 109 108 106 107 110 111 111 110 109 108 109 109 109 110 110 109 109 109 108 108 107 106 106 106 106 106 106 106 106 105 103 102 102 103 103 104 103 102 101 100 99 98 98 99 100 102 103 101 100 100 97 95 94 95 96 97 98 97 96 94 94 97 98 98 97 97 97 96 95 95 95 94 94 95 95 95 95 96 96 96 95 94 93 94 93 92 92 92 91 90 92 93 91 90 88 86 85 84 84 85 87 90 92 92 88 85 83 83 83 83 83 83 83 83 83 83 83 84 84 84 84 84 84 87 87 85 84 87 89 88 87 85 84 84 84 83 82 82 84 85 86 87 87 88 88 88 86 85 85 85 85 86 87 87 88 88 89 90 89 89 89 90 89 89 89 88 88 87 87 86 87 87 88 89 90 89 89 88 87 86 86 85 84 83 84 84 84 85 85 85 85 85 85 84 84 84 84 84 84 83 82 82 81 81 80 80 79 79 79 79 79 79 79 78 78 78 78 78 78 77 77 77
138 139 142 145 147 149 149 148 148 146 142 140 141 142 143 142 139 137 139 140 141 142 143 145 146 148 149 150 152 153 154 156 158 158 159 159 159 159 160 162 163 164 164 163 162 160 159 157 156 154 153 152 151 149 149 152 153 154 155 155 156 157 158 159 160 160 161 162 163 163 163 163 162 162 160 158 157 156 155 153 152 150 149 149 150 151 152 153 154 155 155 154 153 153 153 153 152 149 146 144 142 142 143 144 142 142 144 145 147 149 149 149 150 151 153 155 157 159 160 160 161 160 160 159 159 158 158 158 158 158 158 158 157 156 155 154 154 153 153 152 152 151 151 150 150 148 146 146 145 144 143 143 143 145 146 147 148 147 146 145 145 145 142 140 136 133 131 131 132 132 133 135 137 138 142 147 151 151 150 149 148 148 150 151 152 152 152 152 152 152 152 152 152 150 149 147 146 145 143 140 138 137 136 138 141 142 143 143 142 141 140 140 140 138 135 133 133 134 131 128 125 122 121 120 117 115 117 117 113 113 115 115 119 126 129 129 128 126 121 119 121 126 129 132 134 136 138 139 138 138 138 137 135 132 129 127 127 126 124 123 123 123 122 122 122 122 124 125 125 123 121 118 116 114 114 114 114 113 113 113 113 113 113 113 113 114 115 118 122 124 125 126 128 133 139 144 148 152 155 157 156 154 154 152 150 150 156 162 165 169 171 172 172 172 171 170 168 166 164 163 161 159 156 154 152 151 151 150 150 149 147 146 145 145 145 145 146 145 143 141 138 134 132 131 131 134 137 139 138 136 135 135 135 135 135 135 135 135 134 132 129 125 122 119 116 114 113 111 110 109 112 117 120 122 124 127 129 131 134 137 140 142 145 147 149 151 149 143 140 140 143 149 155 162 169 177 181 178 170 163 162 164 166 167 168 170 174 180 186 190 192 192 190 192 198 202 205 207 209 208 204 197 188 180 172 164 158 153 148 145 142 139 136 133 131 130 129 128 127 127 127 129 130 131 130 128 125 123 124 127 129 130 131 131 130 129 128 127 127 126 125 124 123 122 122 122 122 123 125 125 125 124 123 122 122 121 121 120 118 116 114 112 112 111 110 109 108 108 107 106 105 104 102 100 100 101 104 104 103 104 107 110 112 115 118 118 115 115 117 120 122 121 119 117 115 115 115 116 118 120 122 124 125 126 127 126 124 124 124 125 127 129 130 131 131 131 130 129 128 127 126 125 124 124 124 123 122 122 121 121 122 121 119 118 117 115 114 114 114 113 111 109 109 108 108 108 108 108 109 111 111 111 110 112 114 113 113 112 110 109 108 107 106 107 109 110 110 109 108 107 108 109 109 109 110 110 109 109 108 107 106 106 105 105 105 105 106 106 106 104 103 102 101 102 103 103 103 101 100 99 98 97 98 99 101 102 102 101 101 100 97 94 94 96 97 98 98 97 95 94 94 96 96 96 96 96 96 95 94 94 94 94 94 94 95 95 95 95 95 95 94 92 93 93 92 91 90 90 88 86 89 89 87 85 84 84 84 84 84 86 90 93 95 94 92 90 87 84 83 83 83 83 83 83 83 82 82 83 83 83 83 83 82 85 85 83 83 87 87 86 85 84 83 83 83 82 82 82 84 85 85 86 87 88 87 87 86 85 84 84 84 85 86 87 87 87 88 89 88 88 88 89 89 88 88 88 87 87 86 85 85 86 86 88 89 88 88 87 87 86 86 85 83 82 82 83 84 85 85 85 85 85 84 84 84 83 83 82 82 82 82 82 81 81 80 79 79 79 79 79 79 79 79 78 78 78 78 78 78 77 77 77
135 137 141 144 146 148 148 147 146 144 141 138 139 141 142 141 139 135 135 137 139 141 144 147 149 150 151 153 154 156 157 158 158 158 158 158 158 158 159 161 162 163 163 163 163 162 160 159 157 155 154 152 151 150 150 153 155 156 158 159 160 159 159 159 160 160 161 161 163 163 162 162 161 161 159 158 156 155 154 152 151 150 149 150 151 152 153 155 155 156 155 154 154 154 155 155 153 151 146 143 143 145 147 147 145 144 144 145 145 146 147 149 150 151 153 155 158 160 162 162 161 161 160 160 159 159 158 158 158 158 157 157 157 156 155 154 154 153 153 152 151 151 150 150 149 148 147 146 145 145 144 144 144 145 146 147 147 147 146 144 144 143 143 140 135 132 131 131 132 133 133 134 136 138 142 146 149 149 147 146 146 146 148 151 152 152 152 151 151 151 151 151 151 150 148 146 146 144 142 140 138 135 133 137 139 140 141 141 139 138 137 136 135 134 133 130 132 133 131 129 127 124 124 122 118 115 113 113 113 115 117 121 126 130 132 131 129 125 123 121 121 125 128 132 134 136 138 139 138 136 135 135 133 131 128 126 124 123 121 120 120 120 120 120 119 120 121 122 122 121 119 116 114 114 114 114 114 113 113 113 113 113 113 113 114 116 119 122 125 128 131 132 132 135 141 146 151 155 158 160 160 159 159 157 154 152 155 160 164 168 172 173 173 172 171 170 167 165 163 162 160 158 156 154 152 151 151 150 149 147 146 145 145 146 147 149 149 148 147 144 140 136 132 131 131 133 135 136 135 133 132 133 134 135 134 133 134 134 134 132 129 125 122 119 116 114 112 111 110 109 111 115 118 120 122 126 128 130 132 135 137 140 143 146 149 152 151 147 143 142 144 150 156 163 170 178 181 176 168 164 165 169 171 172 173 174 175 181 187 192 197 198 198 199 203 208 211 215 216 213 207 198 188 180 173 165 158 153 150 147 143 139 136 133 131 130 129 128 127 127 128 131 132 133 132 129 127 125 125 127 129 131 132 133 132 130 129 128 127 126 125 124 123 122 122 122 123 125 126 125 124 124 122 121 121 121 120 119 117 115 113 112 112 111 110 109 108 107 107 106 104 102 101 100 100 101 104 106 105 105 107 109 112 116 119 120 119 118 118 120 122 122 120 117 115 115 116 117 118 119 122 124 125 126 127 126 124 124 124 125 127 129 130 131 131 131 130 129 128 127 125 124 124 124 123 123 122 121 121 121 121 121 119 117 115 114 114 113 112 111 110 109 109 108 107 107 107 107 108 109 110 109 110 112 112 112 111 111 110 108 107 106 106 107 109 110 110 108 107 106 108 108 109 109 109 109 109 109 108 107 106 106 104 103 103 105 105 105 106 106 103 101 100 101 102 103 103 100 100 99 97 97 98 100 101 101 101 100 99 99 96 94 93 95 98 99 98 97 96 94 93 95 95 95 95 95 95 94 94 93 93 93 93 94 94 94 94 94 94 94 92 91 92 92 91 89 87 86 85 85 85 85 84 84 84 84 84 84 86 88 92 95 96 96 94 93 92 87 84 83 83 83 83 83 82 82 82 82 83 82 82 82 82 82 82 82 82 84 84 83 82 82 82 82 82 82 82 82 83 84 84 84 86 87 86 85 84 84 83 83 84 85 85 86 86 87 87 88 87 87 88 88 89 88 87 87 86 86 86 85 85 85 86 87 88 87 87 87 86 86 86 85 83 82 82 83 84 84 85 84 84 84 83 83 83 82 82 82 82 81 81 81 81 80 80 79 79 79 79 79 79 78 78 78 78 78 78 78 78 78 78 78
133 135 138 142 145 147 147 146 144 143 140 137 137 139 140 140 138 134 135 136 141 145 148 149 151 152 153 154 155 156 156 157 157 157 156 156 156 157 158 160 161 162 163 164 163 162 160 159 158 156 154 153 151 151 151 153 157 159 161 163 163 162 161 161 161 162 162 162 163 162 161 160 160 159 158 156 155 154 152 151 151 151 151 151 153 155 155 156 156 156 156 155 155 155 156 155 154 151 147 144 144 148 151 150 148 147 145 145 145 145 146 148 151 152 154 155 157 160 163 163 162 162 161 160 160 159 158 158 157 157 157 157 156 155 155 154 154 153 153 152 151 151 150 149 148 147 147 146 145 145 145 145 145 146 146 147 147 146 145 144 141 140 139 137 133 131 131 131 134 136 135 134 135 137 141 145 146 146 144 145 145 146 148 150 152 152 152 151 151 150 149 148 148 148 147 145 144 143 142 140 139 135 133 135 138 139 139 139 137 134 133 131 130 130 129 126 129 130 128 127 125 125 125 123 117 114 113 113 116 118 118 123 127 130 132 132 129 127 128 126 123 128 131 132 134 136 138 139 138 136 134 132 131 129 128 125 122 120 120 120 120 119 118 118 117 117 118 119 119 117 115 115 114 114 114 114 114 113 113 113 113 113 114 114 116 119 123 126 130 134 138 139 139 140 144 150 155 158 161 163 164 164 163 161 157 155 157 161 165 169 173 175 174 172 170 168 166 164 162 161 159 157 156 155 153 152 151 151 150 149 148 147 147 149 151 152 152 150 147 144 140 135 131 129 128 130 132 133 133 132 131 132 134 134 133 132 132 132 132 130 128 125 122 119 115 113 112 111 110 110 111 113 115 117 120 123 126 128 130 133 135 138 140 144 147 150 151 150 149 148 150 154 160 166 172 179 182 176 168 164 167 171 174 176 178 180 182 183 188 194 200 203 204 206 209 213 218 220 220 214 206 197 188 180 172 163 157 154 153 149 143 139 135 133 132 130 129 128 128 128 130 132 134 135 133 130 127 126 126 128 130 132 133 134 132 131 129 128 127 126 125 124 124 123 122 123 125 126 126 125 124 123 121 120 120 119 118 117 116 114 113 112 111 110 109 108 108 107 106 105 104 102 101 101 100 101 103 106 107 106 107 109 112 116 118 120 121 121 120 121 122 122 119 117 116 117 119 120 119 119 121 123 125 126 127 126 125 125 125 127 128 129 130 131 131 131 130 129 128 127 125 124 124 124 123 122 122 121 120 119 119 119 119 117 115 114 113 112 110 109 109 110 109 108 107 106 106 106 107 108 108 108 109 111 111 110 111 111 109 108 107 106 105 106 109 109 109 108 106 106 107 108 108 109 109 109 109 109 108 108 107 107 105 103 102 103 104 105 105 105 103 101 100 100 101 102 102 100 98 97 97 97 98 99 100 101 100 98 98 98 95 92 92 95 98 99 98 97 95 94 92 92 93 94 94 93 93 93 93 92 91 92 93 93 93 92 92 93 93 92 91 90 91 91 89 87 85 85 85 85 85 85 85 85 85 85 85 85 87 89 92 95 95 95 95 95 92 87 84 85 85 83 83 83 82 82 82 82 82 82 82 82 82 82 82 82 82 82 82 81 81 81 81 81 82 82 82 82 82 82 82 82 83 83 84 83 83 83 82 82 83 84 84 85 85 86 87 87 87 86 87 88 88 88 86 85 85 85 86 85 85 85 85 86 87 87 86 86 86 86 86 85 83 82 82 82 83 84 85 84 84 83 83 83 82 82 82 82 81 81 81 81 80 80 80 79 79 79 79 79 78 78 78 78 78 78 78 78 78 78 78 78
131 134 137 140 143 145 144 143 142 141 139 136 136 137 138 139 138 133 135 139 144 149 149 151 152 152 153 154 154 155 155 156 155 155 154 154 155 155 157 159 161 162 163 163 163 162 160 158 157 156 154 153 151 151 151 154 158 161 164 165 165 165 164 163 163 163 163 163 163 162 161 160 158 157 156 154 154 152 152 151 151 151 151 152 154 156 157 157 157 157 156 155 155 156 156 155 154 151 147 145 146 150 152 152 151 149 149 147 145 145 146 148 151 153 154 155 158 160 162 162 162 161 161 161 160 159 159 158 157 157 156 156 156 155 154 154 154 153 153 152 151 151 150 149 148 147 146 146 145 145 145 145 145 146 146 147 147 146 145 143 140 138 136 133 132 132 132 133 137 139 138 135 135 137 140 142 143 143 144 145 145 146 148 151 152 152 152 152 151 150 148 147 146 146 146 144 143 142 140 140 138 135 133 135 138 139 138 138 137 135 133 130 127 125 124 122 123 124 123 122 121 121 121 117 114 112 113 116 121 121 120 122 125 129 132 134 132 131 132 130 127 130 133 135 136 138 139 139 139 137 134 131 128 126 126 124 122 120 120 120 120 119 118 117 116 115 115 115 115 114 114 115 116 116 115 114 114 114 113 113 114 114 114 115 117 120 125 130 135 140 144 145 145 145 148 154 158 161 164 166 167 167 166 163 159 157 159 163 167 171 175 176 175 172 169 167 165 163 163 162 161 160 159 157 156 155 154 154 153 152 151 150 151 152 153 154 153 151 147 143 139 134 131 128 127 128 130 130 130 129 130 132 133 133 133 132 131 131 129 127 125 123 121 118 115 113 111 111 111 111 112 113 115 117 120 122 125 129 132 135 137 138 139 142 145 148 150 152 153 154 156 160 165 170 175 181 183 178 170 165 167 171 176 180 183 186 188 189 191 195 201 207 210 212 215 219 223 224 221 214 206 195 186 176 168 162 158 156 154 150 144 140 136 134 133 131 130 129 129 130 132 134 136 136 134 130 127 127 127 129 131 132 133 134 133 131 129 128 127 126 125 125 124 124 124 126 127 127 126 125 124 123 121 120 119 117 116 115 114 112 112 112 111 109 109 108 107 107 106 104 103 102 101 101 100 101 103 106 108 107 107 109 111 114 116 119 121 122 122 122 123 121 118 117 117 118 121 122 122 121 121 122 123 125 126 126 125 125 126 128 130 131 131 131 131 131 130 129 128 127 125 124 124 124 123 122 122 121 119 118 117 118 118 117 115 113 112 112 110 110 110 111 112 110 109 108 107 106 106 106 106 107 109 110 110 109 110 110 109 108 107 105 104 107 109 109 108 107 106 106 106 107 108 109 109 109 109 109 108 108 107 107 105 103 102 102 102 103 104 104 103 101 100 100 100 101 102 100 97 96 96 97 98 99 100 100 100 97 97 97 94 91 91 94 97 97 97 95 94 93 91 91 93 94 94 93 92 93 93 91 90 91 92 92 92 91 90 91 91 90 89 88 90 89 88 85 85 85 86 87 88 88 87 88 88 89 88 85 85 88 90 92 93 94 94 94 92 87 87 90 91 87 84 84 83 82 82 82 82 82 82 82 82 82 82 82 82 82 82 81 81 81 81 81 81 81 81 81 81 81 81 81 81 82 82 82 82 82 82 82 82 83 84 84 84 85 86 87 86 85 87 88 87 87 86 85 85 85 85 85 85 85 85 86 86 86 86 85 85 85 86 85 83 82 82 82 83 84 84 84 83 83 83 82 82 82 82 81 81 81 81 80 80 80 79 79 79 79 78 78 78 78 78 78 78 78 78 78 78 78 78 78
130 134 137 140 142 143 142 141 139 139 137 135 135 136 137 138 137 132 134 139 144 148 148 150 151 151 152 153 153 154 154 154 153 152 152 152 153 155 156 158 161 162 163 163 162 160 159 158 157 155 154 153 152 151 151 154 159 162 164 166 166 165 165 165 165 165 164 164 163 163 162 160 158 156 155 153 152 152 152 151 151 151 152 153 155 156 158 158 158 157 157 156 156 157 156 155 154 151 146 145 147 151 153 152 152 152 151 149 146 146 146 148 150 152 154 155 158 159 160 161 161 161 162 161 161 160 159 158 157 157 156 156 155 155 154 154 154 153 153 152 151 151 150 148 147 146 146 145 145 145 145 145 145 146 146 147 147 146 145 143 140 138 135 132 132 132 132 135 137 139 138 137 137 137 139 140 141 142 144 145 146 147 149 151 152 153 153 152 151 150 148 146 145 144 144 143 142 141 139 138 137 134 133 134 137 137 136 136 136 135 133 130 126 122 120 119 119 119 118 116 116 118 116 113 112 113 116 121 124 121 122 123 126 128 132 134 133 132 133 131 128 130 133 135 138 140 140 140 139 138 134 131 127 125 125 123 122 121 121 121 121 120 120 118 116 115 115 115 115 115 115 118 119 118 116 115 115 114 114 114 114 115 116 116 118 121 127 133 139 143 147 149 149 148 152 157 160 163 165 168 169 170 168 164 160 158 161 166 170 174 177 177 175 172 169 167 166 166 165 164 164 164 163 160 158 157 157 157 156 155 154 154 155 155 155 154 153 150 147 143 138 134 132 130 127 127 127 128 128 128 129 131 132 132 131 130 129 129 127 125 124 123 121 117 114 112 111 111 111 112 113 115 118 120 121 122 126 130 134 137 139 139 139 142 145 147 149 152 155 158 161 165 169 174 178 183 183 178 170 166 167 171 176 182 186 189 192 194 195 197 203 209 212 215 218 222 226 226 221 214 206 195 184 175 168 164 160 158 155 150 146 142 139 137 134 132 131 131 131 131 133 136 138 137 134 129 127 127 127 129 132 133 134 134 133 131 129 127 127 126 126 125 125 125 126 127 128 127 126 124 124 123 121 120 118 117 115 114 113 111 111 111 111 109 108 108 107 106 105 104 103 102 101 101 101 101 103 105 107 108 108 110 112 114 117 119 121 122 123 124 123 121 118 117 117 119 122 124 123 121 121 122 123 124 125 125 126 126 126 128 130 131 131 131 132 131 130 129 128 127 125 125 124 124 123 123 122 122 120 118 117 116 116 116 114 113 112 112 111 111 111 112 113 113 112 110 109 108 106 106 105 105 107 108 108 107 108 109 108 107 106 104 104 107 109 108 107 106 105 105 106 106 107 108 107 108 109 108 108 108 107 107 105 103 102 101 101 102 102 102 101 101 100 99 99 101 101 99 96 95 96 97 98 99 99 99 98 96 96 95 93 91 91 93 95 95 95 94 92 91 91 91 92 93 93 92 92 93 92 90 89 89 90 90 90 89 89 89 89 88 88 87 88 88 87 85 86 87 88 90 91 89 88 90 92 92 90 88 85 86 89 92 93 94 94 93 92 89 89 92 92 88 88 85 84 85 86 84 82 82 82 82 82 82 82 83 82 82 82 82 82 81 81 81 81 81 81 81 81 81 81 81 81 81 81 81 81 81 82 82 82 82 82 83 83 84 85 87 86 85 87 87 87 86 85 85 85 85 85 85 85 85 85 85 85 86 86 85 85 85 85 85 83 82 82 82 83 84 84 83 82 82 82 82 82 82 81 81 81 81 80 80 80 80 79 79 79 78 78 78 78 78 78 78 78 78 78 78 78 78 78 79
128 133 136 138 139 139 138 137 136 136 134 131 133 135 136 135 132 130 132 136 141 145 147 148 148 149 150 151 151 151 151 151 150 150 150 151 152 156 159 161 161 162 163 163 162 161 159 157 156 155 154 153 152 151 151 154 159 162 165 165 165 165 165 165 165 165 165 164 164 163 162 160 158 156 154 153 152 152 152 152 151 151 155 156 156 157 158 159 158 158 157 157 157 157 157 156 154 150 146 146 149 151 154 154 153 154 152 150 148 147 149 150 151 152 153 155 157 158 159 159 160 161 162 162 162 161 160 158 157 156 156 155 155 154 154 153 153 153 153 152 151 150 150 148 147 146 146 145 145 145 145 145 145 146 146 146 146 146 144 142 140 137 134 132 132 132 135 138 139 140 140 139 138 138 139 139 140 142 144 146 147 148 150 151 152 153 153 153 152 150 148 146 145 143 142 141 140 138 136 135 134 133 131 132 133 133 133 134 135 134 131 127 122 118 115 114 113 112 112 112 112 113 113 112 114 119 125 127 125 124 127 129 129 129 134 136 136 135 135 133 130 129 132 135 139 141 141 140 140 137 134 131 127 125 124 122 121 121 122 123 124 123 122 120 119 119 119 119 118 118 119 121 122 121 118 115 115 115 114 115 117 119 119 119 121 124 130 137 143 148 152 154 154 153 156 160 163 165 168 171 172 172 170 166 160 160 164 169 173 176 178 177 175 172 169 169 169 169 169 170 170 170 168 165 162 160 160 160 160 159 158 158 158 158 157 156 153 150 147 145 142 138 135 132 128 125 124 124 125 126 128 129 130 130 128 127 127 128 126 123 121 120 120 116 113 112 111 111 111 112 114 117 121 124 125 125 127 130 134 138 140 141 142 144 146 148 150 152 156 162 168 172 176 180 184 187 184 177 170 168 169 172 178 185 190 194 199 202 203 203 206 210 213 216 220 224 229 228 222 213 205 194 184 178 172 167 163 160 157 154 149 146 144 141 137 134 133 132 133 134 136 138 139 137 133 128 127 127 129 131 133 134 134 134 132 130 128 127 127 127 126 126 126 126 127 128 128 127 126 124 124 123 121 120 119 117 116 113 111 110 109 110 110 109 108 107 107 106 104 103 102 102 101 101 101 102 104 105 108 109 109 110 114 117 119 121 123 124 124 124 124 122 119 117 118 120 123 124 123 123 123 124 124 125 126 126 126 126 127 128 131 132 132 132 132 131 130 129 128 127 126 125 124 124 124 123 123 122 121 119 117 116 115 115 114 113 113 112 112 112 112 113 113 114 114 112 111 110 109 108 105 103 104 106 105 105 106 105 105 105 105 103 104 107 108 106 106 105 104 105 106 106 107 107 106 108 108 107 107 107 107 107 106 104 102 100 100 101 101 100 100 100 100 99 98 100 100 98 95 94 97 97 98 99 98 97 96 94 95 94 92 91 90 91 92 92 91 91 90 89 89 89 90 91 90 89 90 90 90 89 89 88 88 88 88 88 87 87 87 87 87 87 87 86 86 85 88 90 92 95 95 92 91 93 95 94 92 92 88 87 89 91 93 94 94 93 91 90 91 93 94 90 91 88 86 91 92 89 85 83 82 83 83 83 83 83 83 83 82 82 82 81 81 81 81 81 81 81 81 81 81 81 81 81 80 80 80 81 81 81 81 81 82 82 82 84 84 85 84 84 86 87 86 85 84 84 84 84 84 84 85 85 84 84 85 85 85 85 85 85 85 85 84 82 82 82 82 83 83 82 82 82 82 81 81 81 81 81 80 80 80 80 80 79 79 79 78 78 78 78 78 78 78 78 78 78 78 78 78 78 79 79
126 129 133 135 135 135 134 133 133 132 130 129 131 133 132 130 128 129 131 133 137 140 143 144 145 146 147 148 148 149 149 149 148 149 149 152 155 158 160 162 162 163 163 163 163 162 160 159 157 155 155 154 152 151 151 154 159 162 165 165 165 165 165 165 166 166 165 164 164 163 161 160 158 156 155 155 154 154 154 154 153 152 156 157 158 158 159 159 159 158 158 158 158 158 157 156 154 150 146 147 151 153 154 156 156 155 153 151 150 149 150 152 152 152 152 154 157 157 157 158 159 160 162 163 163 162 160 157 156 156 155 155 154 154 153 152 152 152 153 152 151 150 149 148 147 146 145 145 145 145 145 146 146 146 146 145 145 144 143 141 138 136 133 132 132 134 137 140 141 141 141 140 139 139 139 139 140 142 145 147 148 149 151 152 152 152 152 152 152 150 149 146 145 143 141 139 138 136 134 133 132 131 130 129 129 129 130 132 132 130 124 118 115 115 115 114 113 112 113 113 115 116 116 117 123 129 129 127 125 129 133 134 133 132 134 137 139 139 137 134 131 131 132 135 138 141 141 140 138 136 133 130 127 126 123 121 121 122 124 126 127 127 125 123 122 123 123 122 122 123 124 124 123 122 119 117 115 115 116 117 119 121 122 122 123 127 133 141 148 152 156 158 158 157 159 162 166 168 171 174 175 174 171 167 162 162 166 172 175 177 178 177 174 171 170 170 172 173 174 174 174 172 170 167 164 163 163 163 162 161 161 160 160 159 158 156 153 151 149 147 144 141 138 134 130 126 122 121 122 124 125 127 128 128 127 126 126 127 125 122 119 118 117 115 113 112 111 111 111 113 115 119 124 127 128 128 128 130 134 138 140 142 144 146 147 149 151 154 158 164 171 177 182 186 188 188 184 176 171 171 173 175 179 186 192 198 204 208 209 208 208 209 211 213 217 223 228 227 221 213 205 194 184 177 171 167 164 161 159 156 153 150 148 145 140 137 135 135 137 138 139 140 139 136 131 128 127 129 131 133 135 135 134 133 131 129 128 128 128 128 127 127 127 127 128 129 128 127 125 124 124 123 122 121 120 119 117 114 112 109 109 108 108 108 108 107 106 105 104 103 102 102 101 101 102 105 107 107 109 110 110 111 114 117 119 122 124 125 125 125 123 121 119 118 120 122 124 125 124 124 125 126 126 127 128 127 127 127 127 129 131 132 133 133 132 131 130 129 128 127 126 125 125 125 125 125 123 122 120 119 117 115 114 114 114 114 115 114 113 112 112 113 114 115 114 112 111 110 110 108 105 102 102 103 102 102 103 103 103 103 103 103 104 106 106 104 105 104 103 105 105 105 106 106 106 107 107 106 106 106 106 106 106 106 103 102 100 100 99 99 99 100 101 100 97 99 99 98 94 94 96 97 98 98 96 95 93 92 93 92 90 89 89 88 88 88 88 87 87 87 87 87 87 88 88 88 88 88 88 87 87 88 87 87 87 87 86 86 87 87 87 86 86 86 86 88 91 93 94 97 97 94 94 96 97 95 94 94 89 88 89 92 93 94 95 92 91 91 93 93 94 91 92 90 90 92 93 89 85 84 84 84 84 84 84 84 84 83 83 82 82 81 82 81 81 82 82 81 81 81 81 81 81 81 80 80 80 80 79 79 79 80 81 81 81 81 82 83 83 83 84 85 85 84 84 84 84 84 84 84 84 84 84 84 84 84 85 84 84 84 85 85 84 82 82 82 82 82 82 82 82 82 82 81 81 81 81 80 80 80 80 80 79 79 79 79 78 78 78 78 78 78 77 77 78 78 79 79 79 79 80 81
121 124 129 130 132 131 131 131 129 128 127 126 127 128 127 127 128 129 131 131 133 135 137 139 141 142 144 146 146 147 147 146 148 149 151 153 157 159 161 162 163 163 164 164 164 163 162 161 159 157 156 154 153 152 152 153 159 163 165 164 164 164 164 165 165 165 165 164 163 163 161 160 159 158 158 157 156 155 156 156 155 155 156 159 160 160 159 160 160 159 158 158 158 158 158 156 154 150 147 146 151 154 156 157 158 157 155 152 151 150 151 152 153 153 153 155 156 157 157 157 158 159 161 163 164 163 160 157 156 155 155 154 153 153 153 152 152 152 152 152 151 150 149 147 146 146 145 145 145 145 145 146 146 146 145 145 143 142 141 139 137 134 133 133 134 135 137 139 141 142 142 141 140 140 139 139 141 142 144 146 148 149 151 151 151 151 152 152 152 151 149 147 145 143 140 138 137 135 134 133 133 131 130 129 127 126 126 126 125 121 115 114 115 116 116 115 116 117 119 121 123 125 126 128 132 131 128 126 127 131 136 138 136 133 135 138 140 140 138 134 132 132 133 135 139 141 140 138 135 134 132 130 128 126 123 121 124 126 128 129 130 130 128 125 125 127 126 125 125 126 127 126 124 121 119 116 115 115 117 119 121 123 125 126 127 130 137 144 151 156 160 161 162 161 162 164 168 170 173 176 177 175 172 167 163 164 169 174 177 178 178 176 173 171 171 173 175 177 177 177 176 174 172 169 166 165 165 165 164 163 162 161 160 159 157 155 154 152 150 148 145 142 139 135 131 127 123 121 121 121 122 124 125 125 124 123 124 125 123 120 117 115 115 114 112 111 111 112 113 115 118 122 127 129 130 131 131 131 133 136 138 141 144 146 147 148 150 152 157 164 172 180 186 189 190 187 182 175 172 174 176 178 182 188 194 201 209 213 213 211 208 206 205 208 214 220 224 225 219 212 204 195 186 177 170 165 163 161 159 157 154 152 150 147 142 138 138 139 140 140 140 140 137 134 130 128 129 132 134 136 137 135 133 132 131 130 129 129 129 129 128 128 128 128 129 129 128 126 125 124 123 122 122 121 120 119 117 115 113 110 109 108 107 106 106 106 105 105 104 103 102 102 102 102 104 107 109 109 110 112 111 112 114 116 118 121 124 125 125 125 124 122 120 120 121 123 124 125 125 126 127 127 128 129 130 128 127 127 128 131 132 133 133 133 131 130 130 129 128 127 126 125 125 125 125 125 123 122 120 119 117 115 114 113 113 114 115 115 113 112 112 112 113 114 114 111 109 109 108 106 103 103 104 104 103 102 102 102 102 102 101 101 103 105 103 102 103 102 102 104 104 104 105 105 105 106 106 105 106 106 106 106 106 106 104 103 101 100 99 98 99 100 101 100 97 97 98 97 94 93 95 96 96 95 92 91 90 90 90 90 89 88 88 88 88 88 89 88 87 88 87 87 87 87 87 88 88 88 88 87 88 88 87 87 87 87 86 87 87 87 87 86 86 86 87 90 93 95 95 98 99 95 95 98 99 97 95 93 88 88 91 93 95 96 95 92 91 92 94 94 94 92 93 91 92 92 92 87 84 86 86 85 85 84 84 84 85 84 84 82 83 85 85 82 82 84 83 81 81 81 81 81 81 81 80 80 80 80 79 79 79 79 80 80 80 80 81 81 81 81 83 84 84 83 83 83 83 83 83 83 84 83 83 83 83 84 84 83 83 84 84 84 84 83 82 81 81 81 82 81 81 81 81 81 81 80 80 80 80 80 80 79 79 79 79 79 78 78 78 78 78 78 77 77 79 79 79 79 79 79 80 81
119 120 124 126 127 127 128 129 127 126 126 126 127 127 127 127 130 132 134 135 135 135 135 136 138 140 142 143 144 144 145 146 148 151 153 156 158 160 161 163 164 164 165 165 164 163 162 161 160 158 156 155 153 152 152 154 159 163 164 164 163 163 163 164 164 164 164 163 163 162 162 162 161 161 160 159 158 158 158 159 158 157 157 160 162 162 161 161 160 160 159 159 159 159 158 156 155 152 148 146 150 155 157 158 157 157 155 153 152 152 152 152 153 154 155 155 156 157 157 157 158 159 161 163 163 163 159 157 156 155 154 153 152 152 152 152 152 152 152 151 151 149 148 147 146 145 145 145 145 145 146 146 146 145 145 144 142 140 138 137 136 133 133 133 135 137 139 141 143 144 143 142 142 142 142 141 142 143 145 146 148 149 150 151 151 151 151 151 151 150 149 147 146 144 141 139 138 138 138 137 135 133 133 131 128 125 122 121 118 115 115 116 119 121 121 121 122 124 127 129 131 134 136 136 134 130 127 126 129 133 138 139 137 134 135 138 140 140 139 137 134 133 135 137 139 140 138 135 132 131 129 128 127 125 122 123 126 128 130 132 133 132 130 128 127 128 128 127 127 127 127 126 122 120 118 116 115 117 118 120 123 126 129 132 133 134 139 146 153 158 162 164 164 163 164 166 170 172 175 177 178 176 171 166 163 167 172 176 178 179 179 176 174 172 173 176 178 179 179 178 177 176 173 170 168 167 166 165 165 164 162 160 159 158 156 154 153 152 150 148 145 142 139 135 131 128 125 123 121 120 120 121 122 122 121 121 122 122 120 118 115 114 113 113 112 112 112 113 116 120 123 126 129 131 133 134 134 133 133 133 136 139 142 144 145 145 147 152 157 164 172 180 187 190 191 187 181 175 174 176 179 181 185 190 197 204 211 216 216 212 206 201 199 203 210 216 220 221 217 210 202 193 185 178 170 163 160 159 157 155 154 152 150 147 143 141 140 141 141 141 140 138 135 132 130 129 131 134 137 139 138 136 133 132 132 132 131 131 131 131 131 130 130 130 130 128 127 126 124 123 123 121 120 120 118 117 116 115 113 111 110 109 107 106 106 105 104 103 103 102 102 102 102 103 106 109 112 112 112 114 114 113 114 116 119 121 123 124 125 126 125 123 121 121 121 123 125 127 127 128 129 130 130 131 131 129 128 128 129 132 134 135 134 133 131 130 130 129 128 128 127 127 127 127 126 125 123 122 120 119 117 115 113 112 112 113 115 115 113 112 111 110 111 112 111 109 107 106 105 103 103 107 109 109 108 105 103 102 101 100 100 100 101 101 100 100 101 100 101 102 102 102 103 103 103 106 105 105 105 104 104 104 105 105 104 104 103 101 99 97 98 100 100 100 98 95 96 95 93 92 92 92 92 91 90 89 89 89 90 90 89 89 90 92 92 94 95 93 91 90 88 88 91 93 93 90 91 94 92 91 89 88 87 87 89 89 89 88 87 87 87 86 86 86 89 91 95 97 97 98 99 96 97 98 99 97 94 91 88 88 91 94 96 97 96 93 93 94 95 95 94 94 94 93 93 92 90 86 85 88 90 87 86 85 85 85 86 86 84 84 86 87 86 83 84 86 85 83 83 82 82 82 82 81 81 81 80 80 79 79 79 79 79 79 79 79 79 79 80 80 81 82 82 82 82 81 81 81 81 81 82 82 82 82 82 82 82 82 83 83 83 83 83 83 82 81 80 81 81 81 81 81 81 80 80 80 80 80 80 80 79 79 79 79 79 78 78 78 78 78 78 78 78 78 81 80 79 79 79 79 80 81
119 120 121 122 124 124 126 126 126 126 126 127 128 128 127 129 133 137 140 140 138 137 137 137 138 140 142 143 143 144 145 147 150 153 155 158 160 161 162 163 164 165 165 164 164 163 162 161 161 159 157 155 153 152 152 154 158 161 163 163 162 162 163 163 164 164 163 162 162 162 162 162 162 161 161 160 160 159 160 160 160 158 158 160 162 163 163 162 161 160 160 160 159 158 158 156 155 152 149 146 150 156 159 158 156 155 154 153 152 152 152 152 153 154 155 156 157 157 158 158 158 160 162 162 162 161 158 157 155 154 153 152 152 152 152 152 151 151 151 151 150 149 147 145 145 145 145 145 146 146 146 147 146 145 144 143 141 139 137 136 134 133 133 135 137 139 141 143 145 145 144 144 144 144 144 144 144 144 146 148 149 150 150 151 151 151 151 151 150 150 149 147 146 144 142 141 140 141 140 139 137 134 134 132 130 126 123 119 115 114 115 116 118 121 122 123 125 128 132 134 136 139 140 138 134 130 127 127 131 136 139 141 139 135 136 138 140 140 140 138 136 136 137 138 139 140 137 134 131 129 127 126 125 124 124 125 127 129 131 133 135 134 132 130 129 128 129 129 129 128 127 124 121 119 118 117 117 118 120 122 125 128 133 136 138 139 141 147 153 158 163 166 167 166 166 168 171 174 176 178 178 176 171 165 164 168 174 178 180 181 179 177 175 175 176 178 180 181 181 180 179 176 173 170 168 167 165 164 164 163 161 159 158 156 154 152 151 150 149 147 144 140 137 134 131 129 127 125 123 121 120 120 120 120 119 119 119 120 119 116 114 113 113 113 112 112 113 115 118 122 125 128 130 133 135 136 137 136 135 134 134 137 139 141 143 144 147 153 158 164 172 180 187 190 191 187 180 176 175 178 181 184 188 193 199 206 213 217 216 211 205 199 196 200 206 212 216 217 214 207 200 191 183 176 170 164 159 156 155 153 152 150 149 146 144 142 142 141 140 140 139 137 134 132 130 131 133 136 138 140 138 135 133 133 133 133 133 133 133 133 133 132 132 131 130 128 127 126 124 123 122 121 120 119 117 116 114 113 112 111 110 110 108 106 106 105 104 103 103 102 102 102 103 105 108 111 113 114 114 116 116 115 115 116 118 121 122 123 125 126 124 123 122 121 121 123 124 126 128 129 130 131 132 133 132 130 129 129 130 133 136 137 135 133 131 130 130 129 128 128 127 127 128 127 126 125 123 121 120 119 117 115 112 112 112 112 113 113 112 111 109 108 108 109 108 106 105 105 104 104 105 109 112 111 110 108 106 103 101 101 100 99 100 99 99 99 99 99 100 100 100 101 103 102 103 105 104 103 104 103 103 103 103 103 103 103 103 103 100 97 97 99 99 99 98 94 93 93 91 91 90 90 89 89 89 89 89 90 90 90 90 90 91 94 94 96 97 95 94 93 90 90 95 98 97 93 93 96 95 94 92 92 90 88 92 94 93 91 88 87 87 86 86 87 91 93 94 95 97 99 100 97 98 100 100 97 94 92 88 88 91 94 96 97 96 94 95 95 97 96 94 94 94 94 93 91 89 87 87 90 91 88 86 85 85 86 87 87 85 85 87 88 87 84 85 87 86 85 84 83 83 83 84 82 83 83 82 81 81 80 79 79 79 79 79 79 79 79 79 79 80 81 81 81 81 81 81 81 81 81 81 82 82 82 82 82 82 82 82 83 82 82 82 82 82 80 79 80 80 80 80 80 80 80 80 80 80 79 79 79 79 79 79 79 79 78 78 78 78 78 78 78 78 80 82 81 79 79 79 79 80 81
